-4.958916008472442627e-01 3.418219983577728271e-01 3.089721798896789551e-01
5.067087411880493164e-01 -4.146583378314971924e-01 -2.147766351699829102e-01
2.075747549533843994e-01 -3.707872629165649414e-01 3.962790668010711670e-01
5.029200315475463867e-01 -1.805214285850524902e-01 -3.281463682651519775e-01
-1.846769452095031738e-01 -2.105085924267768860e-02 5.301579833030700684e-01
4.914838373661041260e-01 -6.691955961287021637e-03 1.429601013660430908e-01
-3.832492530345916748e-01 3.729895129799842834e-02 -4.229628145694732666e-01
-9.232959896326065063e-02 -3.228698968887329102e-01 2.369977980852127075e-01
4.282791316509246826e-01 8.721453696489334106e-02 1.379226520657539368e-02
-1.958989053964614868e-01 -2.203015983104705811e-01 3.260179758071899414e-01
-4.490031599998474121e-01 -3.553990274667739868e-02 2.042466849088668823e-01
-1.835768520832061768e-01 4.692482352256774902e-01 8.958769962191581726e-03
4.159848988056182861e-01 -4.931468367576599121e-01 -6.026731058955192566e-02
5.660735070705413818e-03 -3.997609317302703857e-01 -7.559894025325775146e-02
-3.345122635364532471e-01 -9.395167231559753418e-02 3.358757495880126953e-01
5.467084050178527832e-01 -7.620041072368621826e-02 -9.705180674791336060e-02
-4.039765298366546631e-01 7.341319322586059570e-02 4.083455204963684082e-01
2.455477789044380188e-02 -3.653391897678375244e-01 2.899930179119110107e-01
3.109806180000305176e-01 1.438526809215545654e-01 -2.790857255458831787e-01
3.259037435054779053e-01 -8.222963660955429077e-02 4.840805828571319580e-01
3.113449513912200928e-01 1.281244009733200073e-01 -3.104276359081268311e-01
-1.532778441905975342e-01 2.953903377056121826e-01 -4.795184731483459473e-01
-3.207914829254150391e-01 4.218022227287292480e-01 -3.401975035667419434e-01
9.037832170724868774e-02 -2.551059052348136902e-02 5.699912309646606445e-01
-3.093253374099731445e-01 -1.594944000244140625e-01 -2.495189160108566284e-01
4.368862509727478027e-01 -4.641487896442413330e-01 -1.696052104234695435e-01
2.109213024377822876e-01 8.473628014326095581e-02 4.661461114883422852e-01
3.740173280239105225e-01 -2.029048502445220947e-01 -4.549015164375305176e-01
9.609694033861160278e-02 1.630264818668365479e-01 -4.956989288330078125e-01
-4.106747806072235107e-01 4.789507389068603516e-01 -1.959106177091598511e-01
3.051679134368896484e-01 -3.272202908992767334e-01 -4.182294309139251709e-01
2.291904687881469727e-01 -4.623413980007171631e-01 -1.551641970872879028e-01
-4.555562138557434082e-01 4.870151281356811523e-01 7.585223764181137085e-02
-2.283055186271667480e-01 1.935598999261856079e-01 5.131936669349670410e-01
3.381314873695373535e-01 1.024053767323493958e-01 -3.089929223060607910e-01
-2.624775469303131104e-01 2.253611385822296143e-01 -5.240212082862854004e-01
1.220716163516044617e-01 3.206819891929626465e-01 -1.604190319776535034e-01
1.802858337759971619e-02 3.048633038997650146e-01 -3.761754631996154785e-01
5.260379910469055176e-01 -4.691181778907775879e-01 5.426358431577682495e-02
3.560789823532104492e-01 -4.634112715721130371e-01 -1.970011740922927856e-01
1.723074540495872498e-02 -3.876758217811584473e-01 -1.752470433712005615e-01
3.634259700775146484e-01 -9.186735749244689941e-02 4.585181474685668945e-01
3.962858617305755615e-01 1.087691858410835266e-01 -1.293391436338424683e-01
-4.897716641426086426e-01 4.687136113643646240e-01 -1.747300624847412109e-01
-7.261922955513000488e-02 -2.323686480522155762e-01 4.374711215496063232e-01
-4.291552603244781494e-01 1.224578246474266052e-01 -4.259380400180816650e-01
5.360631272196769714e-03 3.782915472984313965e-01 -1.953253597021102905e-01
-5.903362035751342773e-01 1.568726152181625366e-01 -1.490437239408493042e-01
-5.537498593330383301e-01 3.734000921249389648e-01 2.161125689744949341e-01
-3.178240731358528137e-02 2.384383976459503174e-01 -4.943521618843078613e-01
1.945417225360870361e-01 -3.552673459053039551e-01 4.144936203956604004e-01
1.827196478843688965e-01 -1.835994124412536621e-01 -5.293768048286437988e-01
6.929200142621994019e-02 2.310209870338439941e-01 -4.433501660823822021e-01
-5.258458852767944336e-01 4.032507240772247314e-01 -2.681473493576049805e-01
3.466179370880126953e-01 1.651231795549392700e-01 -6.474550813436508179e-02
1.061769276857376099e-01 -2.787853181362152100e-01 -4.556167423725128174e-01
-2.637103796005249023e-01 1.589305102825164795e-01 5.137177705764770508e-01
1.003131195902824402e-01 -3.893075287342071533e-01 3.071278035640716553e-01
1.843641400337219238e-01 -4.467765688896179199e-01 -1.759277433156967163e-01
-9.773759543895721436e-02 3.016241826117038727e-02 5.670939087867736816e-01
1.861658841371536255e-01 -2.666600942611694336e-01 5.001816153526306152e-01
-1.997801810503005981e-01 2.505033910274505615e-01 4.852230250835418701e-01
2.849861979484558105e-01 1.997355222702026367e-01 -1.812989413738250732e-01
-4.896252155303955078e-01 2.617517113685607910e-01 3.520830869674682617e-01
3.324440121650695801e-01 1.787189990282058716e-01 2.730652689933776855e-02
-1.690022498369216919e-01 2.739470005035400391e-01 4.650730788707733154e-01
-2.374696582555770874e-01 -4.750415682792663574e-02 -4.895289838314056396e-01
4.432582482695579529e-02 -2.110800296068191528e-01 5.163457393646240234e-01
5.360186100006103516e-01 -1.005198732018470764e-01 -1.978281289339065552e-01
-3.961895406246185303e-01 3.764371871948242188e-01 -3.878241777420043945e-01
-1.963609457015991211e-01 6.044683605432510376e-02 -5.575832128524780273e-01
-8.429229259490966797e-03 -2.638810276985168457e-01 -4.229648113250732422e-01
-6.330246329307556152e-01 2.977801859378814697e-01 -9.941449016332626343e-02
2.450882196426391602e-01 1.137641817331314087e-01 -4.219220280647277832e-01
3.793062865734100342e-01 1.324686408042907715e-01 -8.597365021705627441e-02
-6.229254007339477539e-01 2.593101263046264648e-01 9.985695034265518188e-02
-3.567211627960205078e-01 -1.654587537050247192e-01 1.272442750632762909e-05
-4.144888520240783691e-01 -6.393145769834518433e-02 -2.364533841609954834e-01
-3.504471182823181152e-01 7.211687415838241577e-02 -4.751791059970855713e-01
1.933812722563743591e-02 -2.549268603324890137e-01 -4.492646753787994385e-01
3.073198348283767700e-02 -1.981162577867507935e-01 5.215014219284057617e-01
-8.717986941337585449e-02 -1.346707791090011597e-01 5.187993049621582031e-01
5.414794683456420898e-01 -4.337691366672515869e-01 1.692464202642440796e-01
-6.194127202033996582e-01 3.516333103179931641e-01 -1.376413106918334961e-01
9.652765095233917236e-02 -2.259392291307449341e-01 -5.019147396087646484e-01
-5.016001462936401367e-01 3.025954589247703552e-02 -2.082482278347015381e-01
2.149056345224380493e-01 -3.533822298049926758e-01 4.209468066692352295e-01
5.178390741348266602e-01 -4.435679614543914795e-01 1.849668920040130615e-01
-4.927017986774444580e-01 4.149222001433372498e-02 2.388277500867843628e-01
-5.772420391440391541e-02 2.683564126491546631e-01 -4.757840931415557861e-01
-1.842295527458190918e-01 2.855031788349151611e-01 -4.933583438396453857e-01
2.959358096122741699e-01 2.010014802217483521e-01 -1.304570585489273071e-01
-5.216939449310302734e-01 7.197565585374832153e-02 2.124901115894317627e-01
-4.607966244220733643e-01 1.060384586453437805e-01 3.583311438560485840e-01
2.733851671218872070e-01 1.939038485288619995e-01 2.106083929538726807e-01
-3.069056198000907898e-02 -2.516639530658721924e-01 -4.251418411731719971e-01
5.938029885292053223e-01 -4.050970971584320068e-01 9.202865511178970337e-02
-1.378866881132125854e-01 4.523218572139739990e-01 4.757896065711975098e-02
-5.296729207038879395e-01 4.393638372421264648e-01 -2.028896808624267578e-01
-5.278329849243164062e-01 4.476538300514221191e-01 -1.858338266611099243e-01
-1.698302775621414185e-01 8.883589506149291992e-02 -5.676869750022888184e-01
-4.805801808834075928e-01 4.831957817077636719e-01 6.601708382368087769e-02
-5.283858776092529297e-01 4.065366685390472412e-01 2.088601887226104736e-01
-8.263083547353744507e-02 1.338614672422409058e-01 -5.683085918426513672e-01
-1.274246126413345337e-01 7.968650758266448975e-02 -5.754742026329040527e-01
-4.891100227832794189e-01 -7.871304638683795929e-03 -1.492373645305633545e-01
4.583620429039001465e-01 -7.250103168189525604e-03 2.482375800609588623e-01
4.230556637048721313e-02 8.609489351511001587e-02 -5.638544559478759766e-01
9.247042983770370483e-02 -2.904180586338043213e-01 -4.381697773933410645e-01
-2.566836774349212646e-01 4.829576313495635986e-01 5.980129539966583252e-02
1.025629714131355286e-01 -4.126223325729370117e-01 2.444536834955215454e-01
1.981450170278549194e-01 1.636367738246917725e-01 -4.116734862327575684e-01
-3.859146833419799805e-01 3.318074345588684082e-02 4.034317135810852051e-01
-3.541188836097717285e-01 6.386742740869522095e-02 -4.680748283863067627e-01
-5.085808634757995605e-01 4.631974995136260986e-01 1.113687828183174133e-01
6.502889096736907959e-02 3.249293938279151917e-02 5.629769563674926758e-01
-8.790691941976547241e-02 -3.160730898380279541e-01 -2.419161945581436157e-01
-1.799733340740203857e-01 -2.979240715503692627e-01 8.311478793621063232e-02
-5.721560120582580566e-02 -2.987406849861145020e-01 -3.253607749938964844e-01
1.023431569337844849e-01 8.372427895665168762e-03 5.609127879142761230e-01
1.635994017124176025e-01 1.327516138553619385e-01 -4.762913882732391357e-01
3.101835548877716064e-01 -4.964472651481628418e-01 1.102864183485507965e-02
3.460318148136138916e-01 1.520215719938278198e-01 1.365001946687698364e-01
-6.310768127441406250e-01 3.594692647457122803e-01 -5.090665072202682495e-03
-6.014716625213623047e-01 4.082947671413421631e-01 5.240567028522491455e-02
3.401869833469390869e-01 -2.251205500215291977e-03 4.243716895580291748e-01
-3.831318318843841553e-01 5.002859234809875488e-01 -7.804585993289947510e-02
-1.046667471528053284e-01 8.807111531496047974e-02 -5.773847699165344238e-01
-1.415019184350967407e-01 -2.445878535509109497e-01 -3.363880813121795654e-01
5.655512213706970215e-01 -3.793236911296844482e-01 -1.794059574604034424e-01
-2.048385739326477051e-01 1.436717249453067780e-02 -5.419036746025085449e-01
1.148248761892318726e-01 2.207101732492446899e-01 -4.184078872203826904e-01
-3.217497467994689941e-01 4.973960518836975098e-01 7.036462891846895218e-03
6.616567075252532959e-02 -2.716121971607208252e-01 -4.502868354320526123e-01
-5.487740039825439453e-02 3.014049530029296875e-01 3.972092568874359131e-01
-5.445046424865722656e-01 4.494339525699615479e-01 9.476098418235778809e-02
1.455409824848175049e-01 -6.887219101190567017e-02 -5.621024966239929199e-01
-2.711717486381530762e-01 -2.216099053621292114e-01 1.549916416406631470e-01
9.758571535348892212e-02 -4.317699968814849854e-01 -1.185078769922256470e-01
-5.080651044845581055e-01 1.415870636701583862e-01 -3.350879848003387451e-01
1.786524355411529541e-01 2.785017788410186768e-01 -1.874538362026214600e-01
-3.758784830570220947e-01 1.467963904142379761e-01 4.552874267101287842e-01
5.925137996673583984e-01 -1.942924708127975464e-01 -1.365401148796081543e-01
4.075779616832733154e-01 -4.518420100212097168e-01 2.567256093025207520e-01
1.973473727703094482e-01 -3.419340401887893677e-02 5.406415462493896484e-01
5.461096763610839844e-01 -4.372467696666717529e-01 1.508901715278625488e-01
3.920609354972839355e-01 3.534070774912834167e-02 3.121697306632995605e-01
5.452402830123901367e-01 -4.540001749992370605e-01 8.867980539798736572e-02
4.359700679779052734e-01 -4.825662076473236084e-01 1.502650976181030273e-01
-9.420122206211090088e-02 -2.332199364900588989e-01 -4.034296572208404541e-01
-8.711506426334381104e-02 4.153779447078704834e-01 1.626462340354919434e-01
2.327916473150253296e-01 -1.903368681669235229e-01 -5.179092884063720703e-01
-8.554162830114364624e-02 3.284893929958343506e-01 3.733150959014892578e-01
6.187512874603271484e-01 -3.340101540088653564e-01 -7.158841937780380249e-02
-8.292100578546524048e-02 -3.051419556140899658e-01 3.023625314235687256e-01
-2.204576134681701660e-01 -2.309005111455917358e-01 -2.447728812694549561e-01
-4.453474581241607666e-01 1.606366336345672607e-01 -4.237285256385803223e-01
2.852926254272460938e-01 -4.701582193374633789e-01 -1.612337529659271240e-01
-4.782808721065521240e-01 3.220233321189880371e-01 3.376183509826660156e-01
5.706286430358886719e-02 9.752588346600532532e-03 -5.775002837181091309e-01
4.525976479053497314e-01 1.738223060965538025e-02 -2.180596590042114258e-01
-2.712874114513397217e-01 4.371596872806549072e-01 -3.015574216842651367e-01
-4.090293347835540771e-01 4.323365390300750732e-01 -3.082336783409118652e-01
1.321775764226913452e-01 1.852461397647857666e-01 4.230517745018005371e-01
6.056051850318908691e-01 -3.967167437076568604e-01 2.867331914603710175e-02
2.559419870376586914e-01 2.299818396568298340e-01 1.205162927508354187e-01
-2.714542746543884277e-01 4.781638681888580322e-01 -1.666997075080871582e-01
-1.323612928390502930e-01 -1.866181194782257080e-01 4.451849758625030518e-01
3.419844806194305420e-01 1.641130596399307251e-01 -1.108210831880569458e-01
1.750551611185073853e-01 -4.114442765712738037e-01 -2.742552757263183594e-01
4.669434577226638794e-02 2.364047616720199585e-01 4.227049052715301514e-01
-1.153815388679504395e-01 3.908140063285827637e-01 -3.189044892787933350e-01
-4.931824803352355957e-01 1.360478401184082031e-01 3.297395706176757812e-01
3.233500123023986816e-01 1.836852282285690308e-01 6.344787031412124634e-02
-4.538759291172027588e-01 3.646121025085449219e-01 3.225611150264739990e-01
5.153967738151550293e-01 -6.450190395116806030e-02 2.024775296449661255e-01
-2.331091463565826416e-02 -3.805266618728637695e-01 -1.159948259592056274e-01
-8.897120505571365356e-02 4.192158579826354980e-01 1.488410234451293945e-01
6.045188307762145996e-01 -1.808240860700607300e-01 4.048307612538337708e-02
4.379720240831375122e-02 -3.926169872283935547e-01 -2.004438489675521851e-01
4.147792756557464600e-01 -3.049809336662292480e-01 4.192042946815490723e-01
5.566238164901733398e-01 -2.065678685903549194e-01 2.635518908500671387e-01
2.214970588684082031e-01 -4.136304557323455811e-01 3.277415633201599121e-01
-1.241361126303672791e-01 2.707897722721099854e-01 -4.955826103687286377e-01
-5.504978895187377930e-01 2.326931357383728027e-01 2.750124037265777588e-01
3.356348574161529541e-01 1.715013682842254639e-01 7.668507844209671021e-02
2.702295780181884766e-01 2.257255017757415771e-01 7.554197311401367188e-02
-5.892109274864196777e-01 3.975837826728820801e-01 -1.698952168226242065e-01
3.467729985713958740e-01 -1.672687083482742310e-01 4.880063533782958984e-01
-2.650099098682403564e-01 4.894562065601348877e-01 -8.473500609397888184e-03
3.494441807270050049e-01 1.380420178174972534e-01 1.792915314435958862e-01
7.882818579673767090e-02 8.834899216890335083e-02 5.360733866691589355e-01
3.262665867805480957e-01 -4.417591691017150879e-01 2.916952669620513916e-01
3.490665853023529053e-01 1.366978883743286133e-01 -2.032191455364227295e-01
4.489231407642364502e-01 -2.536318600177764893e-01 4.113045334815979004e-01
3.020341992378234863e-01 9.351301938295364380e-02 -3.784520924091339111e-01
-1.312038451433181763e-01 4.221350848674774170e-01 -2.472991347312927246e-01
5.833014845848083496e-01 -1.630462706089019775e-01 -1.298171579837799072e-01
1.378514915704727173e-01 1.386900395154953003e-01 -4.895603954792022705e-01
5.465827882289886475e-02 -3.948709368705749512e-01 2.412967681884765625e-01
-5.208565592765808105e-01 1.939205266535282135e-02 7.194949686527252197e-02
1.104582473635673523e-01 2.884562313556671143e-01 2.639050781726837158e-01
5.771765112876892090e-01 -3.403882980346679688e-01 2.250811606645584106e-01
8.244138956069946289e-02 -3.995439708232879639e-01 -2.281266599893569946e-01
-2.551414072513580322e-01 6.251774728298187256e-02 5.180516839027404785e-01
-6.022796034812927246e-01 1.720972508192062378e-01 9.144368022680282593e-02
3.145400583744049072e-01 1.947956830263137817e-01 9.875303134322166443e-03
-6.385666728019714355e-01 2.974798977375030518e-01 -3.802585974335670471e-02
2.005200386047363281e-01 2.383493930101394653e-01 2.411988526582717896e-01
-2.496061474084854126e-01 3.746435046195983887e-01 -4.064515233039855957e-01
-4.416645765304565430e-01 4.739050567150115967e-01 1.405369043350219727e-01
-7.322227954864501953e-02 -9.789146482944488525e-02 -5.425804257392883301e-01
4.623656272888183594e-01 -2.987627387046813965e-01 3.881339132785797119e-01
3.509488403797149658e-01 1.156373396515846252e-01 -2.556939721107482910e-01
-3.830975592136383057e-01 -2.806455641984939575e-02 3.503791987895965576e-01
-6.116786599159240723e-01 2.509597837924957275e-01 1.401120871305465698e-01
4.944977760314941406e-01 -9.049651026725769043e-02 2.904849350452423096e-01
1.966107487678527832e-01 1.232846826314926147e-01 -4.584647715091705322e-01
-3.706811368465423584e-01 2.154067344963550568e-02 4.121870994567871094e-01
-5.483756661415100098e-01 6.161254271864891052e-02 -9.600955992937088013e-02
3.986403942108154297e-01 9.911277145147323608e-02 1.471059024333953857e-01
4.035480022430419922e-01 -4.783034324645996094e-01 -1.402073204517364502e-01
-2.945526242256164551e-01 4.228020608425140381e-01 2.845099568367004395e-01
-3.318353295326232910e-01 8.856792747974395752e-02 4.772905111312866211e-01
2.535574734210968018e-01 -2.186851054430007935e-01 5.184189081192016602e-01
-4.141967594623565674e-01 4.235624074935913086e-01 -3.207862973213195801e-01
-5.550209283828735352e-01 3.365771174430847168e-01 2.443934530019760132e-01
-3.434670865535736084e-01 4.886255264282226562e-01 9.831558167934417725e-02
1.999185830354690552e-01 -4.692924618721008301e-01 -7.939255237579345703e-02
2.111077755689620972e-01 6.575163453817367554e-02 4.815789163112640381e-01
-5.931341648101806641e-01 4.017983675003051758e-01 9.950277954339981079e-02
-4.016706347465515137e-02 3.530018627643585205e-01 2.935955226421356201e-01
-5.343850702047348022e-02 3.495901525020599365e-01 3.129571378231048584e-01
2.395503073930740356e-01 -1.368140429258346558e-01 5.376811623573303223e-01
-2.865834161639213562e-03 9.762968122959136963e-02 5.531584620475769043e-01
-1.434588879346847534e-01 1.127023026347160339e-01 5.514612793922424316e-01
-1.065615378320217133e-02 3.500465452671051025e-01 -3.118968904018402100e-01
-2.291791737079620361e-01 4.129131734371185303e-01 2.883805632591247559e-01
3.393869400024414062e-01 8.848883956670761108e-02 3.166757225990295410e-01
-1.254737228155136108e-01 3.871284127235412598e-01 2.880193591117858887e-01
-5.240119099617004395e-01 1.749352067708969116e-01 -3.298979699611663818e-01
7.398464530706405640e-02 -4.018416404724121094e-01 -2.103080749511718750e-01
-4.390637576580047607e-01 3.840764760971069336e-01 3.110401630401611328e-01
-6.637816131114959717e-02 3.762289881706237793e-01 -3.087218105792999268e-01
4.854328632354736328e-01 1.752951927483081818e-02 -6.963275372982025146e-02
-3.651998341083526611e-01 -1.578000187873840332e-01 4.943403881043195724e-03
6.087634563446044922e-01 -2.483176738023757935e-01 1.427065432071685791e-01
-8.861842006444931030e-02 -3.512790203094482422e-01 1.078764572739601135e-01
2.971728444099426270e-01 -2.211665660142898560e-01 5.050573348999023438e-01
4.131616055965423584e-01 -4.382258057594299316e-01 -2.420496642589569092e-01
4.372957646846771240e-01 -4.727160558104515076e-02 3.430530130863189697e-01
1.161170285195112228e-02 2.632617652416229248e-01 4.104720950126647949e-01
-4.282868206501007080e-01 4.324557632207870483e-02 -3.723922967910766602e-01
5.706084370613098145e-01 -1.256397962570190430e-01 1.224434375762939453e-01
-3.007348179817199707e-01 -2.127945423126220703e-01 2.793867327272891998e-02
-1.605697125196456909e-01 3.028870522975921631e-01 4.349598884582519531e-01
3.232081830501556396e-01 -2.884553670883178711e-01 4.686526358127593994e-01
-2.464603781700134277e-01 1.344397068023681641e-01 -5.460047721862792969e-01
5.675534009933471680e-01 -1.024432778358459473e-01 -4.521451517939567566e-02
-1.321500986814498901e-01 -3.100425601005554199e-01 -1.727189123630523682e-01
-5.250446125864982605e-02 -3.547881245613098145e-01 2.005375623703002930e-01
1.433373093605041504e-01 1.062111556529998779e-01 -5.107960104942321777e-01
3.279115557670593262e-01 -4.903333783149719238e-01 1.282649785280227661e-01
-2.244003415107727051e-01 -2.604682445526123047e-01 1.357752233743667603e-01
1.574130505323410034e-01 3.059493899345397949e-01 -1.085134223103523254e-01
9.581933915615081787e-02 3.441334366798400879e-01 6.452761590480804443e-02
-6.389217078685760498e-02 -1.469840854406356812e-01 -5.140281915664672852e-01
6.960738450288772583e-02 -4.317381680011749268e-01 5.446719378232955933e-02
-5.519524812698364258e-01 9.306364506483078003e-02 1.541497409343719482e-01
-2.409450113773345947e-01 1.529537588357925415e-01 5.222502946853637695e-01
-2.332598119974136353e-01 4.466097354888916016e-01 -2.595366537570953369e-01
3.488486409187316895e-01 -8.595152199268341064e-02 4.680690765380859375e-01
-3.288340568542480469e-02 8.410684764385223389e-02 5.617655515670776367e-01
-5.978174209594726562e-01 3.210825026035308838e-01 -2.192207872867584229e-01
6.046939268708229065e-02 3.576989471912384033e-01 -1.531534194946289062e-01
3.982191979885101318e-01 1.131951957941055298e-01 -9.029483050107955933e-02
-1.935556977987289429e-01 4.723872244358062744e-01 -5.730598419904708862e-02
2.277633994817733765e-01 3.502938151359558105e-02 4.919736087322235107e-01
1.831237375736236572e-01 2.603369951248168945e-01 2.112633734941482544e-01
-3.362583518028259277e-01 2.956370711326599121e-01 -4.716936349868774414e-01
-1.618971079587936401e-01 -1.920068860054016113e-01 4.123795032501220703e-01
-3.701265752315521240e-01 2.778804898262023926e-01 -4.679969847202301025e-01
-9.047295898199081421e-02 3.917678296566009521e-01 -2.935607731342315674e-01
5.051438212394714355e-01 -2.422829717397689819e-02 1.397012472152709961e-01
3.810293972492218018e-01 1.198985949158668518e-01 1.332463026046752930e-01
-3.674326837062835693e-01 3.145682811737060547e-01 -4.495384395122528076e-01
-6.789576262235641479e-02 -2.738361358642578125e-01 -3.619757294654846191e-01
-1.508533954620361328e-01 3.921845853328704834e-01 2.938303053379058838e-01
-1.994286924600601196e-01 -2.298100441694259644e-01 -2.858411669731140137e-01
2.610209882259368896e-01 2.285230755805969238e-01 1.063285320997238159e-01
4.078377187252044678e-01 -4.599572122097015381e-01 -1.951850801706314087e-01
-3.298967331647872925e-02 -1.940703243017196655e-01 -4.880651831626892090e-01
-2.290990501642227173e-01 -1.978656053543090820e-01 3.201740086078643799e-01
1.254685372114181519e-01 -1.777289062738418579e-01 -5.352410078048706055e-01
-1.032937765121459961e-01 -9.118770807981491089e-02 5.365324616432189941e-01
1.890642195940017700e-01 -3.646911084651947021e-01 -3.690398931503295898e-01
-2.830049488693475723e-03 -2.449205964803695679e-01 4.673694372177124023e-01
-2.605329081416130066e-02 -3.534536361694335938e-01 2.546175420284271240e-01
-5.580904483795166016e-01 1.923135370016098022e-01 -2.788580358028411865e-01
-3.746237754821777344e-01 3.109427690505981445e-01 4.077974855899810791e-01
1.648609042167663574e-01 -9.150650352239608765e-02 -5.560324192047119141e-01
1.967822015285491943e-01 2.199610173702239990e-01 2.930211722850799561e-01
-2.895331382751464844e-01 -1.862756311893463135e-01 2.303416430950164795e-01
1.663052737712860107e-01 2.159914672374725342e-01 3.429138660430908203e-01
3.673408031463623047e-01 -3.857096433639526367e-01 3.748417198657989502e-01
-5.401858314871788025e-02 1.604188233613967896e-01 5.309402942657470703e-01
6.253040432929992676e-01 -2.581698596477508545e-01 3.302649036049842834e-02
-6.409613043069839478e-02 -2.897146344184875488e-01 -3.362186253070831299e-01
-2.828405499458312988e-01 -1.956124007701873779e-01 2.189342081546783447e-01
-3.279592990875244141e-01 2.281876746565103531e-03 -4.522209465503692627e-01
-2.048431634902954102e-01 1.788232475519180298e-01 -5.496319532394409180e-01
5.745406746864318848e-01 -1.129177361726760864e-01 -2.050191350281238556e-02
-5.907442569732666016e-01 1.702241450548171997e-01 1.414729058742523193e-01
1.369219571352005005e-01 -4.311042129993438721e-01 2.212042957544326782e-01
-2.540221810340881348e-02 3.349370658397674561e-01 -3.598752617835998535e-01
-3.896249234676361084e-01 4.991592168807983398e-01 3.109809570014476776e-02
4.059295058250427246e-01 -4.274553060531616211e-01 3.040691912174224854e-01
1.021382808685302734e-01 -4.409951567649841309e-01 -6.194843351840972900e-02
-4.454175233840942383e-01 4.174480736255645752e-01 -3.153289258480072021e-01
-2.374028041958808899e-02 3.933508396148681641e-01 -1.897455304861068726e-01
-4.643027782440185547e-01 3.676320314407348633e-01 3.125584423542022705e-01
5.634428262710571289e-01 -1.911676526069641113e-01 -2.220918536186218262e-01
2.570955455303192139e-01 -2.317147515714168549e-02 -5.083492398262023926e-01
6.737267225980758667e-02 -3.530868589878082275e-01 3.576215207576751709e-01
4.471114277839660645e-01 2.028521848842501640e-03 2.576977610588073730e-01
-6.116567254066467285e-01 3.182061910629272461e-01 -1.843411475419998169e-01
3.098655939102172852e-01 -4.519500732421875000e-01 -2.257775515317916870e-01
2.725597620010375977e-01 -1.592846512794494629e-01 5.246003866195678711e-01
-5.135189890861511230e-01 8.334590494632720947e-02 2.486518025398254395e-01
1.899918764829635620e-01 -4.675073921680450439e-01 1.144079715013504028e-01
1.284671276807785034e-01 1.437570061534643173e-02 5.513666272163391113e-01
-3.315146863460540771e-01 -1.835892796516418457e-01 7.946500927209854126e-02
2.898050546646118164e-01 -3.044632673263549805e-01 4.665648341178894043e-01
4.224036820232868195e-04 -4.014517962932586670e-01 -2.369959652423858643e-02
8.496724814176559448e-02 3.472445905208587646e-01 9.015265107154846191e-02
9.896964579820632935e-02 3.133781850337982178e-01 -2.485616654157638550e-01
-3.280710577964782715e-01 -1.378236562013626099e-01 2.668115794658660889e-01
3.079595863819122314e-01 -3.778181374073028564e-01 3.950162231922149658e-01
-5.392416715621948242e-01 6.078281998634338379e-02 1.281412392854690552e-01
1.584376841783523560e-01 3.627427620813250542e-03 5.442461967468261719e-01
6.225064992904663086e-01 -3.216199576854705811e-01 8.947467058897018433e-02
2.830601036548614502e-01 -4.837979674339294434e-01 1.378628611564636230e-01
2.026500999927520752e-01 -3.007681667804718018e-01 -4.495538771152496338e-01
5.308749079704284668e-01 -4.083844274282455444e-02 3.387615829706192017e-02
6.259232163429260254e-01 -2.756429314613342285e-01 -3.290243819355964661e-02
-1.190078444778919220e-02 3.580048382282257080e-01 2.498978972434997559e-01
-3.364448547363281250e-01 1.851711124181747437e-01 -5.062437653541564941e-01
-2.930689454078674316e-01 -1.887916475534439087e-01 -2.037386000156402588e-01
-4.289528131484985352e-01 6.305532902479171753e-02 3.723699152469635010e-01
-4.795120060443878174e-01 3.394166529178619385e-01 3.249402940273284912e-01
1.767713874578475952e-01 2.923302650451660156e-01 8.037722110748291016e-02
-3.021724522113800049e-01 2.875640690326690674e-01 4.471058845520019531e-01
-6.765502505004405975e-03 1.545897722244262695e-01 -5.466469526290893555e-01
-8.177595585584640503e-02 9.659526497125625610e-02 5.597456693649291992e-01
-4.245420992374420166e-01 -3.062758222222328186e-02 -2.815672755241394043e-01
3.568926155567169189e-01 -4.871858954429626465e-01 1.540221720933914185e-01
3.069325983524322510e-01 1.210750341415405273e-01 -3.305235207080841064e-01
-1.533658504486083984e-01 4.505279660224914551e-01 1.019227504730224609e-01
-2.087392061948776245e-01 -1.443455964326858521e-01 4.254021942615509033e-01
1.741205602884292603e-01 -1.422390639781951904e-01 5.534776449203491211e-01
3.729802966117858887e-01 1.343749463558197021e-01 9.798249602317810059e-02
1.316147856414318085e-03 3.940719664096832275e-01 -1.091560795903205872e-01
-5.064482688903808594e-01 2.967703156173229218e-03 -1.011351197957992554e-01
2.215498089790344238e-01 1.923884451389312744e-01 3.125919997692108154e-01
2.950520217418670654e-01 1.067308709025382996e-01 -3.702377974987030029e-01
2.006161659955978394e-01 2.811866998672485352e-01 2.308811061084270477e-02
4.454340040683746338e-01 -2.891026809811592102e-02 -3.089673519134521484e-01
5.240521430969238281e-01 -2.271942794322967529e-01 -3.074531853199005127e-01
-2.729227393865585327e-02 4.066662788391113281e-01 6.872599571943283081e-02
-2.419478148221969604e-01 -1.871380209922790527e-01 -3.110745549201965332e-01
-2.999286055564880371e-01 -2.098112851381301880e-01 -7.047753781080245972e-02
-3.892056941986083984e-01 2.771021425724029541e-01 4.212732315063476562e-01
1.238099262118339539e-01 -2.603892385959625244e-01 -4.777907133102416992e-01
-1.791105717420578003e-01 -3.877955675125122070e-02 -5.303215384483337402e-01
4.582520127296447754e-01 -3.532026112079620361e-01 -3.287127315998077393e-01
2.793468534946441650e-01 -1.823687553405761719e-01 5.196316242218017578e-01
4.008023142814636230e-01 1.115522608160972595e-01 6.719042360782623291e-02
-5.256329178810119629e-01 2.665756642818450928e-01 -3.482079207897186279e-01
3.272298574447631836e-01 1.770254373550415039e-01 9.007023274898529053e-02
4.284089803695678711e-01 -1.591500043869018555e-01 -4.113520681858062744e-01
4.619473516941070557e-01 -1.500234752893447876e-01 3.838309943675994873e-01
3.678619861602783203e-01 -4.986133575439453125e-01 7.113972306251525879e-02
-3.260887563228607178e-01 5.366352945566177368e-02 -4.855737388134002686e-01
-1.451572328805923462e-01 -2.028502374887466431e-01 4.140962958335876465e-01
5.927858948707580566e-01 -1.870679706335067749e-01 1.419807672500610352e-01
4.628787040710449219e-01 -4.694349467754364014e-01 1.773881167173385620e-01
-8.860655128955841064e-02 -2.265663892030715942e-01 -4.173521995544433594e-01
5.427871346473693848e-01 -5.797765776515007019e-02 1.799924299120903015e-02
3.869545459747314453e-01 8.149385452270507812e-02 -2.479822039604187012e-01
2.764852344989776611e-01 -8.527781814336776733e-02 5.161558389663696289e-01
-1.749409586191177368e-01 4.415805041790008545e-01 -2.276184260845184326e-01
1.597228944301605225e-01 -1.321211308240890503e-01 -5.499269366264343262e-01
4.258514046669006348e-01 5.423447862267494202e-02 -2.081090062856674194e-01
3.690205812454223633e-01 1.323947310447692871e-01 1.287654638290405273e-01
-1.229595839977264404e-01 4.498161077499389648e-01 -6.099130958318710327e-02
5.835320949554443359e-01 -4.274712800979614258e-01 9.725354611873626709e-03
4.442270100116729736e-01 -4.909324645996093750e-02 3.340632915496826172e-01
-7.914530113339424133e-03 -3.049049377441406250e-01 3.837546706199645996e-01
-1.768521070480346680e-01 -1.690374314785003662e-01 -4.183352887630462646e-01
-2.820236086845397949e-01 1.713787615299224854e-01 5.046209096908569336e-01
-3.430405631661415100e-02 -1.678037792444229126e-01 5.196391344070434570e-01
1.943690925836563110e-01 -4.425220489501953125e-01 2.392329573631286621e-01
-1.194410696625709534e-01 -3.385304808616638184e-01 -1.239148154854774475e-02
5.692803263664245605e-01 -1.517040878534317017e-01 -1.669061481952667236e-01
-3.280788194388151169e-03 -3.948900103569030762e-01 -8.177547156810760498e-02
2.172458022832870483e-01 -1.070958599448204041e-01 -5.397167205810546875e-01
-2.260472327470779419e-01 2.957718074321746826e-01 -4.874919354915618896e-01
-5.179638862609863281e-01 2.259210646152496338e-01 3.223073184490203857e-01
4.871125519275665283e-01 -4.587300419807434082e-01 1.850095838308334351e-01
-2.566220462322235107e-01 -2.451783716678619385e-01 -5.088817700743675232e-02
-1.191158369183540344e-01 -2.749054133892059326e-01 -3.018001616001129150e-01
-4.157847762107849121e-01 3.683245182037353516e-01 -3.875770866870880127e-01
2.972955703735351562e-01 -3.721030354499816895e-01 -3.700338304042816162e-01
-8.642557263374328613e-02 -1.949560493230819702e-01 -4.577680826187133789e-01
-5.758187919855117798e-02 -8.022160828113555908e-02 5.567193031311035156e-01
-9.261557459831237793e-02 -2.133879251778125763e-02 5.633177757263183594e-01
-2.570394426584243774e-02 -2.684233151376247406e-02 -5.785745382308959961e-01
4.725061058998107910e-01 -1.096736043691635132e-01 3.456332385540008545e-01
1.817467808723449707e-01 2.848366200923919678e-01 -1.441214978694915771e-01
3.086891770362854004e-02 2.550401985645294189e-01 4.087424874305725098e-01
-3.753360211849212646e-01 1.041679680347442627e-01 -4.683616161346435547e-01
1.464630961418151855e-01 1.366346180438995361e-01 4.656445980072021484e-01
-6.231204867362976074e-01 3.384586572647094727e-01 8.849588781595230103e-02
-3.157610297203063965e-01 4.698596596717834473e-01 1.689279079437255859e-01
-5.757038593292236328e-01 3.435909748077392578e-01 2.067358791828155518e-01
-1.578196585178375244e-01 -9.136844426393508911e-02 -5.086356401443481445e-01
-2.086129337549209595e-01 9.375929832458496094e-02 -5.574607253074645996e-01
-1.410056054592132568e-01 2.448322623968124390e-01 4.863170683383941650e-01
-2.029037922620773315e-01 1.978988796472549438e-01 -5.438930988311767578e-01
-5.990540981292724609e-01 1.564369946718215942e-01 -9.952697902917861938e-02
4.796693846583366394e-02 3.586828112602233887e-01 1.416716426610946655e-01
-2.185325920581817627e-01 4.567970931529998779e-01 1.589682400226593018e-01
5.144999623298645020e-01 -1.439864188432693481e-01 -2.918094098567962646e-01
-5.844048261642456055e-01 1.390556544065475464e-01 -1.391608566045761108e-01
3.346674144268035889e-01 -4.172866791486740112e-02 -4.580652415752410889e-01
3.762211501598358154e-01 2.552593313157558441e-02 3.511147499084472656e-01
2.027848809957504272e-01 1.858333945274353027e-01 -3.744074404239654541e-01
-4.287211298942565918e-01 4.362215697765350342e-01 -2.935452163219451904e-01
2.307886257767677307e-02 -1.094380840659141541e-01 -5.593026876449584961e-01
-1.547690033912658691e-01 4.556646049022674561e-01 6.830306351184844971e-02
-2.557872235774993896e-01 3.440540730953216553e-01 4.000388383865356445e-01
-4.434357583522796631e-01 1.092460677027702332e-01 -4.032931625843048096e-01
4.362250268459320068e-01 -4.549652338027954102e-01 -1.941370517015457153e-01
-2.902972400188446045e-01 -1.552737206220626831e-01 3.028848469257354736e-01
-2.730921804904937744e-01 -1.756508350372314453e-01 2.916530072689056396e-01
-2.702968418598175049e-01 4.393275380134582520e-01 2.428314685821533203e-01
4.287760257720947266e-01 -7.481104135513305664e-02 -3.761378824710845947e-01
-4.005167186260223389e-01 -1.133646368980407715e-01 -1.186332628130912781e-01
-1.697460114955902100e-01 3.335007429122924805e-01 4.003518819808959961e-01
3.688186407089233398e-01 -4.259380400180816650e-01 3.177025914192199707e-01
6.231762766838073730e-01 -2.941156625747680664e-01 9.149511158466339111e-02
4.782147109508514404e-01 -2.188953757286071777e-01 -3.653515279293060303e-01
-1.754209697246551514e-01 -2.409320324659347534e-01 3.138938248157501221e-01
4.499762356281280518e-01 3.772015334106981754e-04 -2.578154802322387695e-01
-5.824941396713256836e-01 3.432539999485015869e-01 1.945032179355621338e-01
-5.491400957107543945e-01 1.320607364177703857e-01 2.210708111524581909e-01
-4.716150164604187012e-01 8.528280258178710938e-02 -3.477581739425659180e-01
-4.532273113727569580e-01 1.679744869470596313e-01 -4.178288877010345459e-01
-4.322963058948516846e-01 -8.679609745740890503e-02 -8.209762722253799438e-02
-1.846087872982025146e-01 4.683676064014434814e-01 2.910679765045642853e-02
2.683883011341094971e-01 2.291353493928909302e-01 5.706646293401718140e-02
-4.795564413070678711e-01 4.694112539291381836e-01 1.254632771015167236e-01
-1.036300808191299438e-01 3.867833018302917480e-01 -3.184181451797485352e-01
2.519129514694213867e-01 -4.311101138591766357e-02 -5.177157521247863770e-01
-6.291881203651428223e-01 2.415609210729598999e-01 4.268555343151092529e-02
-1.878943294286727905e-05 -7.903824746608734131e-02 -5.677507519721984863e-01
-7.218637317419052124e-02 4.053718149662017822e-01 1.796122193336486816e-01
3.049832582473754883e-02 -3.369052410125732422e-01 3.588987886905670166e-01
3.212737739086151123e-01 -4.953422844409942627e-01 -3.541376814246177673e-02
1.682403236627578735e-01 1.079590991139411926e-01 -4.935354888439178467e-01
6.184428930282592773e-01 -2.477521747350692749e-01 9.072971343994140625e-02
4.320154786109924316e-01 8.061762154102325439e-02 5.343645066022872925e-02
-3.763577342033386230e-01 8.293212205171585083e-02 4.400013983249664307e-01
7.489982992410659790e-02 -2.785712480545043945e-02 -5.762276649475097656e-01
2.560468316078186035e-01 -4.742393493652343750e-01 1.664001643657684326e-01
-4.897211194038391113e-01 4.048126935958862305e-01 2.502634823322296143e-01
1.064452230930328369e-01 2.820890545845031738e-01 -3.201940655708312988e-01
-8.513554930686950684e-03 -9.611470997333526611e-02 -5.600556731224060059e-01
1.861483305692672729e-01 1.676390469074249268e-01 -4.190675616264343262e-01
-4.708363711833953857e-01 4.787279963493347168e-01 -1.584087163209915161e-01
-4.579455256462097168e-01 4.423674046993255615e-01 2.113098204135894775e-01
3.483105003833770752e-01 -4.903807342052459717e-01 1.353789418935775757e-01
1.930375993251800537e-01 -4.738752543926239014e-01 1.922477781772613525e-02
-5.467625856399536133e-01 4.505847096443176270e-01 -1.423861086368560791e-01
-5.793499350547790527e-01 1.109379157423973083e-01 -8.024889230728149414e-02
-7.792975753545761108e-02 -4.444091767072677612e-02 -5.651778578758239746e-01
3.915022611618041992e-01 -3.866650462150573730e-01 3.657479286193847656e-01
4.987540245056152344e-01 -3.650316596031188965e-02 -1.958976238965988159e-01
3.469342738389968872e-02 -3.929221630096435547e-01 2.175820767879486084e-01
8.234008401632308960e-02 -1.929341256618499756e-01 -5.232374668121337891e-01
1.634579896926879883e-01 -4.383226037025451660e-01 -1.864844709634780884e-01
-2.674111127853393555e-01 -1.982886493206024170e-01 -2.373745143413543701e-01
-4.339684545993804932e-01 -4.971874505281448364e-02 2.134681344032287598e-01
-8.577946573495864868e-03 1.918867826461791992e-01 -5.236065983772277832e-01
1.359797269105911255e-01 -1.143022254109382629e-01 -5.576124787330627441e-01
-4.164193570613861084e-02 3.365359604358673096e-01 -3.707999885082244873e-01
6.004505753517150879e-01 -3.931929767131805420e-01 -5.771581456065177917e-02
-1.128582581877708435e-01 3.395036160945892334e-01 -4.122949540615081787e-01
-2.472259551286697388e-01 2.104474306106567383e-01 5.023706555366516113e-01
-4.186691343784332275e-01 4.149427413940429688e-01 -3.319291770458221436e-01
5.966404676437377930e-01 -4.107152223587036133e-01 3.583281859755516052e-02
1.422666460275650024e-01 1.209382563829421997e-01 -5.008752346038818359e-01
-5.913079380989074707e-01 1.963068693876266479e-01 1.689248532056808472e-01
4.585525989532470703e-01 -2.018312960863113403e-01 -3.859173953533172607e-01
3.946485519409179688e-01 -3.548566251993179321e-02 -3.912859261035919189e-01
-4.068913757801055908e-01 5.015537142753601074e-01 -3.073535300791263580e-02
-3.942459076642990112e-02 1.859437674283981323e-01 5.112777352333068848e-01
3.481701016426086426e-01 -3.722225725650787354e-01 -3.619952797889709473e-01
2.410540580749511719e-01 -4.700435698032379150e-01 -1.309193521738052368e-01
-4.910410344600677490e-01 4.533145129680633545e-01 -2.168046087026596069e-01
-3.453162014484405518e-01 1.407172977924346924e-01 4.756612181663513184e-01
-1.128969937562942505e-01 -1.753273457288742065e-01 4.714066684246063232e-01
-4.812243878841400146e-01 1.881432682275772095e-01 3.632448017597198486e-01
-1.582439243793487549e-01 -2.781677544116973877e-01 2.492089271545410156e-01
4.251512885093688965e-01 -1.260973364114761353e-01 -4.060655236244201660e-01
-4.758503139019012451e-01 -3.899169713258743286e-02 6.973728537559509277e-02
1.750630289316177368e-01 2.856139242649078369e-01 1.306587308645248413e-01
-4.526772499084472656e-01 4.916079938411712646e-01 -1.103700175881385803e-01
-2.575618326663970947e-01 4.585361778736114502e-01 1.817558109760284424e-01
-5.882847905158996582e-01 2.682729661464691162e-01 2.070439755916595459e-01
4.791016876697540283e-01 2.829144150018692017e-02 3.465528413653373718e-02
-2.249042540788650513e-01 -2.493335604667663574e-01 -1.716801524162292480e-01
-5.552245378494262695e-01 3.257494866847991943e-01 -2.944833040237426758e-01
5.332843661308288574e-01 -4.463676810264587402e-01 -1.093032956123352051e-01
-4.771563410758972168e-01 3.652307987213134766e-01 -3.527605235576629639e-01
-4.205255210399627686e-01 2.123859375715255737e-01 4.210511147975921631e-01
-4.984462559223175049e-01 -1.069232448935508728e-02 7.159906625747680664e-02
-1.877531558275222778e-01 -2.679284512996673584e-01 -1.991407871246337891e-01
-1.640281826257705688e-01 -1.073056831955909729e-01 -4.925372302532196045e-01
4.073741734027862549e-01 6.075512245297431946e-02 2.332970350980758667e-01
-5.323640704154968262e-01 4.668631553649902344e-01 -1.075637042522430420e-01
4.174742102622985840e-01 -3.038074634969234467e-02 3.552032411098480225e-01
2.998738586902618408e-01 -4.635226726531982422e-02 -4.878643751144409180e-01
-3.594000637531280518e-01 -1.140094846487045288e-01 -2.502592206001281738e-01
-1.581935286521911621e-01 4.322505556046962738e-03 5.486352443695068359e-01
4.727140069007873535e-01 2.946428954601287842e-02 8.923435211181640625e-02
-1.816020011901855469e-01 -2.845639586448669434e-01 -1.464319229125976562e-01
6.008974090218544006e-02 3.606608510017395020e-01 -1.350329071283340454e-01
5.782985091209411621e-01 -4.331700205802917480e-01 1.979200728237628937e-02
-5.699609518051147461e-01 3.871654570102691650e-01 -2.248466610908508301e-01
2.349878400564193726e-01 5.565208382904529572e-03 5.049147009849548340e-01
1.364047974348068237e-01 -4.523279368877410889e-01 -6.671391427516937256e-02
4.333619475364685059e-01 2.814806811511516571e-02 2.399112731218338013e-01
1.190388053655624390e-01 3.286453187465667725e-01 8.097396045923233032e-02
-5.306470394134521484e-01 2.219635844230651855e-01 -3.377316594123840332e-01
-5.220949053764343262e-01 2.159654647111892700e-01 -3.484301567077636719e-01
1.371117979288101196e-01 -1.187024340033531189e-01 5.623378157615661621e-01
5.406967997550964355e-01 -6.121083721518516541e-02 7.708397507667541504e-02
5.650061368942260742e-01 -1.088347882032394409e-01 1.043870076537132263e-01
-1.624740064144134521e-01 -3.016113042831420898e-01 1.430262476205825806e-01
-1.092117875814437866e-01 -3.448058664798736572e-01 2.682614699006080627e-02
-5.719452500343322754e-01 2.934736907482147217e-01 2.363431006669998169e-01
2.347235381603240967e-02 -3.617068231105804443e-01 -2.685575187206268311e-01
-4.603747427463531494e-01 -3.765748813748359680e-02 1.600599735975265503e-01
3.873383700847625732e-01 -4.497532546520233154e-01 -2.266103923320770264e-01
2.444119751453399658e-01 7.454591989517211914e-02 4.478862583637237549e-01
3.643814027309417725e-01 1.501702219247817993e-01 2.463500387966632843e-02
-1.940674483776092529e-01 4.553367793560028076e-01 1.391628682613372803e-01
5.629189014434814453e-01 -2.209623605012893677e-01 2.575772404670715332e-01
2.512284815311431885e-01 1.485524326562881470e-01 -3.692070841789245605e-01
2.135026007890701294e-01 3.273745253682136536e-02 -5.114400386810302734e-01
2.518012821674346924e-01 4.863177426159381866e-03 -5.000380277633666992e-01
2.185628712177276611e-01 -4.713970422744750977e-01 -9.645425528287887573e-02
-3.280266821384429932e-01 3.996964916586875916e-02 4.633392393589019775e-01
-6.177026033401489258e-01 2.520701587200164795e-01 1.183184534311294556e-01
4.094996750354766846e-01 -4.969787001609802246e-01 -3.026897273957729340e-02
4.238368272781372070e-01 -4.679999351501464844e-01 -1.656577885150909424e-01
7.205169647932052612e-02 -3.843228816986083984e-01 2.929570972919464111e-01
3.228024542331695557e-01 1.720778048038482666e-01 -1.607585102319717407e-01
-3.880331516265869141e-01 4.892408251762390137e-01 -1.587678939104080200e-01
5.786730051040649414e-01 -2.523378133773803711e-01 -2.120200246572494507e-01
5.139701068401336670e-02 -4.249682724475860596e-01 3.074345178902149200e-02
1.312882453203201294e-01 1.087310463190078735e-01 -5.161099433898925781e-01
-5.175386667251586914e-01 9.403123706579208374e-02 -2.728401422500610352e-01
2.842437326908111572e-01 5.840585567057132721e-03 4.697244167327880859e-01
-5.596774220466613770e-01 4.049118757247924805e-01 1.669817864894866943e-01
-5.627689361572265625e-01 3.252614438533782959e-01 -2.833775877952575684e-01
1.305541694164276123e-01 2.458333820104598999e-01 -3.619825243949890137e-01
-4.808342754840850830e-01 8.575571328401565552e-02 -3.334297835826873779e-01
5.852395892143249512e-01 -1.433222889900207520e-01 8.282105624675750732e-02
-6.303142309188842773e-01 3.204436600208282471e-01 -1.111055836081504822e-01
2.208052873611450195e-01 1.000141426920890808e-01 4.437439739704132080e-01
-3.877646476030349731e-02 4.116643071174621582e-01 6.958232074975967407e-02
5.189842581748962402e-01 -3.880629837512969971e-01 2.735358178615570068e-01
-1.980345845222473145e-01 4.519734382629394531e-01 1.582933813333511353e-01
4.120957255363464355e-01 -3.632571101188659668e-01 3.805530071258544922e-01
2.232763767242431641e-01 7.145869545638561249e-03 -5.172789096832275391e-01
5.660864710807800293e-01 -1.046210676431655884e-01 -7.234112918376922607e-02
-1.106979995965957642e-01 1.529575604945421219e-02 -5.734158754348754883e-01
-2.268463522195816040e-01 4.368557333946228027e-01 -2.830776274204254150e-01
4.585744142532348633e-01 -3.631551563739776611e-01 -3.194882273674011230e-01
2.536933124065399170e-02 -3.386940658092498779e-01 -3.238119482994079590e-01
3.622526824474334717e-01 1.067307591438293457e-01 2.346984893083572388e-01
-1.700052171945571899e-01 -3.014132380485534668e-01 1.112192943692207336e-01
-6.090518832206726074e-01 4.090478718280792236e-01 -1.822051033377647400e-02
-1.897817850112915039e-02 -1.968163698911666870e-01 -4.917642176151275635e-01
-1.911997199058532715e-01 4.536501467227935791e-01 -1.975787580013275146e-01
1.329441070556640625e-01 -4.526347517967224121e-01 9.136593341827392578e-02
-6.353530287742614746e-01 3.408348858356475830e-01 -3.961018845438957214e-02
3.764519095420837402e-02 -3.896428346633911133e-01 2.343230396509170532e-01
3.215664029121398926e-01 1.641505062580108643e-01 -1.965652108192443848e-01
3.937014043331146240e-01 -4.657223820686340332e-01 2.269389778375625610e-01
-1.486087776720523834e-02 3.039821088314056396e-01 3.673885762691497803e-01
2.775072455406188965e-01 -4.126932024955749512e-01 3.435530662536621094e-01
-2.135007232427597046e-01 -2.698126137256622314e-01 -1.075167804956436157e-01
3.577611744403839111e-01 -4.777939617633819580e-01 1.938118040561676025e-01
4.094037786126136780e-02 -3.785331547260284424e-01 -2.423863410949707031e-01
-2.260933220386505127e-01 -2.696782052516937256e-01 1.310581155121326447e-02
5.520226359367370605e-01 -7.380533963441848755e-02 -3.108386509120464325e-02
4.472158849239349365e-01 -8.410450071096420288e-02 -3.575162589550018311e-01
4.353246688842773438e-01 6.826509535312652588e-02 -1.228361800312995911e-01
-4.073638021945953369e-01 4.923656582832336426e-01 -1.379459053277969360e-01
5.375045537948608398e-01 -1.223100796341896057e-01 -2.233607172966003418e-01
1.695546805858612061e-01 -2.814941108226776123e-01 4.876304268836975098e-01
5.084038376808166504e-01 -1.426515430212020874e-01 3.127994239330291748e-01
2.220598161220550537e-01 1.564643681049346924e-01 3.732985258102416992e-01
4.226138070225715637e-02 -1.320064216852188110e-01 5.583316683769226074e-01
5.014686584472656250e-01 -3.684023320674896240e-01 -2.776401638984680176e-01
-5.266425013542175293e-01 5.122807249426841736e-02 -1.720849722623825073e-01
3.455284535884857178e-01 -4.641906321048736572e-01 2.372253835201263428e-01
2.199593931436538696e-01 2.682934105396270752e-01 -3.804489970207214355e-02
5.177273154258728027e-01 -8.022581785917282104e-02 2.237235754728317261e-01
-4.061618074774742126e-02 3.917283117771148682e-01 1.818943619728088379e-01
2.011464983224868774e-01 -4.494973421096801758e-01 -1.813950091600418091e-01
2.418049126863479614e-01 -1.164864078164100647e-01 5.367039442062377930e-01
3.765457570552825928e-01 -4.968328177928924561e-01 -4.591818153858184814e-02
4.640567302703857422e-01 -5.042923241853713989e-02 3.013148903846740723e-01
