-1.639184355735778809e-01 -3.048272728919982910e-01 5.965192243456840515e-02
7.134622894227504730e-03 1.503371000289916992e-01 -8.709292858839035034e-02
4.633844792842864990e-01 1.568544059991836548e-01 6.808079779148101807e-02
-9.473263472318649292e-02 3.761925548315048218e-02 9.295739233493804932e-02
-3.244030773639678955e-01 -2.430907934904098511e-01 7.606615871191024780e-02
-2.143709361553192139e-01 1.194826066493988037e-01 -6.845384091138839722e-02
-3.048655688762664795e-01 1.564273387193679810e-01 -5.884079262614250183e-03
1.273384839296340942e-01 3.615253046154975891e-02 -9.494914859533309937e-02
-1.558996923267841339e-02 1.733279824256896973e-01 -8.137246966361999512e-02
5.419467687606811523e-01 3.586250245571136475e-01 -3.046097233891487122e-02
7.277028262615203857e-02 -6.296364963054656982e-02 -9.225755184888839722e-02
-1.850333064794540405e-01 -3.374772965908050537e-01 -4.979621618986129761e-02
8.524505794048309326e-02 3.333614468574523926e-01 3.363809362053871155e-02
-9.011130779981613159e-02 1.652580946683883667e-01 7.367994636297225952e-02
3.264148533344268799e-01 3.205437362194061279e-01 -6.117262691259384155e-02
-3.311289250850677490e-01 -4.064590930938720703e-01 1.537722442299127579e-02
-3.777891099452972412e-01 -3.835027515888214111e-01 -4.068215936422348022e-02
5.220248103141784668e-01 3.349464237689971924e-01 4.589214175939559937e-02
3.442617133259773254e-02 8.967968821525573730e-02 -9.486667811870574951e-02
6.105930805206298828e-01 2.780156433582305908e-01 -2.563340030610561371e-02
-1.748971641063690186e-01 -2.243102490901947021e-01 8.070912957191467285e-02
-1.316751241683959961e-01 -1.250073164701461792e-01 -9.393269568681716919e-02
-4.688004553318023682e-01 -8.541090786457061768e-02 -6.145939603447914124e-02
2.109916359186172485e-01 3.886914253234863281e-02 -8.982986956834793091e-02
-3.255494534969329834e-01 -1.525373458862304688e-01 -8.618214726448059082e-02
4.559009969234466553e-01 2.157894521951675415e-01 6.976397335529327393e-02
1.109465491026639938e-03 -1.592594087123870850e-01 -8.435884863138198853e-02
4.342177808284759521e-01 3.005591034889221191e-01 6.342179328203201294e-02
8.492171764373779297e-02 -2.773919403553009033e-01 1.205144822597503662e-02
2.562572062015533447e-01 3.077535331249237061e-01 6.597228348255157471e-02
-4.964266717433929443e-01 -1.673902273178100586e-01 5.911388993263244629e-02
-1.203630864620208740e-01 2.387037277221679688e-01 3.758501261472702026e-02
1.425837427377700806e-01 2.605059444904327393e-01 -7.257138192653656006e-02
-2.401290684938430786e-01 2.916976064443588257e-02 8.036962151527404785e-02
-5.134749785065650940e-02 -9.716562181711196899e-02 9.393370151519775391e-02
-5.586364865303039551e-01 -1.802586317062377930e-01 -5.012531206011772156e-02
8.304454386234283447e-02 -1.896202117204666138e-01 -6.746751070022583008e-02
3.175063729286193848e-01 6.894634664058685303e-02 8.346553146839141846e-02
-4.803299009799957275e-01 -6.601505726575851440e-02 4.892860352993011475e-02
3.731441795825958252e-01 6.678950786590576172e-02 7.570232450962066650e-02
-3.399391770362854004e-01 -9.930711239576339722e-02 8.033577352762222290e-02
-1.562698744237422943e-02 1.998553797602653503e-02 -9.758013486862182617e-02
-2.455513775348663330e-01 1.459187567234039307e-01 4.823816567659378052e-02
7.897854596376419067e-02 3.231303095817565918e-01 -3.987910971045494080e-02
2.515908181667327881e-01 -4.456771165132522583e-02 -7.567719370126724243e-02
-8.539845049381256104e-02 1.791630685329437256e-01 -7.239069044589996338e-02
-1.235979199409484863e-01 4.823215305805206299e-03 9.344305843114852905e-02
3.120107203722000122e-02 1.395151019096374512e-01 -8.980214595794677734e-02
5.554175376892089844e-01 3.061355948448181152e-01 4.517779871821403503e-02
5.773233175277709961e-01 1.059623882174491882e-01 8.041523396968841553e-03
5.789278149604797363e-01 3.005810081958770752e-01 3.996592760086059570e-02
2.858984470367431641e-01 3.805140852928161621e-01 3.678133338689804077e-02
6.085273027420043945e-01 3.528020977973937988e-01 6.651274859905242920e-03
-7.348854094743728638e-02 2.167711555957794189e-01 6.047249212861061096e-02
4.936922192573547363e-01 3.019832968711853027e-01 5.674397200345993042e-02
-4.542223736643791199e-02 -2.769211307168006897e-02 -9.776456654071807861e-02
-8.364096283912658691e-03 6.229439005255699158e-02 -9.589015692472457886e-02
1.813358366489410400e-01 1.923305392265319824e-01 -8.599679172039031982e-02
-1.112136542797088623e-01 -1.345359236001968384e-01 9.149128198623657227e-02
-9.763968735933303833e-02 4.519078880548477173e-02 9.216687828302383423e-02
-1.381093859672546387e-01 -2.999844849109649658e-01 -6.046770140528678894e-02
-3.479314744472503662e-01 6.996890902519226074e-02 -5.258609727025032043e-02
-3.267383873462677002e-01 -2.754076719284057617e-01 -7.447095215320587158e-02
-1.239334493875503540e-01 -1.449459791183471680e-01 9.059765934944152832e-02
9.389245510101318359e-02 9.591890126466751099e-02 9.503454715013504028e-02
3.698674738407135010e-01 2.344678789377212524e-01 -7.420963793992996216e-02
1.869175732135772705e-01 -2.257151603698730469e-01 3.372091799974441528e-03
2.358103245496749878e-01 2.320030927658081055e-01 -8.024007827043533325e-02
2.678177058696746826e-01 -1.129674836993217468e-01 5.649967864155769348e-02
4.318881332874298096e-01 3.675736188888549805e-01 -4.222810268402099609e-02
5.022073388099670410e-01 3.777123615145683289e-02 3.130843117833137512e-02
2.005190122872591019e-03 -2.952309846878051758e-01 -3.565983846783638000e-02
8.580966293811798096e-02 2.558467686176300049e-01 6.973542273044586182e-02
3.293635845184326172e-01 8.955156803131103516e-02 8.343748003244400024e-02
1.795553416013717651e-01 -1.309918463230133057e-01 -6.804580986499786377e-02
-5.551334619522094727e-01 -2.222589999437332153e-01 4.752624034881591797e-02
1.951791197061538696e-01 2.113588452339172363e-01 8.458574861288070679e-02
-3.499500155448913574e-01 -2.287692129611968994e-01 -8.008132129907608032e-02
-2.252603918313980103e-01 -2.572872638702392578e-01 -7.781685143709182739e-02
1.742838472127914429e-01 -8.048803359270095825e-02 8.168417215347290039e-02
2.689899131655693054e-02 3.239273428916931152e-01 -2.176709100604057312e-02
-4.445026218891143799e-01 4.731902852654457092e-02 6.180274765938520432e-03
6.069691777229309082e-01 1.776810139417648315e-01 2.265687845647335052e-02
2.134808897972106934e-02 -1.426364630460739136e-01 8.552600443363189697e-02
-4.231984913349151611e-01 -8.597034215927124023e-02 -7.128500938415527344e-02
2.957095503807067871e-01 8.796659111976623535e-02 8.677440881729125977e-02
7.261684536933898926e-02 1.272056102752685547e-01 9.233440458774566650e-02
-1.279918104410171509e-01 1.713160611689090729e-02 9.240666776895523071e-02
2.957555055618286133e-01 2.980569601058959961e-01 -6.717580556869506836e-02
3.064074516296386719e-01 6.950334459543228149e-02 8.474231511354446411e-02
6.317714452743530273e-01 2.419642060995101929e-01 1.656778156757354736e-02
5.436353087425231934e-01 3.041520118713378906e-01 -4.344552010297775269e-02
-2.343663722276687622e-01 -3.709003925323486328e-01 3.462832048535346985e-02
4.072096347808837891e-01 1.874678283929824829e-01 -7.318990677595138550e-02
3.232141435146331787e-01 3.260959684848785400e-01 6.190217286348342896e-02
3.832209408283233643e-01 1.817920804023742676e-01 -7.609277963638305664e-02
-3.902482986450195312e-01 -1.405450105667114258e-01 -7.999421656131744385e-02
-3.341130614280700684e-01 -3.471897169947624207e-02 -7.958037406206130981e-02
4.180969893932342529e-01 1.749950200319290161e-01 7.539568096399307251e-02
-1.127720549702644348e-01 2.086317986249923706e-01 -5.772897228598594666e-02
-4.133999049663543701e-01 -1.358928997069597244e-02 -6.038229167461395264e-02
-2.602571249008178711e-01 -1.239932775497436523e-01 -9.086656570434570312e-02
1.527101844549179077e-01 -1.248848903924226761e-02 -9.104785323143005371e-02
-5.844929814338684082e-01 -2.478687018156051636e-01 3.922867029905319214e-02
-1.168169900774955750e-01 9.426493197679519653e-02 -8.669894188642501831e-02
5.496198534965515137e-01 8.245779573917388916e-02 -1.830781809985637665e-02
-4.170106351375579834e-01 -4.175370633602142334e-01 2.376926597207784653e-03
3.479237854480743408e-01 2.706336677074432373e-01 7.364585250616073608e-02
5.603113770484924316e-01 8.403226733207702637e-02 1.146884448826313019e-02
3.897970616817474365e-01 7.994788140058517456e-02 -7.107864320278167725e-02
-2.185423076152801514e-01 6.679981201887130737e-02 7.710622251033782959e-02
1.362348347902297974e-01 -3.680676966905593872e-02 -9.019058942794799805e-02
2.113675698637962341e-02 -8.923825621604919434e-02 -9.269612282514572144e-02
3.353559374809265137e-01 -1.090715005993843079e-01 -3.053392097353935242e-02
-2.654870152473449707e-01 -2.639873623847961426e-01 -7.706853002309799194e-02
-9.456528723239898682e-02 1.920540630817413330e-01 -6.717249006032943726e-02
-1.319973170757293701e-01 2.473530769348144531e-01 -2.745336107909679413e-02
-4.099338054656982422e-01 -1.944772899150848389e-01 7.314964383840560913e-02
-1.233866289258003235e-01 -2.415758222341537476e-01 -7.668228447437286377e-02
-5.917915105819702148e-01 -3.753739297389984131e-01 2.358147874474525452e-03
-6.674900650978088379e-02 2.061770558357238770e-01 6.536827981472015381e-02
6.717598438262939453e-02 5.641775578260421753e-02 9.661055356264114380e-02
6.290381550788879395e-01 2.738205492496490479e-01 -1.479884888976812363e-02
-2.863370776176452637e-01 -6.859495490789413452e-02 8.467073738574981689e-02
4.474486708641052246e-01 6.470275670289993286e-02 -5.646364390850067139e-02
2.243616580963134766e-01 -2.034365683794021606e-01 5.542045459151268005e-03
-2.364619523286819458e-01 -3.336445987224578857e-01 5.423069372773170471e-02
4.052319824695587158e-01 -7.510584592819213867e-02 9.182215668261051178e-03
-3.747183680534362793e-01 -4.072360694408416748e-01 1.909096725285053253e-02
2.704857885837554932e-01 2.833139896392822266e-01 7.242276519536972046e-02
-1.848778277635574341e-01 2.214585095643997192e-01 -2.445697970688343048e-02
3.274706602096557617e-01 3.861325085163116455e-01 3.646565601229667664e-02
3.267976045608520508e-01 1.261011213064193726e-01 -8.226943761110305786e-02
-1.755579560995101929e-01 -2.916681170463562012e-01 -6.681265681982040405e-02
3.655145168304443359e-01 -1.044692993164062500e-01 -1.100634969770908356e-02
4.082472920417785645e-01 2.792297303676605225e-01 6.894229352474212646e-02
-7.705901563167572021e-02 2.849127352237701416e-01 -1.102348510175943375e-02
-4.537426531314849854e-01 -1.642996966838836670e-01 -7.197003811597824097e-02
-5.264027118682861328e-01 -1.759319454431533813e-01 -5.848164856433868408e-02
5.543779134750366211e-01 9.067081660032272339e-02 -1.938935741782188416e-02
-2.866004109382629395e-01 1.218402609229087830e-01 4.623693227767944336e-02
-2.031436711549758911e-01 2.120505124330520630e-01 2.018045447766780853e-02
-2.218584716320037842e-01 -3.080625832080841064e-01 -6.476948410272598267e-02
-4.283638000488281250e-01 2.227632142603397369e-02 -4.342627525329589844e-02
1.376290172338485718e-01 2.534002661705017090e-01 7.452827692031860352e-02
1.641589999198913574e-01 1.571783423423767090e-01 9.073305875062942505e-02
-1.032598018646240234e-01 -4.691454395651817322e-02 9.559629857540130615e-02
-3.597113788127899170e-01 -8.290324360132217407e-02 -8.088073879480361938e-02
-2.200249433517456055e-01 -3.702934682369232178e-01 -3.500415384769439697e-02
-5.621398091316223145e-01 -8.017802983522415161e-02 -1.707664504647254944e-02
-5.509881973266601562e-01 -2.702805399894714355e-01 -5.287149921059608459e-02
4.154087007045745850e-01 2.569797933101654053e-01 -6.792371720075607300e-02
1.696816533803939819e-01 -9.360454278066754341e-04 9.183920174837112427e-02
3.712377846240997314e-01 3.102207183837890625e-01 6.519109010696411133e-02
-2.867556810379028320e-01 -5.552157387137413025e-02 -8.724092692136764526e-02
2.727295756340026855e-01 1.663915216922760010e-01 -8.564653992652893066e-02
4.464868083596229553e-02 -2.550062537193298340e-01 4.931681603193283081e-02
-9.657002985477447510e-03 5.026053637266159058e-02 -9.654103219509124756e-02
-5.697600841522216797e-01 -2.299849838018417358e-01 -4.968857765197753906e-02
-5.724291801452636719e-01 -3.026782870292663574e-01 3.843841701745986938e-02
-4.757446348667144775e-01 -3.978393971920013428e-01 -2.816651016473770142e-02
-1.280519664287567139e-01 -1.905619353055953979e-01 -8.664671331644058228e-02
-3.287896513938903809e-01 1.371614485979080200e-01 -1.445240154862403870e-02
-5.058108568191528320e-01 -3.448447585105895996e-01 4.260994121432304382e-02
5.989956259727478027e-01 3.096469342708587646e-01 -2.660525590181350708e-02
-5.458611845970153809e-01 -1.142548620700836182e-01 3.717916831374168396e-02
4.270865023136138916e-01 3.001907765865325928e-01 -6.067833304405212402e-02
8.389799296855926514e-02 3.362331688404083252e-01 -3.100813366472721100e-02
4.538959264755249023e-01 5.729251727461814880e-02 -5.311396718025207520e-02
-4.197811782360076904e-01 -2.626704610884189606e-02 -6.180273368954658508e-02
3.882280886173248291e-01 4.044300317764282227e-01 -2.233712375164031982e-02
1.154676601290702820e-01 7.611257582902908325e-02 -9.522147476673126221e-02
-1.482279784977436066e-02 1.268402338027954102e-01 8.839194476604461670e-02
-2.481836825609207153e-03 -2.041424661874771118e-01 -7.506220042705535889e-02
5.038589835166931152e-01 3.353854268789291382e-02 -2.300314791500568390e-02
2.242112606763839722e-01 3.548719584941864014e-01 4.550246894359588623e-02
-5.041807889938354492e-01 -3.958115279674530029e-01 -2.561740577220916748e-02
5.437158942222595215e-01 6.129089742898941040e-02 -3.311671782284975052e-03
-1.988103687763214111e-01 -3.374231755733489990e-01 -5.149013549089431763e-02
2.210331857204437256e-01 2.271319180727005005e-01 -8.108428865671157837e-02
-3.164893388748168945e-01 -2.575102150440216064e-01 7.433430105447769165e-02
-3.795102238655090332e-01 -9.240602701902389526e-02 -7.894079387187957764e-02
3.997158110141754150e-01 -3.069882467389106750e-02 4.754696413874626160e-02
3.639690279960632324e-01 2.628741562366485596e-01 7.408033311367034912e-02
3.349974285811185837e-03 2.458811998367309570e-01 6.279761344194412231e-02
5.383607745170593262e-02 3.402711451053619385e-01 9.836532175540924072e-03
5.747513175010681152e-01 2.636353969573974609e-01 4.467645660042762756e-02
-3.553147315979003906e-01 3.846233710646629333e-02 -6.118059903383255005e-02
-2.289947122335433960e-02 -2.880547344684600830e-01 4.686516523361206055e-02
-2.933529317378997803e-01 -9.501037001609802246e-02 -8.850438147783279419e-02
2.106444537639617920e-02 -2.771248109638690948e-02 9.663654863834381104e-02
2.378714531660079956e-01 7.590410113334655762e-02 9.096942842006683350e-02
-2.293137088418006897e-02 5.479715391993522644e-02 9.513843059539794922e-02
-1.431635860353708267e-02 2.933766245841979980e-01 -3.573068603873252869e-02
1.693197041749954224e-01 1.359547302126884460e-02 -9.161876142024993896e-02
-5.827338099479675293e-01 -1.677668839693069458e-01 -3.961698338389396667e-02
-4.900990054011344910e-02 -2.806257903575897217e-01 5.535688251256942749e-02
-1.731404513120651245e-01 4.944226145744323730e-02 -8.786471188068389893e-02
-2.630810141563415527e-01 -2.787711024284362793e-01 7.122525572776794434e-02
8.017692714929580688e-02 1.473932713270187378e-01 -9.035222977399826050e-02
-1.803833395242691040e-01 5.903042852878570557e-02 -8.583787083625793457e-02
-4.404133856296539307e-01 3.400435298681259155e-02 -3.063171729445457458e-02
3.193280398845672607e-01 3.472124040126800537e-01 5.492787435650825500e-02
-8.959673345088958740e-02 9.755092114210128784e-02 8.682957291603088379e-02
4.110663533210754395e-01 4.915617033839225769e-02 6.611625105142593384e-02
-6.410697102546691895e-02 1.354061216115951538e-01 -8.450574427843093872e-02
-1.158534139394760132e-01 -2.291131615638732910e-01 7.767053693532943726e-02
6.652036309242248535e-02 -6.637454032897949219e-03 9.641095995903015137e-02
-3.969280719757080078e-01 -1.832991540431976318e-01 -7.926886528730392456e-02
3.215283155441284180e-01 1.512868404388427734e-01 -8.272738754749298096e-02
-3.762129843235015869e-01 1.049814149737358093e-01 1.096644671633839607e-03
4.007905125617980957e-01 2.579282224178314209e-01 7.235167175531387329e-02
3.814258277416229248e-01 1.741915643215179443e-01 -7.644066214561462402e-02
3.183809220790863037e-01 1.857096850872039795e-01 -8.171010762453079224e-02
3.069149255752563477e-01 1.687771975994110107e-01 -8.336456865072250366e-02
-4.073213338851928711e-01 -1.521686762571334839e-01 -7.816588133573532104e-02
1.671316027641296387e-01 3.481252491474151611e-01 -4.076443240046501160e-02
2.906035780906677246e-01 1.266204863786697388e-01 -8.557205647230148315e-02
4.153775051236152649e-03 -1.991420388221740723e-01 7.543665170669555664e-02
9.108266234397888184e-02 3.494518697261810303e-01 -1.860923506319522858e-02
7.805008441209793091e-03 1.853005290031433105e-01 8.002369105815887451e-02
2.607164382934570312e-01 -9.154195338487625122e-02 6.531373411417007446e-02
1.265435218811035156e-01 8.086248300969600677e-03 -9.407822042703628540e-02
3.354598283767700195e-01 3.624744415283203125e-01 4.920557513833045959e-02
4.735350608825683594e-01 2.213849127292633057e-01 6.705540418624877930e-02
-8.745381236076354980e-02 -3.485321700572967529e-01 1.388135924935340881e-02
3.319425284862518311e-01 2.655052244663238525e-01 -7.259153574705123901e-02
-2.447992414236068726e-01 -1.701214015483856201e-01 8.657500147819519043e-02
3.429545760154724121e-01 2.951251864433288574e-01 6.932053714990615845e-02
-1.494901627302169800e-01 3.765849769115447998e-02 8.903908729553222656e-02
2.894873023033142090e-01 3.437710702419281006e-01 5.530939996242523193e-02
-1.161447316408157349e-01 -9.162501990795135498e-02 -9.587725996971130371e-02
1.709393858909606934e-01 -1.695498824119567871e-01 -5.705751106142997742e-02
-4.355553984642028809e-01 -3.291152417659759521e-01 5.420796573162078857e-02
-1.022798418998718262e-01 2.537930011749267578e-01 3.326904028654098511e-02
-1.158463582396507263e-02 1.556441932916641235e-01 8.410111814737319946e-02
1.964765042066574097e-01 1.176827922463417053e-01 -9.142782539129257202e-02
4.812163412570953369e-01 2.840068936347961426e-02 3.824349120259284973e-02
7.651422172784805298e-02 -3.446005284786224365e-02 -9.437021613121032715e-02
2.377759069204330444e-01 3.693792819976806641e-01 3.852706775069236755e-02
1.995595544576644897e-01 2.029989473521709442e-02 -8.966486155986785889e-02
2.770064771175384521e-01 3.779552578926086426e-01 3.757195919752120972e-02
-2.034723386168479919e-02 1.532797217369079590e-01 8.380197733640670776e-02
1.931336149573326111e-02 1.037571355700492859e-01 -9.336969256401062012e-02
-1.517553478479385376e-01 7.214611768722534180e-02 8.453746885061264038e-02
-8.042230457067489624e-02 -3.166743367910385132e-02 9.618920832872390747e-02
-5.745778679847717285e-01 -2.177688479423522949e-01 -4.796225205063819885e-02
-1.206555142998695374e-01 1.583825051784515381e-02 9.295222908258438110e-02
2.368116080760955811e-01 -1.943587958812713623e-01 1.115217711776494980e-02
3.775695860385894775e-01 -5.399239249527454376e-03 6.217046454548835754e-02
1.400952637195587158e-01 7.860094308853149414e-02 -9.448557347059249878e-02
-5.306300520896911621e-01 -9.819588065147399902e-02 -4.508826881647109985e-02
1.513304654508829117e-02 1.438937783241271973e-01 -8.848433196544647217e-02
-1.781961768865585327e-01 -5.460205674171447754e-02 9.259305149316787720e-02
1.596501171588897705e-01 -2.146380990743637085e-01 -3.742676228284835815e-02
4.332995414733886719e-01 -5.140048265457153320e-02 8.606101386249065399e-03
-1.992142796516418457e-01 2.071844935417175293e-01 2.784465253353118896e-02
3.239069283008575439e-01 1.982358843088150024e-01 8.302570134401321411e-02
3.450603783130645752e-01 -2.839380130171775818e-02 6.403813511133193970e-02
-1.790837049484252930e-01 1.933834850788116455e-01 -4.806157574057579041e-02
2.217701822519302368e-01 1.654763668775558472e-01 8.941724896430969238e-02
-2.932456433773040771e-01 -8.106576278805732727e-03 -8.184642344713211060e-02
-8.436325192451477051e-02 -2.227984666824340820e-01 7.720421999692916870e-02
5.835447460412979126e-03 2.300046533346176147e-01 6.841596961021423340e-02
-2.570239007472991943e-01 -4.028836556244641542e-04 -8.533219993114471436e-02
-5.776123404502868652e-01 -3.133325874805450439e-01 3.534300997853279114e-02
-1.538417488336563110e-01 -6.255051121115684509e-03 9.221614897251129150e-02
9.340554475784301758e-02 1.161620113998651505e-02 -9.579908102750778198e-02
-2.385846376419067383e-01 9.363590180873870850e-02 6.786438077688217163e-02
-4.361688792705535889e-01 -3.806357085704803467e-01 3.664742037653923035e-02
1.613757759332656860e-02 -3.026533424854278564e-01 2.262375131249427795e-02
-3.107242882251739502e-01 -3.372110128402709961e-01 5.579873919486999512e-02
-6.257601976394653320e-01 -2.426224797964096069e-01 2.177560515701770782e-02
-2.179756313562393188e-01 1.666218158788979053e-04 8.642834424972534180e-02
-2.963548302650451660e-01 -8.099497854709625244e-02 8.426818251609802246e-02
6.095846295356750488e-01 2.057232558727264404e-01 -2.261142060160636902e-02
-6.133703142404556274e-02 -3.365806043148040771e-01 -1.900429092347621918e-02
-3.020448684692382812e-01 -8.576861023902893066e-02 -8.742756396532058716e-02
4.998287186026573181e-02 1.102446205914020538e-02 -9.714400023221969604e-02
-5.255612134933471680e-01 -2.577458024024963379e-01 5.320919677615165710e-02
5.595037341117858887e-01 2.453682571649551392e-01 4.950033128261566162e-02
-3.647321462631225586e-01 -1.059157475829124451e-01 -8.172950893640518188e-02
2.652887701988220215e-01 2.638504803180694580e-01 7.637201994657516479e-02
-4.251233637332916260e-01 -7.447123527526855469e-03 5.046960338950157166e-02
-3.274096250534057617e-01 -7.161713391542434692e-02 -8.400996774435043335e-02
3.753447830677032471e-01 4.146867394447326660e-01 -6.819944828748703003e-03
1.171397641301155090e-01 1.751160770654678345e-01 8.805679529905319214e-02
7.889839261770248413e-02 -1.241163313388824463e-01 -8.352135866880416870e-02
2.459130436182022095e-01 -4.175532236695289612e-02 7.915327697992324829e-02
-6.002535820007324219e-01 -2.502261996269226074e-01 -4.016696661710739136e-02
-3.833805918693542480e-01 -2.764534056186676025e-01 6.814809143543243408e-02
1.641424372792243958e-02 -2.992427051067352295e-01 -2.633887715637683868e-02
-4.908104240894317627e-01 -1.405154615640640259e-01 5.825934559106826782e-02
-2.318906188011169434e-01 -2.576110325753688812e-02 8.727429062128067017e-02
-2.927835285663604736e-01 7.247813045978546143e-02 6.234914809465408325e-02
3.265862166881561279e-01 2.192881256341934204e-01 -7.864193618297576904e-02
3.153845295310020447e-02 -3.043377697467803955e-01 3.732217010110616684e-03
-6.211429238319396973e-01 -2.473817616701126099e-01 2.460288815200328827e-02
3.777761161327362061e-01 2.941163182258605957e-01 -6.537165492773056030e-02
4.446288570761680603e-02 -1.724319308996200562e-01 -7.742808014154434204e-02
-7.795759290456771851e-02 2.770945131778717041e-01 -2.397737652063369751e-02
4.648489952087402344e-01 7.432309538125991821e-02 -5.363504961133003235e-02
5.588186383247375488e-01 3.395072817802429199e-01 3.721440955996513367e-02
-4.884189963340759277e-01 -3.523705899715423584e-01 4.271198064088821411e-02
3.675580620765686035e-01 3.758867084980010986e-01 -4.091683030128479004e-02
2.298080176115036011e-01 7.202129811048507690e-02 9.140492975711822510e-02
9.648743271827697754e-02 -2.408217787742614746e-01 4.344844445586204529e-02
9.483515471220016479e-02 1.417538821697235107e-01 -9.121862053871154785e-02
3.837722539901733398e-01 2.803663313388824463e-01 7.035360485315322876e-02
1.063094958662986755e-01 -2.616496086120605469e-01 2.130434848368167877e-02
-1.530389189720153809e-01 -8.062898367643356323e-02 -9.572768956422805786e-02
3.530684113502502441e-01 1.010842546820640564e-01 -7.836197316646575928e-02
-5.845552682876586914e-01 -2.557271718978881836e-01 3.905585780739784241e-02
3.456796109676361084e-01 -2.943591400980949402e-02 -6.051265820860862732e-02
-2.046275287866592407e-01 4.485045373439788818e-02 -8.529829233884811401e-02
2.203573584556579590e-01 1.377474963665008545e-01 -8.963804692029953003e-02
-1.828173100948333740e-01 2.319260835647583008e-01 -4.020139109343290329e-03
-4.585574865341186523e-01 -1.761806458234786987e-01 6.651400774717330933e-02
4.326890408992767334e-01 1.610049605369567871e-02 -4.878547042608261108e-02
-2.653385698795318604e-01 1.644791662693023682e-01 -3.279921039938926697e-02
-3.625809773802757263e-02 1.374942157417535782e-02 9.657961130142211914e-02
-2.980997562408447266e-01 -2.755249738693237305e-01 7.168018817901611328e-02
-1.979496031999588013e-01 -8.693807572126388550e-02 9.178017079830169678e-02
5.628874301910400391e-01 1.385176479816436768e-01 3.789460286498069763e-02
5.156971216201782227e-01 8.831261843442916870e-02 4.457532986998558044e-02
5.227424502372741699e-01 4.030078053474426270e-01 4.361081402748823166e-03
1.092050373554229736e-01 1.430632770061492920e-01 -9.123266488313674927e-02
5.571982860565185547e-01 3.594826161861419678e-01 3.084493428468704224e-02
3.524411916732788086e-01 3.479717671871185303e-02 7.497842609882354736e-02
-1.588470935821533203e-01 7.384070754051208496e-02 -8.583208918571472168e-02
3.569471538066864014e-01 -8.157925307750701904e-02 4.057117179036140442e-02
1.535902768373489380e-01 -7.277770340442657471e-02 -8.403705060482025146e-02
-5.960278511047363281e-01 -1.353634893894195557e-01 1.450204662978649139e-02
-1.842368543148040771e-01 -3.795686960220336914e-01 -1.346776727586984634e-02
-1.557406038045883179e-01 2.032624334096908569e-01 4.720279201865196228e-02
4.644270539283752441e-01 2.365954965353012085e-01 -6.375510990619659424e-02
3.875326216220855713e-01 -8.759300690144300461e-04 6.083410605788230896e-02
-2.073281854391098022e-01 1.964984387159347534e-01 3.275133669376373291e-02
-2.578244209289550781e-01 1.695425808429718018e-01 -3.260131552815437317e-02
-6.948459148406982422e-02 -1.441780924797058105e-01 -9.078308194875717163e-02
3.753601014614105225e-01 -4.801218397915363312e-03 -5.947954952716827393e-02
-3.008874058723449707e-01 1.573003679513931274e-01 8.565324358642101288e-03
4.879818260669708252e-01 3.487522006034851074e-01 4.702388495206832886e-02
1.037748157978057861e-01 1.055407524108886719e-01 -9.415531158447265625e-02
-5.656918287277221680e-01 -2.877843379974365234e-01 4.202078282833099365e-02
-1.029873564839363098e-01 -7.258822768926620483e-02 9.517543017864227295e-02
-4.082866907119750977e-01 -1.884774267673492432e-01 -7.795555144548416138e-02
2.713454365730285645e-01 -1.722250580787658691e-01 -9.182179346680641174e-03
2.183426916599273682e-01 1.291665136814117432e-01 9.158942848443984985e-02
-9.759509563446044922e-02 9.426394850015640259e-02 8.659657090902328491e-02
-3.557764291763305664e-01 -1.775155663490295410e-01 -8.316425979137420654e-02
3.501034379005432129e-01 3.468146324157714844e-01 5.536576732993125916e-02
3.455497324466705322e-01 2.898479104042053223e-01 -6.775621324777603149e-02
3.299903869628906250e-01 3.922646120190620422e-02 -7.619917392730712891e-02
1.450092047452926636e-01 2.528484463691711426e-01 7.511171698570251465e-02
8.506469428539276123e-02 -9.109538048505783081e-02 -8.809456229209899902e-02
3.836427032947540283e-01 -8.443550020456314087e-02 -1.900537312030792236e-02
-2.134045511484146118e-01 -3.269544839859008789e-01 -5.745858699083328247e-02
9.445593506097793579e-02 -2.750217020511627197e-01 4.701701691374182701e-04
1.528067290782928467e-01 1.673923730850219727e-01 -8.890229463577270508e-02
-1.082819327712059021e-01 -5.586598068475723267e-02 -9.696470201015472412e-02
-4.547324478626251221e-01 3.439606633037328720e-03 3.519066795706748962e-02
3.383684456348419189e-01 -8.005882613360881805e-03 -6.713738292455673218e-02
1.440881639719009399e-01 -1.297800242900848389e-01 7.543615251779556274e-02
-4.680761694908142090e-01 -1.420050859451293945e-01 6.321398168802261353e-02
-2.761521935462951660e-01 1.685290038585662842e-01 1.778764650225639343e-02
4.533480107784271240e-02 2.676082253456115723e-01 6.101003661751747131e-02
1.465478688478469849e-01 -2.858517318964004517e-02 9.117689728736877441e-02
3.036755621433258057e-01 6.170881539583206177e-02 8.449877053499221802e-02
3.066747635602951050e-02 1.087059229612350464e-01 -9.321312606334686279e-02
3.465422689914703369e-01 -1.153639331459999084e-01 1.983484067022800446e-02
-1.905960738658905029e-01 -1.356577277183532715e-01 9.055849164724349976e-02
4.237340986728668213e-01 1.527393907308578491e-01 -7.067567855119705200e-02
-1.021708995103836060e-01 -1.660722792148590088e-01 -8.921252936124801636e-02
6.647780537605285645e-02 1.314195543527603149e-01 9.173288941383361816e-02
1.104675903916358948e-01 1.772109717130661011e-01 8.756573498249053955e-02
-2.099077031016349792e-02 -1.535838991403579712e-01 -8.693926781415939331e-02
-4.298512637615203857e-02 1.573552191257476807e-01 -8.222579956054687500e-02
-1.570286788046360016e-02 6.037142500281333923e-02 -9.584065526723861694e-02
2.312455326318740845e-01 -9.062731266021728516e-02 7.124875485897064209e-02
1.571451127529144287e-01 2.866892814636230469e-01 6.673672050237655640e-02
1.953738778829574585e-01 2.756164968013763428e-01 -7.115796953439712524e-02
-4.670510888099670410e-01 -3.314592540264129639e-01 5.078791826963424683e-02
5.522653460502624512e-01 7.779800146818161011e-02 -1.175203267484903336e-02
-3.700187206268310547e-01 3.051774203777313232e-02 -5.971026420593261719e-02
-3.671699762344360352e-01 -1.388958841562271118e-01 7.842442393302917480e-02
-2.525369822978973389e-01 1.214337069541215897e-02 -8.430466800928115845e-02
3.928412795066833496e-01 4.618014022707939148e-02 -6.591986864805221558e-02
1.538266893476247787e-03 3.760071471333503723e-02 9.662727266550064087e-02
-3.837452828884124756e-01 -3.617466241121292114e-02 6.712219119071960449e-02
-5.075773000717163086e-01 -1.503502428531646729e-01 -6.081065535545349121e-02
1.362721323966979980e-01 2.187715619802474976e-01 -8.133821934461593628e-02
-8.587495982646942139e-02 5.328823998570442200e-02 -9.372086077928543091e-02
1.242628768086433411e-01 3.373660743236541748e-01 4.018891975283622742e-02
-1.848034858703613281e-01 -1.834820061922073364e-01 -8.873104304075241089e-02
2.119151651859283447e-01 -1.796009689569473267e-01 4.200608655810356140e-02
5.493525043129920959e-02 1.713997125625610352e-01 8.597647398710250854e-02
2.737730443477630615e-01 8.061355352401733398e-02 8.841726928949356079e-02
-4.285676777362823486e-01 -2.266383916139602661e-02 -5.861394852399826050e-02
2.869194447994232178e-01 3.353385925292968750e-01 5.828797072172164917e-02
1.618486493825912476e-01 -1.919471919536590576e-01 5.116901546716690063e-02
-2.084648609161376953e-01 -3.319644033908843994e-01 -5.495177209377288818e-02
5.657740831375122070e-01 3.662981688976287842e-01 2.503984421491622925e-02
-4.441701471805572510e-01 -4.050128757953643799e-01 -2.512645721435546875e-02
-3.529183566570281982e-01 1.190399974584579468e-01 -1.577085815370082855e-02
-2.460811734199523926e-01 -8.567029982805252075e-02 -9.174442291259765625e-02
2.407358586788177490e-02 3.130364418029785156e-01 -3.226990252733230591e-02
-1.133677214384078979e-01 -3.030417263507843018e-01 5.492709204554557800e-02
-2.629378139972686768e-01 1.571828573942184448e-01 3.574114292860031128e-02
-1.755538731813430786e-01 2.145544737577438354e-01 -3.590633347630500793e-02
-3.386494815349578857e-01 -3.003041446208953857e-01 -6.925016641616821289e-02
-3.907277286052703857e-01 -3.954435884952545166e-01 2.962851524353027344e-02
1.459278762340545654e-01 3.209388256072998047e-01 5.273038521409034729e-02
3.592732846736907959e-01 2.931932210922241211e-01 -6.651218980550765991e-02
-1.883550137281417847e-01 -3.528220355510711670e-01 -4.169403389096260071e-02
-3.233294486999511719e-01 -2.987388074398040771e-01 6.640473008155822754e-02
-2.219993472099304199e-01 -5.027720704674720764e-02 -9.231112897396087646e-02
-4.916189610958099365e-01 -3.787736222147941589e-02 -4.154707491397857666e-02
4.071299135684967041e-01 9.791987948119640350e-03 5.846063792705535889e-02
-3.688962385058403015e-02 -7.939050346612930298e-02 9.495384991168975830e-02
-1.751726418733596802e-01 1.079612001776695251e-01 7.510206848382949829e-02
3.946586251258850098e-01 -7.428473234176635742e-02 2.388864383101463318e-02
1.211007963865995407e-02 1.329638063907623291e-01 8.919661492109298706e-02
4.786241054534912109e-01 1.678590029478073120e-01 -6.167799234390258789e-02
4.985609948635101318e-01 3.988878801465034485e-02 -2.997966296970844269e-02
-1.619974821805953979e-01 -1.752565950155258179e-01 8.755912631750106812e-02
-3.260316252708435059e-01 -2.594079375267028809e-01 -7.716960459947586060e-02
-3.325768932700157166e-02 2.015810161828994751e-01 7.163945585489273071e-02
-3.269783854484558105e-01 4.187244176864624023e-02 -6.686201691627502441e-02
-6.033875048160552979e-02 -2.689010202884674072e-01 -6.236162036657333374e-02
-1.054059248417615891e-02 -2.440768629312515259e-01 6.392136961221694946e-02
5.656641125679016113e-01 3.492768406867980957e-01 -2.760219015181064606e-02
-1.354427486658096313e-01 -2.505443096160888672e-01 7.382520288228988647e-02
-3.033382892608642578e-01 -3.459624648094177246e-01 5.251485481858253479e-02
2.581408321857452393e-01 -1.368605531752109528e-02 8.190226554870605469e-02
-9.789518266916275024e-02 -1.273155361413955688e-01 9.203409403562545776e-02
-4.610876366496086121e-02 2.674760818481445312e-01 4.265871644020080566e-02
1.681592613458633423e-01 3.853727504611015320e-02 -9.286115318536758423e-02
-2.936899363994598389e-01 -2.085143178701400757e-01 8.134239166975021362e-02
1.659294515848159790e-01 2.598600983619689941e-01 -7.385563850402832031e-02
4.713693857192993164e-01 3.382239937782287598e-01 -4.804914444684982300e-02
-1.394056528806686401e-02 9.510940313339233398e-02 -9.308354556560516357e-02
4.452778100967407227e-01 6.124267727136611938e-02 6.033758446574211121e-02
-1.461055278778076172e-01 -1.262013763189315796e-01 9.202484041452407837e-02
-2.106947451829910278e-01 -5.982335284352302551e-02 9.071391075849533081e-02
4.106315076351165771e-01 3.649781346321105957e-01 -4.448880627751350403e-02
-4.032973647117614746e-01 -1.291451603174209595e-01 7.343486696481704712e-02
1.545675545930862427e-01 -1.138982102274894714e-01 7.761084288358688354e-02
-1.665656119585037231e-01 2.010728567838668823e-01 -4.771929606795310974e-02
-5.385162234306335449e-01 -6.251640617847442627e-02 2.060726843774318695e-02
3.151846583932638168e-03 3.208577036857604980e-01 8.188129402697086334e-03
-5.931797623634338379e-01 -3.696980178356170654e-01 -1.482661906629800797e-02
-5.120253562927246094e-01 -1.346567422151565552e-01 -5.794581025838851929e-02
-1.916854679584503174e-01 -1.503433883190155029e-01 8.957564085721969604e-02
2.774141728878021240e-01 4.689155519008636475e-02 8.619255572557449341e-02
4.734247326850891113e-01 3.771297037601470947e-01 3.819609805941581726e-02
5.495330095291137695e-01 3.916360139846801758e-01 -5.833948962390422821e-03
-7.926562428474426270e-02 -3.405301570892333984e-01 -2.274672687053680420e-02
5.635013431310653687e-02 -1.400131732225418091e-01 8.319213241338729858e-02
1.006421521306037903e-01 2.993161380290985107e-01 5.615450441837310791e-02
-2.549635469913482666e-01 8.749113231897354126e-02 -6.961888074874877930e-02
-3.094858825206756592e-01 1.466139964759349823e-02 7.217358052730560303e-02
-1.062670163810253143e-02 2.716366946697235107e-02 9.674195200204849243e-02
3.290536403656005859e-01 -1.280034482479095459e-01 -1.695939153432846069e-02
-1.119755208492279053e-01 -2.913657426834106445e-01 -6.067728623747825623e-02
-4.107884168624877930e-01 5.048176646232604980e-02 3.206548467278480530e-02
-4.217540621757507324e-01 4.094228520989418030e-02 -3.693151473999023438e-02
-4.734014868736267090e-01 -1.554671972990036011e-01 -6.825987249612808228e-02
-1.165463328361511230e-01 1.176921874284744263e-01 8.079702407121658325e-02
2.985235676169395447e-02 -1.622582226991653442e-01 8.126050978899002075e-02
1.904903352260589600e-01 3.397466838359832764e-01 4.937027767300605774e-02
-6.309165060520172119e-02 -1.264344751834869385e-01 9.157130867242813110e-02
-2.053020298480987549e-01 -2.025566697120666504e-01 -8.650428801774978638e-02
4.424777030944824219e-01 1.185054257512092590e-01 -6.525368243455886841e-02
4.709014594554901123e-01 4.033897519111633301e-01 2.178101986646652222e-02
-1.381488144397735596e-01 8.909422904253005981e-02 -8.551096171140670776e-02
-3.328641876578330994e-02 1.213397681713104248e-01 8.789861947298049927e-02
2.124706208705902100e-01 3.412191569805145264e-01 5.107770487666130066e-02
-5.486881732940673828e-01 -2.176443636417388916e-01 4.910294711589813232e-02
2.876566350460052490e-01 4.058043658733367920e-01 -3.512263298034667969e-03
-2.334453016519546509e-01 -2.582106292247772217e-01 -7.780229300260543823e-02
9.258927404880523682e-02 2.022317051887512207e-01 8.276543021202087402e-02
-4.002808034420013428e-01 -4.887427017092704773e-02 -7.046455889940261841e-02
-2.524512708187103271e-01 -1.316459011286497116e-02 8.405353873968124390e-02
-2.077742815017700195e-01 -2.821943163871765137e-01 -7.148372381925582886e-02
4.575423002243041992e-01 1.128797903656959534e-01 -6.152414157986640930e-02
4.784240722656250000e-01 3.488220572471618652e-01 4.810660704970359802e-02
-8.287128061056137085e-02 1.400038152933120728e-01 8.025901764631271362e-02
4.837156832218170166e-01 -2.975343260914087296e-03 1.201787404716014862e-02
2.109549641609191895e-01 3.769434988498687744e-01 2.777091600000858307e-02
-3.398847579956054688e-02 1.820859909057617188e-01 7.654189318418502808e-02
-1.852529197931289673e-01 -4.720336571335792542e-02 9.199941903352737427e-02
-4.949952363967895508e-01 -2.099515050649642944e-01 -6.581949442625045776e-02
4.356665164232254028e-02 -1.922256797552108765e-01 -7.256255298852920532e-02
3.237690031528472900e-01 1.007652934640645981e-02 -7.315085828304290771e-02
2.478493005037307739e-01 -1.693037301301956177e-01 -3.137184306979179382e-02
-1.560930907726287842e-01 2.444649189710617065e-01 -1.267579104751348495e-02
2.409827411174774170e-01 -9.921099059283733368e-03 -8.248986303806304932e-02
3.441651538014411926e-02 3.318631649017333984e-01 -1.316353678703308105e-02
-6.114356964826583862e-02 -2.426951825618743896e-01 -7.101451605558395386e-02
1.043035760521888733e-01 3.138311505317687988e-01 5.000814422965049744e-02
-3.731725811958312988e-01 -1.595373302698135376e-01 7.786563783884048462e-02
2.605608403682708740e-01 1.358079463243484497e-01 8.952983468770980835e-02
-8.317928761243820190e-02 -3.041644096374511719e-01 -5.081656947731971741e-02
4.101352021098136902e-02 -2.593884617090225220e-02 -9.637608379125595093e-02
5.811854004859924316e-01 2.463094890117645264e-01 -3.813327848911285400e-02
4.968987405300140381e-01 2.149049378931522369e-02 -1.986944489181041718e-02
-2.036183774471282959e-01 -3.042890429496765137e-01 -6.481910496950149536e-02
-1.579848974943161011e-01 -2.147258259356021881e-03 -9.386347234249114990e-02
-3.312835395336151123e-01 7.480074465274810791e-02 -5.576613545417785645e-02
-3.585822284221649170e-01 -1.372750252485275269e-01 7.936722785234451294e-02
3.802152574062347412e-01 1.182207018136978149e-01 7.881755381822586060e-02
4.121792018413543701e-01 -5.604431964457035065e-03 -4.866670444607734680e-02
-2.559404373168945312e-01 3.913799300789833069e-02 7.654622197151184082e-02
8.847539871931076050e-02 2.117092311382293701e-01 -8.068526536226272583e-02
-3.373804986476898193e-01 -3.166608214378356934e-01 6.182991713285446167e-02
4.887290671467781067e-02 -8.011584728956222534e-02 9.215243905782699585e-02
-5.426288843154907227e-01 -3.442941606044769287e-01 3.649167343974113464e-02
7.722795009613037109e-02 -7.757824659347534180e-02 -9.040758013725280762e-02
-2.058653160929679871e-02 -3.007350564002990723e-01 3.838531672954559326e-02
5.821015238761901855e-01 3.742367029190063477e-01 -4.946923814713954926e-03
-4.389705061912536621e-01 -1.105107739567756653e-01 -7.105527073144912720e-02
1.288797259330749512e-01 -1.205267161130905151e-01 7.945390045642852783e-02
2.947547435760498047e-01 2.751282155513763428e-01 -7.207088917493820190e-02
2.428953945636749268e-01 5.756427720189094543e-02 -8.806437253952026367e-02
2.187346518039703369e-01 1.634511649608612061e-01 -8.818024396896362305e-02
-9.915941208600997925e-02 -1.447898596525192261e-01 9.035821259021759033e-02
4.909159541130065918e-01 3.106387555599212646e-01 -5.159287527203559875e-02
-5.573435425758361816e-01 -3.801762759685516357e-01 1.794215105473995209e-02
6.209408640861511230e-01 3.373077809810638428e-01 3.227810375392436981e-03
-2.174449861049652100e-01 3.752533346414566040e-02 -8.491421490907669067e-02
1.898903399705886841e-01 -1.115793213248252869e-01 7.299156486988067627e-02
-2.293692976236343384e-01 1.963723748922348022e-01 -2.340637519955635071e-02
4.144101440906524658e-01 -6.335627287626266479e-02 1.727813296020030975e-02
-4.815716147422790527e-01 -3.260314837098121643e-02 -4.386121779680252075e-02
-4.728597104549407959e-01 -2.244746088981628418e-01 6.381808966398239136e-02
4.844144582748413086e-01 1.515090018510818481e-01 -5.941710248589515686e-02
5.431448817253112793e-01 1.659486591815948486e-01 -4.538865759968757629e-02
5.585898756980895996e-01 1.189442127943038940e-01 3.428807109594345093e-02
-2.530631422996520996e-01 -8.604513108730316162e-02 8.828109502792358398e-02
-2.890135943889617920e-01 -3.932814300060272217e-01 2.421210333704948425e-02
2.744701504707336426e-01 9.606332331895828247e-02 8.879800885915756226e-02
-5.013073086738586426e-01 -2.716319262981414795e-01 5.625968426465988159e-02
-2.509211003780364990e-01 1.466117799282073975e-01 -4.960676655173301697e-02
2.855992317199707031e-01 2.973818480968475342e-01 6.930125504732131958e-02
-6.338367462158203125e-01 -2.247413843870162964e-01 1.359429396688938141e-02
-2.061710059642791748e-01 2.132655680179595947e-01 -1.900531351566314697e-02
-9.010192006826400757e-02 -3.179455995559692383e-01 4.371279105544090271e-02
-3.092152178287506104e-01 -1.014563953503966331e-03 -7.858987152576446533e-02
2.241376489400863647e-01 -1.520268470048904419e-01 5.239775776863098145e-02
-4.545076489448547363e-01 -4.168060123920440674e-01 -2.663800958544015884e-03
-2.180350199341773987e-02 -2.598638534545898438e-01 5.971553176641464233e-02
2.128265500068664551e-01 1.857653111219406128e-01 8.773977309465408325e-02
3.376574814319610596e-01 -4.475083947181701660e-02 6.132739037275314331e-02
-4.771921932697296143e-01 1.878071948885917664e-02 1.108556054532527924e-03
3.194739669561386108e-02 -2.449827790260314941e-01 5.669586732983589172e-02
-4.420766830444335938e-01 -3.871963620185852051e-01 3.294843807816505432e-02
-5.844841599464416504e-01 -1.911149471998214722e-01 -4.248056560754776001e-02
1.929637044668197632e-01 2.234645038843154907e-01 8.271079510450363159e-02
-7.844285666942596436e-02 1.528244763612747192e-01 -7.969998568296432495e-02
2.846278846263885498e-01 -1.133643742650747299e-02 7.861996442079544067e-02
-1.516287475824356079e-01 3.381967917084693909e-02 -9.141924232244491577e-02
1.650630682706832886e-02 -6.339327432215213776e-03 -9.755711257457733154e-02
-1.536012887954711914e-01 1.437646150588989258e-01 6.970881670713424683e-02
-2.104630768299102783e-01 -1.328654140233993530e-01 9.006152302026748657e-02
1.737995073199272156e-02 -1.011752262711524963e-01 -9.163015335798263550e-02
-3.650819659233093262e-01 7.319184392690658569e-02 4.071693494915962219e-02
1.426864415407180786e-01 7.637552171945571899e-02 9.525052458047866821e-02
1.357489731162786484e-02 -1.242489814758300781e-01 8.879619091749191284e-02
-4.408937096595764160e-01 -3.213283717632293701e-01 -6.015390157699584961e-02
-9.356616437435150146e-02 -3.247869387269020081e-02 -9.730328619480133057e-02
-4.835512340068817139e-01 -1.453708410263061523e-01 6.029809638857841492e-02
-6.223887801170349121e-01 -1.740883588790893555e-01 -1.288965810090303421e-02
4.272932708263397217e-01 1.620749384164810181e-02 5.443498864769935608e-02
3.610213696956634521e-01 -5.433179438114166260e-03 6.600343436002731323e-02
-2.618568241596221924e-01 -6.198985874652862549e-02 -8.986224234104156494e-02
-2.809385359287261963e-01 -1.019081696867942810e-01 8.633211255073547363e-02
-5.235292762517929077e-02 2.826400697231292725e-01 -3.072065860033035278e-02
4.376722276210784912e-01 7.331974804401397705e-02 6.435719877481460571e-02
1.258581411093473434e-02 -1.550731062889099121e-01 8.402477949857711792e-02
3.494501113891601562e-01 -5.625464767217636108e-02 -5.122916400432586670e-02
3.880914449691772461e-01 8.092426508665084839e-02 7.483868300914764404e-02
2.678956091403961182e-01 5.745445564389228821e-02 -8.567800372838973999e-02
-4.506449699401855469e-01 -3.806560933589935303e-01 -4.021568223834037781e-02
-5.790905356407165527e-01 -2.003236711025238037e-01 -4.538992047309875488e-02
5.880251526832580566e-01 2.448540031909942627e-01 4.091816768050193787e-02
-5.257415175437927246e-01 -5.447845906019210815e-02 -3.097845241427421570e-02
4.710475802421569824e-01 4.099027812480926514e-01 1.381548121571540833e-02
3.392149806022644043e-01 5.825513601303100586e-02 -7.692059874534606934e-02
-3.194943368434906006e-01 -1.130508482456207275e-01 -8.668880909681320190e-02
-1.259618252515792847e-01 -1.267441175878047943e-02 -9.596140682697296143e-02
3.192416131496429443e-01 8.286561071872711182e-02 8.417492359876632690e-02
-4.896423220634460449e-02 -2.355721890926361084e-01 -7.173946499824523926e-02
4.245336726307868958e-02 2.094349712133407593e-01 7.777572423219680786e-02
3.636439442634582520e-01 3.410517573356628418e-01 -5.449437350034713745e-02
-1.006620302796363831e-01 -3.475641012191772461e-01 -2.339322492480278015e-02
6.325374841690063477e-01 2.674111127853393555e-01 -1.189352292567491531e-02
4.165644943714141846e-02 1.878408342599868774e-02 -9.735192358493804932e-02
-1.216385662555694580e-01 -1.788160204887390137e-01 -8.813457190990447998e-02
-1.372489929199218750e-01 -3.408731222152709961e-01 -3.996452689170837402e-02
7.764346897602081299e-02 -4.367444291710853577e-02 -9.363879263401031494e-02
-1.077421829104423523e-01 -3.375795185565948486e-01 3.434209525585174561e-02
3.255268931388854980e-01 -8.386550843715667725e-02 5.118197947740554810e-02
1.104626357555389404e-01 2.337092608213424683e-01 -7.720701396465301514e-02
1.511644572019577026e-01 3.147765994071960449e-01 5.607871338725090027e-02
4.811369776725769043e-01 2.490718811750411987e-01 6.450999528169631958e-02
-7.112815044820308685e-03 3.027176856994628906e-01 -3.024781122803688049e-02
-1.878700107336044312e-01 1.235977262258529663e-01 -7.197736203670501709e-02
-2.714231610298156738e-02 3.075167834758758545e-01 -1.101010479032993317e-02
-2.346888035535812378e-01 7.021477445960044861e-03 8.391465991735458374e-02
-1.723407953977584839e-01 -1.168234795331954956e-01 9.202635288238525391e-02
4.271403253078460693e-01 4.114298820495605469e-01 -1.374994404613971710e-02
-3.585497736930847168e-01 5.922586843371391296e-02 4.903039708733558655e-02
-3.906589746475219727e-01 4.659341648221015930e-02 -4.759514704346656799e-02
5.051112771034240723e-01 3.635020554065704346e-01 -3.573983907699584961e-02
3.101089298725128174e-01 3.301790952682495117e-01 -5.843584984540939331e-02
-3.218267560005187988e-01 8.908495306968688965e-02 4.903758317232131958e-02
-1.560386866331100464e-01 2.456835806369781494e-01 6.526561919599771500e-03
4.408046305179595947e-01 2.568084299564361572e-01 -6.523681432008743286e-02
2.388155311346054077e-01 3.282699286937713623e-01 5.851453170180320740e-02
2.448255866765975952e-01 3.638017475605010986e-01 4.282600805163383484e-02
-1.022270321846008301e-02 -2.102876454591751099e-01 -7.434222847223281860e-02
-1.130449995398521423e-01 -2.867074124515056610e-02 9.515717625617980957e-02
-5.141382291913032532e-02 -2.569260541349649429e-03 -9.765578061342239380e-02
-5.077298283576965332e-01 -3.001782894134521484e-01 5.168371647596359253e-02
-1.052520647644996643e-01 -3.293118476867675781e-01 -4.076886922121047974e-02
-3.348596990108489990e-01 -3.430949747562408447e-01 5.398749560117721558e-02
