-2.573316395282745361e-01 -6.632007956504821777e-01 6.461416184902191162e-02
-3.569016456604003906e-01 -1.493263691663742065e-01 -1.949317604303359985e-01
-2.971875369548797607e-01 5.578903555870056152e-01 -4.525476694107055664e-02
-2.248186320066452026e-01 3.504444956779479980e-01 -3.021450638771057129e-01
3.646259307861328125e-01 -1.284670680761337280e-01 1.688147038221359253e-01
2.627909183502197266e-01 6.259755492210388184e-01 1.250905096530914307e-01
-1.147132739424705505e-01 -6.908569931983947754e-01 2.125285565853118896e-01
2.578143179416656494e-01 1.781220138072967529e-01 3.068781793117523193e-01
-3.275347054004669189e-01 -5.012237429618835449e-01 -9.211149066686630249e-02
4.392273724079132080e-02 3.281461000442504883e-01 3.674842715263366699e-01
-3.343092203140258789e-01 4.505927860736846924e-01 -4.418575391173362732e-02
-2.947138547897338867e-01 -1.929056197404861450e-01 -2.801731526851654053e-01
-6.019378453493118286e-02 8.164674639701843262e-01 -1.268763691186904907e-01
-4.215703159570693970e-02 -5.123670101165771484e-01 -3.345591425895690918e-01
-1.524381153285503387e-02 7.409530878067016602e-01 -2.157296091318130493e-01
3.703910708427429199e-01 -4.759549349546432495e-02 1.675132066011428833e-01
1.124187000095844269e-02 8.443908691406250000e-01 9.353315830230712891e-02
1.353716105222702026e-02 8.610458374023437500e-01 5.526251345872879028e-02
-3.587816655635833740e-01 -3.875083476305007935e-02 1.556251794099807739e-01
-1.967853307723999023e-01 -3.761986494064331055e-01 2.933868169784545898e-01
3.098621666431427002e-01 3.681800067424774170e-01 -1.938374936580657959e-01
3.347001373767852783e-01 -4.547453224658966064e-01 6.520698964595794678e-02
2.736290693283081055e-01 -5.835596919059753418e-01 -1.043002232909202576e-01
-2.205842137336730957e-01 6.696863174438476562e-01 -1.251710504293441772e-01
-3.475956022739410400e-01 1.424141600728034973e-02 -2.199270129203796387e-01
3.052650690078735352e-01 3.899740874767303467e-01 -1.925723552703857422e-01
4.977305606007575989e-02 -6.485376358032226562e-01 2.612610757350921631e-01
-4.804326966404914856e-02 6.860842704772949219e-01 -2.482353448867797852e-01
2.841709554195404053e-01 3.237405419349670410e-01 -2.422988414764404297e-01
-2.892974019050598145e-01 5.559403300285339355e-01 -9.589977562427520752e-02
8.712673187255859375e-02 -9.348116070032119751e-02 -3.942005038261413574e-01
2.080700695514678955e-01 -8.591533452272415161e-02 -3.404260873794555664e-01
1.430402994155883789e-01 7.982226014137268066e-01 -9.258063137531280518e-02
-2.719405293464660645e-01 -1.681789904832839966e-01 2.688710987567901611e-01
3.181594014167785645e-01 2.674489021301269531e-01 -2.119895964860916138e-01
-3.596230447292327881e-01 9.447696805000305176e-02 -1.891159117221832275e-01
-1.528240144252777100e-01 3.637441992759704590e-01 3.165243566036224365e-01
-1.677715033292770386e-01 -4.845993965864181519e-02 -3.791247606277465820e-01
3.425401151180267334e-01 4.223541617393493652e-01 1.142554953694343567e-01
-3.774376511573791504e-01 -2.996971011161804199e-01 2.149411663413047791e-02
2.783579826354980469e-01 5.103351473808288574e-01 -1.756103783845901489e-01
1.106067076325416565e-01 -7.625974416732788086e-01 -1.621623784303665161e-01
-3.872069716453552246e-01 -2.286207377910614014e-01 -6.436822563409805298e-02
1.686796844005584717e-01 -7.204806208610534668e-01 1.474901437759399414e-01
-1.026567071676254272e-01 7.382023930549621582e-01 -1.897065192461013794e-01
-1.873860508203506470e-01 6.519799232482910156e-01 -1.915510147809982300e-01
2.313357889652252197e-01 -5.904649496078491211e-01 1.830765008926391602e-01
-1.428912431001663208e-01 3.438320159912109375e-01 3.262509405612945557e-01
-1.174805089831352234e-01 -9.766895323991775513e-02 -3.947144150733947754e-01
-3.773863315582275391e-01 1.839287430047988892e-01 -1.132808327674865723e-01
1.760849654674530029e-01 -5.320407748222351074e-01 2.653562724590301514e-01
-1.003668680787086487e-01 -5.718500018119812012e-01 -3.027799427509307861e-01
-2.794787585735321045e-01 5.982422828674316406e-01 -4.998533427715301514e-02
9.952399879693984985e-03 1.664805561304092407e-01 3.900967538356781006e-01
-3.415342867374420166e-01 1.985999047756195068e-01 1.609528660774230957e-01
-2.410601675510406494e-01 -7.061150670051574707e-01 -6.944098323583602905e-02
-1.486760079860687256e-01 -1.374273449182510376e-01 -3.826247155666351318e-01
-2.242840528488159180e-01 4.232542812824249268e-01 -2.796392142772674561e-01
3.675574064254760742e-01 -1.398995816707611084e-01 1.594672948122024536e-01
-3.355346024036407471e-01 -3.327616453170776367e-01 1.453948020935058594e-01
-9.987914562225341797e-02 5.991619825363159180e-01 2.606298029422760010e-01
1.402865499258041382e-01 -4.993596971035003662e-01 2.977353930473327637e-01
2.368628829717636108e-01 6.248139142990112305e-01 -1.591650545597076416e-01
-3.663534224033355713e-01 3.750131279230117798e-02 1.362745314836502075e-01
-3.548423945903778076e-01 8.003637194633483887e-02 1.572132557630538940e-01
8.699564263224601746e-03 6.681085377931594849e-02 3.963042795658111572e-01
3.294034600257873535e-01 4.469476044178009033e-01 1.326766461133956909e-01
2.070006281137466431e-01 -3.054607100784778595e-02 -3.433925509452819824e-01
7.523706555366516113e-02 -4.929141998291015625e-01 3.208386301994323730e-01
-1.315532028675079346e-01 1.643323451280593872e-01 -3.836019635200500488e-01
-3.797078430652618408e-01 -1.328782644122838974e-02 1.031873449683189392e-01
-3.540080785751342773e-01 -4.285621345043182373e-01 2.972604706883430481e-03
3.083608578890562057e-03 4.652376174926757812e-01 -3.460367321968078613e-01
-1.895855516195297241e-01 -5.722639560699462891e-01 -2.598808109760284424e-01
-8.289019763469696045e-02 1.972658783197402954e-01 3.730193972587585449e-01
6.000954285264015198e-02 -3.482820987701416016e-01 3.612364828586578369e-01
-3.346221148967742920e-01 1.757522821426391602e-01 -2.209106683731079102e-01
7.108514010906219482e-02 -5.649435520172119141e-01 2.955041825771331787e-01
3.746942579746246338e-01 -2.893621325492858887e-01 5.474334210157394409e-02
-2.661350965499877930e-01 -6.531606316566467285e-01 5.264328047633171082e-02
-1.035496219992637634e-01 8.182721138000488281e-01 -8.197479695081710815e-02
-1.748691797256469727e-01 7.454647421836853027e-01 -1.025988310575485229e-01
-1.635507792234420776e-01 6.015508770942687988e-01 2.203793674707412720e-01
2.525035142898559570e-01 1.313230991363525391e-01 -3.053225576877593994e-01
-3.565552532672882080e-01 2.109427005052566528e-01 1.238768920302391052e-01
-1.236612126231193542e-01 -1.930121928453445435e-01 -3.859238028526306152e-01
2.360307574272155762e-01 -4.688770771026611328e-01 -2.374077737331390381e-01
-2.317759543657302856e-01 2.940586209297180176e-01 -3.109473288059234619e-01
3.112911283969879150e-01 -6.942526996135711670e-02 2.616210579872131348e-01
-1.546551585197448730e-01 -7.859194278717041016e-01 -1.182960271835327148e-01
9.800780564546585083e-03 3.174860477447509766e-01 3.698291182518005371e-01
-3.117729127407073975e-01 1.040447875857353210e-02 -2.717717885971069336e-01
-9.980896860361099243e-02 7.825687527656555176e-01 -1.453933715820312500e-01
7.867426611483097076e-03 -8.491217494010925293e-01 -1.070712804794311523e-01
-4.457541555166244507e-02 -1.735277324914932251e-01 -4.016350507736206055e-01
-7.644327729940414429e-02 -8.641579151153564453e-01 1.028407271951436996e-02
-1.191136054694652557e-02 -5.566121339797973633e-01 -3.196756839752197266e-01
2.400031834840774536e-01 -6.304451823234558105e-01 1.358028501272201538e-01
-3.095187246799468994e-01 -5.723863244056701660e-01 -4.944429174065589905e-02
1.475448310375213623e-01 -6.008538603782653809e-01 2.500888407230377197e-01
3.808854520320892334e-01 1.187528446316719055e-01 1.366298347711563110e-01
-1.414223164319992065e-01 -7.105609178543090820e-01 -2.088678330183029175e-01
9.769511222839355469e-02 1.896403543651103973e-02 3.898111581802368164e-01
-2.100426852703094482e-01 7.020477056503295898e-01 -9.959228336811065674e-02
3.770252764225006104e-01 9.194842725992202759e-02 -1.297886371612548828e-01
-2.397550940513610840e-01 4.101408421993255615e-01 2.378435283899307251e-01
3.359405398368835449e-01 -3.225886523723602295e-01 -1.509575992822647095e-01
3.941472768783569336e-01 2.080486714839935303e-01 2.474998682737350464e-02
-2.121924608945846558e-02 -5.928323864936828613e-01 2.895752489566802979e-01
-6.865748018026351929e-02 -1.559276729822158813e-01 3.817692101001739502e-01
1.999824345111846924e-01 -6.256432533264160156e-01 1.944804340600967407e-01
-1.845334917306900024e-01 6.265479326248168945e-01 1.859459578990936279e-01
-4.124144464731216431e-02 -2.810710072517395020e-01 3.720665574073791504e-01
-3.351415395736694336e-01 3.441896289587020874e-02 1.969179511070251465e-01
3.049204051494598389e-01 -1.737317889928817749e-01 2.568641901016235352e-01
-3.323588669300079346e-01 -1.391438394784927368e-01 1.965409666299819946e-01
2.835082821547985077e-03 -6.226735711097717285e-01 2.776263952255249023e-01
-3.328649997711181641e-01 -1.632490456104278564e-01 1.927011013031005859e-01
-3.000201284885406494e-01 5.457690358161926270e-01 -6.262070685625076294e-02
1.777155697345733643e-01 4.211880564689636230e-01 3.106615543365478516e-01
-1.919940859079360962e-02 -5.995571613311767578e-01 -3.025150299072265625e-01
5.548243597149848938e-02 -1.502836644649505615e-01 3.897609114646911621e-01
1.406162381172180176e-01 -1.043715626001358032e-01 -3.752512633800506592e-01
-2.223228812217712402e-01 6.354032754898071289e-01 1.298508942127227783e-01
-1.249658688902854919e-01 -7.288733720779418945e-01 1.792883872985839844e-01
1.927390396595001221e-01 5.448351800441741943e-02 -3.519295454025268555e-01
-3.094175457954406738e-01 2.251927554607391357e-01 -2.474836707115173340e-01
-1.602105051279067993e-01 -7.582487463951110840e-01 -1.489838063716888428e-01
1.368037909269332886e-01 -7.236586213111877441e-01 1.750395298004150391e-01
2.563793957233428955e-01 1.029546484351158142e-01 -3.040462136268615723e-01
3.880947083234786987e-02 -5.432913303375244141e-01 -3.192338347434997559e-01
-3.650187849998474121e-01 2.448014169931411743e-01 -1.284208595752716064e-01
3.935231268405914307e-01 1.639548316597938538e-02 1.007989570498466492e-01
-3.222617208957672119e-01 2.253971993923187256e-01 1.884177774190902710e-01
-3.790553510189056396e-01 1.434501558542251587e-01 -1.239662766456604004e-01
-2.015607059001922607e-01 7.203532457351684570e-01 -8.672855049371719360e-02
3.822232782840728760e-01 2.959976494312286377e-01 -1.645432785153388977e-02
2.153365910053253174e-01 3.952609002590179443e-01 -2.881171703338623047e-01
-1.020903140306472778e-01 -8.540410995483398438e-01 -9.945770725607872009e-03
3.143914639949798584e-01 1.534057781100273132e-02 -2.456678152084350586e-01
-2.018326520919799805e-01 9.338882565498352051e-02 -3.591092824935913086e-01
-2.242072820663452148e-01 7.030255794525146484e-01 -3.452751785516738892e-02
3.699038028717041016e-01 1.812341362237930298e-01 1.540303826332092285e-01
1.674926131963729858e-01 -6.008195281028747559e-01 -2.365020066499710083e-01
3.133199810981750488e-01 4.860173761844635010e-01 -1.258753687143325806e-01
2.678333222866058350e-01 -2.975897490978240967e-01 2.711423337459564209e-01
-2.880186438560485840e-01 5.777070522308349609e-01 -5.447880178689956665e-02
3.089305460453033447e-01 4.711624979972839355e-01 1.616850197315216064e-01
1.248173117637634277e-01 -8.094038963317871094e-01 -8.018815517425537109e-02
3.668037354946136475e-01 -6.519484519958496094e-02 1.738175302743911743e-01
6.772397458553314209e-02 -3.913844525814056396e-01 -3.580099344253540039e-01
3.069150447845458984e-01 -4.311524033546447754e-01 1.685096025466918945e-01
-3.940271735191345215e-01 -1.429292410612106323e-01 2.100969851016998291e-02
-3.435125648975372314e-01 1.813232153654098511e-01 -2.039316743612289429e-01
3.252902328968048096e-01 -4.592833817005157471e-01 1.009087339043617249e-01
-3.355656266212463379e-01 -2.725738883018493652e-01 1.655182838439941406e-01
-3.347811102867126465e-01 -4.864849150180816650e-01 3.468653559684753418e-02
2.512631416320800781e-01 1.743509918451309204e-01 -3.021770119667053223e-01
-1.453088074922561646e-01 1.991732269525527954e-01 3.499561846256256104e-01
-1.112092100083827972e-02 -6.320494413375854492e-01 2.727132439613342285e-01
-1.686280816793441772e-01 5.883169174194335938e-01 2.236143499612808228e-01
2.123282290995121002e-02 -2.399430423974990845e-01 3.820987939834594727e-01
-4.367818683385848999e-02 -3.954240679740905762e-01 3.496386110782623291e-01
1.987464874982833862e-01 7.671154737472534180e-01 -3.199195116758346558e-02
-1.152672320604324341e-01 1.359995901584625244e-01 -3.910803198814392090e-01
-5.127349123358726501e-02 3.267491608858108521e-02 3.909949362277984619e-01
-1.467665135860443115e-01 7.815157771110534668e-01 6.490594148635864258e-02
3.741829991340637207e-01 -4.989101737737655640e-02 -1.375063955783843994e-01
2.577379643917083740e-01 -5.202281475067138672e-02 3.146355152130126953e-01
3.850542604923248291e-01 2.195913344621658325e-01 -6.819804757833480835e-02
-3.523802161216735840e-01 1.546219438314437866e-01 1.494132876396179199e-01
-3.844393789768218994e-01 -2.030116915702819824e-01 5.291421711444854736e-02
-3.938819169998168945e-01 -1.805548816919326782e-01 -2.626494318246841431e-02
-3.813430070877075195e-01 -2.911974191665649414e-01 -2.619691938161849976e-02
1.982354968786239624e-01 4.683858454227447510e-01 2.840974628925323486e-01
4.083453863859176636e-02 -1.550990343093872070e-01 -3.997381329536437988e-01
-2.979708909988403320e-01 -4.782709181308746338e-01 1.470804214477539062e-01
-1.225231513381004333e-01 -2.343780696392059326e-01 3.575885295867919922e-01
-2.987758517265319824e-01 5.467986464500427246e-01 3.054218366742134094e-02
9.989770501852035522e-02 2.283422946929931641e-01 -3.786395490169525146e-01
3.338106870651245117e-01 -1.521541774272918701e-01 2.214724719524383545e-01
-3.852099478244781494e-01 -2.235561460256576538e-01 -8.387008309364318848e-02
3.697910308837890625e-01 -2.241370528936386108e-01 1.257589459419250488e-01
-3.079853057861328125e-01 -5.424013137817382812e-01 7.211960852146148682e-02
2.228788845241069794e-02 -6.729524135589599609e-01 -2.636048495769500732e-01
1.045995205640792847e-01 -6.320316791534423828e-01 -2.592543959617614746e-01
8.796509355306625366e-02 6.110903620719909668e-01 2.745185792446136475e-01
3.158541917800903320e-01 5.505300760269165039e-01 -4.296429082751274109e-02
-1.665103137493133545e-01 -5.766877532005310059e-01 -2.726882100105285645e-01
-2.338604331016540527e-01 3.505592644214630127e-01 2.625132501125335693e-01
-1.344631239771842957e-02 -8.342784047126770020e-01 1.172034218907356262e-01
-1.550625264644622803e-01 2.110429555177688599e-01 -3.694811463356018066e-01
3.479320704936981201e-01 -2.844982221722602844e-02 -1.944267451763153076e-01
-2.005330324172973633e-01 -3.319503664970397949e-01 -3.321742415428161621e-01
-1.514967344701290131e-02 -5.634342432022094727e-01 3.019677400588989258e-01
2.211986184120178223e-01 4.069243371486663818e-01 2.883109450340270996e-01
-1.012486517429351807e-01 -6.010389924049377441e-01 2.670529484748840332e-01
-7.498299330472946167e-02 -9.831155836582183838e-02 3.841129839420318604e-01
3.580387234687805176e-01 4.198657870292663574e-01 3.632616251707077026e-02
-1.664857864379882812e-01 2.692397534847259521e-01 -3.554179966449737549e-01
8.351239562034606934e-02 -6.566236615180969238e-01 2.486983537673950195e-01
-3.919927775859832764e-01 1.035220324993133545e-01 -7.496532052755355835e-02
-2.418367266654968262e-01 -3.596878945827484131e-01 2.622075378894805908e-01
2.096977531909942627e-01 -1.881144195795059204e-02 3.479932546615600586e-01
3.844916224479675293e-01 2.629488706588745117e-01 -4.045883938670158386e-02
3.051355108618736267e-02 3.093232028186321259e-02 -4.069437086582183838e-01
-3.747007623314857483e-02 7.678189873695373535e-01 -1.901264488697052002e-01
-2.565518021583557129e-01 5.939800143241882324e-01 1.056481078267097473e-01
2.786944992840290070e-02 -5.227917432785034180e-01 3.170816302299499512e-01
-2.970608472824096680e-01 4.754587709903717041e-01 -1.593656986951828003e-01
1.125656664371490479e-01 -7.508839368820190430e-01 -1.721368730068206787e-01
2.485034465789794922e-01 -4.504620730876922607e-01 2.400861978530883789e-01
3.990482687950134277e-01 -2.931690588593482971e-02 -4.381222277879714966e-02
-3.023571968078613281e-01 -1.318214237689971924e-01 -2.785751521587371826e-01
-1.950836926698684692e-01 4.714110195636749268e-01 2.558061182498931885e-01
-3.149984776973724365e-01 -3.530609309673309326e-01 -2.167921811342239380e-01
-8.258568495512008667e-02 1.325902342796325684e-01 -3.987099528312683105e-01
3.258164227008819580e-01 5.362999625504016876e-03 2.466783821582794189e-01
3.055689930915832520e-01 3.177743256092071533e-01 -2.166692167520523071e-01
-1.262510120868682861e-01 -2.991043031215667725e-01 3.464053273200988770e-01
-1.967674344778060913e-01 3.490780889987945557e-01 -3.219950795173645020e-01
-1.898297518491744995e-01 -3.820307850837707520e-01 -3.267806768417358398e-01
4.823176190257072449e-02 -3.927366435527801514e-01 -3.619614839553833008e-01
1.519486457109451294e-01 -1.075040400028228760e-01 3.708428144454956055e-01
1.670705974102020264e-01 7.999243140220642090e-01 -3.393766656517982483e-02
-2.212825715541839600e-01 -1.681144237518310547e-01 -3.445265889167785645e-01
2.242705076932907104e-01 6.101648211479187012e-01 -1.861792206764221191e-01
-4.705543816089630127e-02 8.397265672683715820e-01 8.012934029102325439e-02
3.472791910171508789e-01 -1.688160188496112823e-02 2.143966257572174072e-01
2.688968181610107422e-02 1.513882130384445190e-01 -4.012273550033569336e-01
2.569133639335632324e-01 -1.355056613683700562e-01 -2.989564239978790283e-01
-1.920880228281021118e-01 7.464901208877563477e-01 1.582195609807968140e-02
-1.155655309557914734e-01 5.117903351783752441e-01 -3.117100596427917480e-01
-3.704072833061218262e-01 2.818753421306610107e-01 -7.370743900537490845e-02
9.044507145881652832e-02 7.766299881041049957e-03 3.912559449672698975e-01
-1.228217706084251404e-01 1.530146449804306030e-01 -3.874211013317108154e-01
-1.783204674720764160e-01 -7.825630903244018555e-01 -8.177419751882553101e-02
-6.311222165822982788e-02 -2.057064175605773926e-01 3.781744837760925293e-01
1.126484572887420654e-01 2.067962139844894409e-01 3.752875626087188721e-01
2.032189220190048218e-01 -1.750863045454025269e-01 3.410226702690124512e-01
-1.277439296245574951e-01 5.086927413940429688e-01 2.854683697223663330e-01
-2.398189455270767212e-01 -6.160353422164916992e-01 1.494338363409042358e-01
-4.121534898877143860e-02 7.190071344375610352e-01 -2.280041426420211792e-01
-1.771759837865829468e-01 4.487927556037902832e-01 -3.043799400329589844e-01
2.557087838649749756e-01 6.594846248626708984e-01 -8.733261376619338989e-02
-3.655963540077209473e-01 2.617210336029529572e-02 -1.838114857673645020e-01
2.560093700885772705e-01 5.492489784955978394e-03 -3.072220385074615479e-01
-1.755869537591934204e-01 -2.641033232212066650e-01 -3.575393855571746826e-01
2.406304776668548584e-01 -3.828848898410797119e-01 -2.642188072204589844e-01
-1.566309928894042969e-01 -4.302019476890563965e-01 3.032208681106567383e-01
1.574194729328155518e-01 2.996777296066284180e-01 -3.453451693058013916e-01
-2.646957635879516602e-01 6.307452321052551270e-01 8.149103261530399323e-03
1.294486373662948608e-01 8.139373064041137695e-01 8.291073888540267944e-02
-3.244527056813240051e-02 -7.530713081359863281e-01 1.973732709884643555e-01
-3.311850428581237793e-01 2.802577912807464600e-01 1.556823104619979858e-01
-1.473470032215118408e-01 -3.835473954677581787e-01 3.200024962425231934e-01
-3.146689385175704956e-02 2.679056823253631592e-01 3.743891417980194092e-01
-3.681819736957550049e-01 -2.707124352455139160e-01 -1.329919546842575073e-01
-8.836847543716430664e-02 -7.963272333145141602e-01 1.387008577585220337e-01
3.348137736320495605e-01 5.070070028305053711e-01 3.937710076570510864e-03
-3.045817911624908447e-01 5.176712274551391602e-01 -9.458238631486892700e-02
3.228820562362670898e-01 -1.257693916559219360e-01 -2.253051251173019409e-01
-3.189696073532104492e-01 6.999922543764114380e-02 -2.592847049236297607e-01
-2.861490473151206970e-02 8.195853829383850098e-01 -1.358257532119750977e-01
-4.642948973923921585e-03 4.846400916576385498e-01 3.285812735557556152e-01
1.272989213466644287e-01 -3.217426538467407227e-01 -3.532713949680328369e-01
3.319945931434631348e-01 1.217760890722274780e-02 -2.212646454572677612e-01
-2.968299984931945801e-01 -3.116203844547271729e-01 -2.544153630733489990e-01
-3.287009000778198242e-01 -3.554701507091522217e-01 1.499637812376022339e-01
3.306872248649597168e-01 2.119185030460357666e-01 2.224242985248565674e-01
1.120639145374298096e-01 -5.372312664985656738e-01 -2.986457645893096924e-01
2.279095798730850220e-01 -2.910546362400054932e-01 -2.992561161518096924e-01
-2.425718307495117188e-01 4.403601288795471191e-01 -2.562305033206939697e-01
3.032508492469787598e-01 -5.592146515846252441e-01 -1.529831252992153168e-02
-1.675328612327575684e-01 -5.058238506317138672e-01 2.726641595363616943e-01
1.448806002736091614e-02 -6.133297681808471680e-01 -2.944741249084472656e-01
-7.567913085222244263e-02 5.583449006080627441e-01 2.880851626396179199e-01
-3.193339109420776367e-01 -1.447549164295196533e-01 2.153694927692413330e-01
-3.010443150997161865e-01 2.890324890613555908e-01 2.032392919063568115e-01
3.124685883522033691e-01 -8.397484570741653442e-02 -2.439653277397155762e-01
2.703096866607666016e-01 5.625481009483337402e-01 -1.546012610197067261e-01
2.817039787769317627e-01 1.267401576042175293e-01 -2.783199548721313477e-01
-2.593441605567932129e-01 -4.750681817531585693e-01 2.050737887620925903e-01
-1.439771652221679688e-01 -4.090010821819305420e-01 3.152928948402404785e-01
-3.680495619773864746e-01 5.436497181653976440e-02 -1.754821538925170898e-01
-1.087857559323310852e-01 -1.334299147129058838e-01 -3.948840498924255371e-01
-4.663394391536712646e-02 -4.277714192867279053e-01 -3.588748276233673096e-01
1.799807846546173096e-01 1.134734004735946655e-01 3.601880073547363281e-01
-1.939322948455810547e-01 -2.344011962413787842e-01 -3.527046740055084229e-01
3.537432253360748291e-01 -3.186014592647552490e-01 1.250792145729064941e-01
1.227539926767349243e-01 -4.484117031097412109e-01 -3.241866827011108398e-01
1.383004933595657349e-01 1.798286661505699158e-02 -3.794405162334442139e-01
3.070848286151885986e-01 1.722898036241531372e-01 2.598104476928710938e-01
-2.247174829244613647e-01 5.379709005355834961e-01 -2.278653681278228760e-01
1.644875854253768921e-01 -5.784338712692260742e-01 2.511704266071319580e-01
7.783982157707214355e-02 -8.557451963424682617e-01 9.271913208067417145e-03
1.649717688560485840e-01 -5.677605271339416504e-01 2.560912072658538818e-01
1.556686870753765106e-02 -8.464812636375427246e-01 9.661652147769927979e-02
-3.900454938411712646e-01 -2.210530638694763184e-01 -3.200754150748252869e-02
-3.014898598194122314e-01 -3.836438953876495361e-01 -2.257351428270339966e-01
2.929794788360595703e-01 7.023618370294570923e-02 -2.699410319328308105e-01
1.333348155021667480e-01 6.966436505317687988e-01 -2.077381908893585205e-01
3.090980648994445801e-01 5.075427889823913574e-01 1.352618932723999023e-01
9.399085491895675659e-02 -1.099845692515373230e-01 3.869925737380981445e-01
-3.196716308593750000e-01 4.229733645915985107e-01 -1.459637582302093506e-01
-2.971757650375366211e-01 -2.597750350832939148e-02 -2.889399528503417969e-01
-3.236848115921020508e-01 -3.114834241569042206e-02 2.158387154340744019e-01
-2.671344876289367676e-01 -5.581883192062377930e-01 -1.869099438190460205e-01
-8.489359170198440552e-02 1.038667485117912292e-01 -4.003242254257202148e-01
-2.744158506393432617e-01 6.104928255081176758e-01 8.648266084492206573e-03
3.901473283767700195e-01 2.451086193323135376e-01 2.995463088154792786e-03
-1.845884919166564941e-01 6.740008592605590820e-01 -1.759345233440399170e-01
1.470303982496261597e-01 8.081281185150146484e-01 -6.462245434522628784e-02
-3.616154789924621582e-01 3.306067585945129395e-01 -6.993801891803741455e-02
-3.399764299392700195e-01 -4.407983422279357910e-01 -1.125529929995536804e-01
-3.888661861419677734e-01 1.044872775673866272e-01 -9.462606161832809448e-02
3.136123716831207275e-01 5.653831362724304199e-01 3.287206962704658508e-02
2.936647534370422363e-01 2.020354568958282471e-01 2.705885767936706543e-01
-8.563554286956787109e-02 -4.020592868328094482e-01 -3.599523603916168213e-01
-9.597889333963394165e-02 -8.562868237495422363e-01 5.571945570409297943e-03
-2.347724288702011108e-01 6.565082073211669922e-01 -1.111767068505287170e-01
-3.022634088993072510e-01 -4.365364909172058105e-01 -2.021159380674362183e-01
-3.927897810935974121e-01 3.067362122237682343e-02 4.707369208335876465e-02
-2.720918972045183182e-03 -7.644087076187133789e-01 1.909875869750976562e-01
-9.321857243776321411e-02 -2.271186858415603638e-01 -3.895224928855895996e-01
-1.946679130196571350e-02 8.563054800033569336e-01 -7.097951322793960571e-02
6.775705609470605850e-03 8.678855299949645996e-01 -3.654228523373603821e-02
-2.424890100955963135e-01 1.893553882837295532e-01 -3.222100734710693359e-01
3.226891160011291504e-01 4.081211984157562256e-01 -1.539140492677688599e-01
2.341808080673217773e-01 5.492374300956726074e-01 2.209818363189697266e-01
-3.824238181114196777e-01 5.566558241844177246e-02 -1.344701647758483887e-01
-1.123985648155212402e-01 4.300218224525451660e-01 -3.395829796791076660e-01
3.618245720863342285e-01 -3.674866855144500732e-01 1.149118971079587936e-02
1.771016120910644531e-01 2.890240848064422607e-01 -3.370344936847686768e-01
1.216952428221702576e-01 -4.682188034057617188e-01 3.157762289047241211e-01
-3.072328567504882812e-01 3.243542611598968506e-01 1.821512728929519653e-01
3.668116033077239990e-01 -2.899205684661865234e-01 9.833774715662002563e-02
-2.813030779361724854e-01 -1.140652298927307129e-01 -3.019213974475860596e-01
1.751824766397476196e-01 4.458685517311096191e-01 3.046622872352600098e-01
-3.819071054458618164e-01 -1.622693240642547607e-01 7.898491621017456055e-02
2.476961016654968262e-01 -9.635276347398757935e-02 3.196696639060974121e-01
-2.420664578676223755e-01 4.885823428630828857e-01 2.022335380315780640e-01
-3.412034809589385986e-01 4.230259060859680176e-01 1.355911884456872940e-02
-3.870117664337158203e-01 -2.478109747171401978e-01 -1.415797695517539978e-02
-3.854557275772094727e-01 1.347631216049194336e-01 5.330804362893104553e-02
-1.899396777153015137e-01 -1.185013428330421448e-01 3.365179896354675293e-01
-2.090647518634796143e-01 -4.121253732591867447e-04 3.277852833271026611e-01
1.372747719287872314e-01 -7.403003424406051636e-02 -3.782307803630828857e-01
9.051707386970520020e-02 -8.448620438575744629e-01 3.823234140872955322e-02
-1.743766069412231445e-01 -7.477620840072631836e-01 -1.449334174394607544e-01
3.243439197540283203e-01 -1.692692637443542480e-01 2.324363291263580322e-01
8.176730573177337646e-02 -5.675582289695739746e-01 2.919218242168426514e-01
9.174334257841110229e-02 -3.234774172306060791e-01 -3.657614886760711670e-01
8.945492655038833618e-02 -3.124785423278808594e-01 3.632209300994873047e-01
-1.062110140919685364e-01 4.190151691436767578e-01 3.237286210060119629e-01
1.580778956413269043e-01 2.851928770542144775e-01 -3.475806117057800293e-01
3.947165012359619141e-01 9.417423605918884277e-02 8.874017745256423950e-02
6.580029148608446121e-03 -7.587007880210876465e-01 -2.092423439025878906e-01
-2.813948392868041992e-01 -4.637376964092254639e-02 2.671487033367156982e-01
-4.886087030172348022e-03 -8.759885430335998535e-01 -2.953043580055236816e-02
1.003391295671463013e-01 -4.090929627418518066e-01 -3.439214527606964111e-01
-5.861676111817359924e-02 4.961872100830078125e-02 -4.067356884479522705e-01
-2.945289313793182373e-01 -5.937653183937072754e-01 4.832828417420387268e-02
3.800128400325775146e-01 2.749985158443450928e-01 8.024392277002334595e-02
-1.729116886854171753e-01 -1.093046367168426514e-01 -3.746837973594665527e-01
1.738378554582595825e-01 7.472032308578491211e-02 3.648234605789184570e-01
-3.786951601505279541e-01 4.639595001935958862e-02 -1.478505730628967285e-01
3.616259992122650146e-01 3.310554623603820801e-01 1.178791075944900513e-01
2.011506408452987671e-01 5.360541343688964844e-01 -2.488375455141067505e-01
1.125363633036613464e-01 -2.329625636339187622e-01 -3.735595047473907471e-01
9.277245402336120605e-02 8.027540147304534912e-02 3.892794251441955566e-01
3.964873552322387695e-01 2.161627262830734253e-02 8.672409504652023315e-02
2.662046849727630615e-01 -5.416480302810668945e-01 1.675153374671936035e-01
-3.415329754352569580e-01 2.984157502651214600e-01 1.255611479282379150e-01
4.076225683093070984e-02 1.898292899131774902e-01 3.875547945499420166e-01
-1.836854517459869385e-01 -4.322267174720764160e-01 2.867790758609771729e-01
3.374131619930267334e-01 2.637523412704467773e-01 1.997488439083099365e-01
-3.272991776466369629e-01 2.000039070844650269e-02 2.097341716289520264e-01
-3.876631259918212891e-01 -7.405726611614227295e-02 7.330034673213958740e-02
5.832284688949584961e-02 1.157279964536428452e-02 3.957387804985046387e-01
-3.346999883651733398e-01 3.184349834918975830e-01 1.322193592786788940e-01
-1.413758695125579834e-01 2.706614434719085693e-01 -3.656747043132781982e-01
-1.519933938980102539e-01 7.669722437858581543e-01 8.313178271055221558e-02
2.127033472061157227e-01 5.416983962059020996e-01 -2.363742291927337646e-01
3.573822975158691406e-01 -5.328096449375152588e-02 -1.751287728548049927e-01
-1.376973688602447510e-01 7.512460350990295410e-01 -1.484411060810089111e-01
-3.263962268829345703e-01 -4.706120193004608154e-01 8.715558052062988281e-02
2.095337212085723877e-01 -1.306472718715667725e-01 3.420262932777404785e-01
-7.803708314895629883e-02 -4.116048216819763184e-01 -3.590206503868103027e-01
5.828161537647247314e-02 -7.853916287422180176e-01 1.623764783143997192e-01
-2.645220421254634857e-02 -9.676607698202133179e-02 -4.077112972736358643e-01
9.504540823400020599e-03 3.691425919532775879e-01 -3.703027069568634033e-01
-1.702606678009033203e-01 -5.806623399257659912e-02 3.501326441764831543e-01
-9.684329852461814880e-04 8.700532317161560059e-01 -1.028056629002094269e-02
-1.615772396326065063e-01 4.089743643999099731e-02 -3.810383081436157227e-01
-3.477443754673004150e-01 3.883571922779083252e-01 3.284403681755065918e-02
-1.806979775428771973e-01 7.394824028015136719e-01 7.445424795150756836e-02
-2.924489974975585938e-01 -3.010137937963008881e-03 -2.937530875205993652e-01
-2.100334763526916504e-01 2.156405448913574219e-01 -3.407882452011108398e-01
3.651578426361083984e-01 2.304939627647399902e-01 1.524214297533035278e-01
3.913758397102355957e-01 -1.884245425462722778e-01 -5.321362055838108063e-03
-1.069382056593894958e-01 2.644642814993858337e-02 -3.989335298538208008e-01
7.731891423463821411e-02 -6.074553728103637695e-01 -2.826362550258636475e-01
-3.333548903465270996e-01 6.921040266752243042e-02 -2.390998303890228271e-01
-1.249354854226112366e-01 5.864261984825134277e-01 -2.761956751346588135e-01
1.943581551313400269e-01 4.713369607925415039e-01 -2.795697152614593506e-01
3.015067428350448608e-02 -6.286372542381286621e-01 2.737438976764678955e-01
2.586662769317626953e-01 4.961963891983032227e-01 -2.098436802625656128e-01
-4.799844697117805481e-02 -6.735386848449707031e-01 -2.649074792861938477e-01
-2.310927398502826691e-02 -1.338911056518554688e-01 -4.056329727172851562e-01
-1.302424818277359009e-01 7.902980446815490723e-01 -1.001374348998069763e-01
-3.010674118995666504e-01 4.502412080764770508e-01 1.309012472629547119e-01
-3.576092720031738281e-01 3.604560792446136475e-01 1.329925842583179474e-03
-3.318374156951904297e-01 -1.283540762960910797e-02 -2.456638813018798828e-01
-9.072322398424148560e-02 6.202119588851928711e-02 -4.013703763484954834e-01
-8.792090415954589844e-02 -8.512098789215087891e-01 4.760210961103439331e-02
-2.967534959316253662e-01 3.633829355239868164e-01 -2.216301411390304565e-01
-2.958856523036956787e-01 -5.996853709220886230e-01 2.922802045941352844e-02
-1.948099583387374878e-02 -5.215802788734436035e-02 3.950914442539215088e-01
3.694353103637695312e-01 -3.015806078910827637e-01 -5.593756586313247681e-02
3.223623037338256836e-01 -2.987867593765258789e-01 -1.866653412580490112e-01
-2.183613926172256470e-01 -7.271156907081604004e-01 -9.786680340766906738e-02
2.903183177113533020e-02 4.272449910640716553e-01 -3.548401296138763428e-01
2.303672581911087036e-01 -5.413175821304321289e-01 -2.085084617137908936e-01
-2.929619252681732178e-01 -5.312957167625427246e-01 -1.611867249011993408e-01
2.648623883724212646e-01 3.153719902038574219e-01 -2.653504312038421631e-01
4.033160507678985596e-01 2.125859633088111877e-02 -2.138953190296888351e-03
5.237647891044616699e-02 -7.962511777877807617e-01 1.531932502985000610e-01
1.645316481590270996e-01 -4.582127630710601807e-01 3.002396225929260254e-01
5.098146386444568634e-03 3.605824708938598633e-01 3.612143695354461670e-01
3.477444648742675781e-01 6.450916081666946411e-02 2.133377045392990112e-01
7.629664242267608643e-02 4.474261403083801270e-01 -3.410561978816986084e-01
2.730559706687927246e-01 -6.300457119941711426e-01 4.132062196731567383e-03
-3.228092100471258163e-05 -3.005241453647613525e-01 -3.859689831733703613e-01
-6.280113011598587036e-02 5.918670296669006348e-01 -2.945294380187988281e-01
1.672834903001785278e-01 6.779761314392089844e-01 2.002000361680984497e-01
-1.345464438199996948e-01 7.489457726478576660e-01 1.317517906427383423e-01
-2.455721348524093628e-01 -4.005579054355621338e-01 -2.823588252067565918e-01
-1.308625042438507080e-01 -7.148925065994262695e-01 -2.120466977357864380e-01
2.773789875209331512e-02 -8.654072880744934082e-01 -6.063100695610046387e-02
-2.150276750326156616e-01 6.895352005958557129e-01 -1.085225045680999756e-01
3.081399761140346527e-02 4.474142193794250488e-02 3.969854712486267090e-01
-3.485757410526275635e-01 3.713589012622833252e-01 -9.383857250213623047e-02
-9.016323834657669067e-02 2.368018180131912231e-01 -3.858457505702972412e-01
-2.688772678375244141e-01 6.078993678092956543e-01 -8.482011407613754272e-02
-2.436293512582778931e-01 -5.424517393112182617e-01 -2.266849130392074585e-01
-6.850598007440567017e-02 4.456056654453277588e-01 -3.462285995483398438e-01
-1.150229647755622864e-01 3.856151700019836426e-01 -3.506510257720947266e-01
3.323849141597747803e-01 -3.240196108818054199e-01 1.741702407598495483e-01
1.611052751541137695e-01 -3.057972490787506104e-01 3.415482938289642334e-01
-2.648103535175323486e-01 6.236759424209594727e-01 -6.756171584129333496e-02
2.372682653367519379e-02 8.389599323272705078e-01 -1.114158555865287781e-01
8.990274369716644287e-02 6.287151575088500977e-02 -3.947663903236389160e-01
9.528999775648117065e-02 -2.549620568752288818e-01 -3.761621415615081787e-01
-2.377777695655822754e-01 -6.134471297264099121e-01 -1.893609464168548584e-01
2.781045138835906982e-01 -2.618876695632934570e-01 2.693322002887725830e-01
1.132732629776000977e-01 1.741283833980560303e-01 3.785326182842254639e-01
-3.550959229469299316e-01 9.301458485424518585e-03 1.625280082225799561e-01
3.546134531497955322e-01 -2.407878078520298004e-02 -1.824138760566711426e-01
-1.536633670330047607e-01 -6.261984109878540039e-01 -2.553307414054870605e-01
-3.329332172870635986e-02 -2.257768064737319946e-02 -4.095341265201568604e-01
8.594125509262084961e-02 6.819446086883544922e-01 -2.404939979314804077e-01
-3.435576558113098145e-01 3.947469592094421387e-02 1.824733018875122070e-01
3.889155089855194092e-01 1.903734505176544189e-01 8.607098460197448730e-02
-3.513807952404022217e-01 -1.581525057554244995e-01 -2.044535279273986816e-01
4.174287617206573486e-02 7.850647568702697754e-01 1.682756990194320679e-01
2.271477319300174713e-02 8.434407114982604980e-01 9.536620974540710449e-02
2.095743417739868164e-01 -2.485345453023910522e-01 3.267071545124053955e-01
-3.565324246883392334e-01 -1.656169146299362183e-01 -1.930644959211349487e-01
-2.956948280334472656e-01 -3.926501572132110596e-01 -2.304109334945678711e-01
3.449647128582000732e-01 -2.720379531383514404e-01 -1.522820591926574707e-01
-1.440646797418594360e-01 2.367864400148391724e-01 -3.701179325580596924e-01
-3.230412900447845459e-01 -1.630496978759765625e-01 -2.493868321180343628e-01
-3.885299265384674072e-01 1.381670534610748291e-01 -7.976642251014709473e-02
-3.085390329360961914e-01 -5.769820213317871094e-01 -3.926004096865653992e-02
2.977877855300903320e-01 -2.274468243122100830e-01 -2.418210953474044800e-01
2.733950614929199219e-01 5.790182352066040039e-01 1.494324058294296265e-01
2.326629757881164551e-01 6.341189742088317871e-01 1.673962026834487915e-01
9.946109354496002197e-02 -7.286272477358579636e-03 3.894582390785217285e-01
3.276434838771820068e-01 -4.128695130348205566e-01 -1.191174313426017761e-01
3.613459169864654541e-01 -1.319933086633682251e-01 -1.560643911361694336e-01
-7.587795704603195190e-02 -3.162018656730651855e-01 -3.793897032737731934e-01
4.134912788867950439e-02 -3.545615375041961670e-01 -3.715324699878692627e-01
3.592380583286285400e-01 1.243111491203308105e-01 -1.679032742977142334e-01
-1.422613561153411865e-01 7.104395031929016113e-01 1.624098271131515503e-01
-3.535773754119873047e-01 2.284937798976898193e-01 1.251228153705596924e-01
7.990114390850067139e-02 -5.452482700347900391e-01 -3.079595863819122314e-01
1.735778748989105225e-01 -5.442810654640197754e-01 -2.599141001701354980e-01
3.243333995342254639e-01 -5.031166672706604004e-01 5.058540962636470795e-03
-1.969795823097229004e-01 -7.700766324996948242e-01 -5.789881944656372070e-02
8.792384713888168335e-02 6.457293033599853516e-01 2.572817206382751465e-01
-2.737255096435546875e-01 4.963118135929107666e-01 1.527268886566162109e-01
-3.847119212150573730e-01 -2.648800313472747803e-01 -8.896587416529655457e-03
8.144811540842056274e-02 8.510113954544067383e-01 -5.265167355537414551e-02
1.921304762363433838e-01 -1.328255087137222290e-01 -3.470339477062225342e-01
-3.474830090999603271e-02 3.856159001588821411e-02 3.934932947158813477e-01
4.485619440674781799e-02 -5.044189095497131348e-01 3.218448758125305176e-01
-2.542184293270111084e-01 -2.591220438480377197e-01 -3.084773123264312744e-01
-3.650372624397277832e-01 8.740416914224624634e-02 1.334297955036163330e-01
-2.764684259891510010e-01 -3.844901919364929199e-02 -3.094368875026702881e-01
8.829052560031414032e-03 4.005950391292572021e-01 -3.631025850772857666e-01
-3.634240627288818359e-01 3.028844296932220459e-01 -9.291023761034011841e-02
2.241249084472656250e-01 -3.690190911293029785e-01 2.897654175758361816e-01
-2.147158384323120117e-01 -6.907524466514587402e-01 -1.538107544183731079e-01
-8.383624255657196045e-03 5.623530745506286621e-01 -3.129206895828247070e-01
1.737338677048683167e-02 -6.721079349517822266e-01 2.522580623626708984e-01
-1.148908063769340515e-01 6.088593006134033203e-01 2.484515607357025146e-01
-2.036357671022415161e-01 -7.471240758895874023e-01 -9.649982303380966187e-02
-3.647733926773071289e-01 -3.315099179744720459e-01 -1.095889136195182800e-01
-1.184299290180206299e-01 5.930308103561401367e-01 2.544274926185607910e-01
-7.265725731849670410e-02 -6.835827231407165527e-01 -2.550192475318908691e-01
-3.694176673889160156e-01 -3.527341187000274658e-01 -5.862451344728469849e-02
3.277496900409460068e-03 -4.396204352378845215e-01 -3.561002016067504883e-01
-5.443409085273742676e-02 -5.819614231586456299e-02 3.900237083435058594e-01
3.542878925800323486e-01 4.257141351699829102e-01 5.815173685550689697e-02
-2.346612364053726196e-01 6.391418576240539551e-01 1.027745082974433899e-01
1.094519793987274170e-01 -1.931904852390289307e-01 -3.794837892055511475e-01
8.863636851310729980e-02 -8.162236809730529785e-01 1.074763983488082886e-01
1.197625473141670227e-01 -4.899573922157287598e-01 -3.123265504837036133e-01
-3.732298016548156738e-01 -1.065702177584171295e-03 -1.669808179140090942e-01
-3.516349196434020996e-01 3.886073231697082520e-01 -1.276650652289390564e-02
-1.775412075221538544e-02 3.267655372619628906e-01 -3.793762922286987305e-01
4.878738522529602051e-02 -6.984341144561767578e-02 -4.035050272941589355e-01
-1.402663588523864746e-01 -1.747041195631027222e-01 3.571826219558715820e-01
-1.189122349023818970e-01 -4.558745324611663818e-01 -3.374794721603393555e-01
4.507168754935264587e-02 8.200698494911193848e-01 1.282445788383483887e-01
5.073641613125801086e-02 -8.075144886970520020e-01 1.411055475473403931e-01
5.133527144789695740e-02 7.382469177246093750e-01 -2.128965854644775391e-01
-2.455888092517852783e-01 3.653893470764160156e-01 -2.802356481552124023e-01
2.117951512336730957e-01 7.150592803955078125e-01 1.154109910130500793e-01
2.654233276844024658e-01 -2.017089575529098511e-01 2.929826378822326660e-01
-1.217399016022682190e-01 -8.412864804267883301e-01 -3.520110994577407837e-02
-1.545298099517822266e-01 -6.075300574302673340e-01 2.369162142276763916e-01
3.952525556087493896e-01 -5.119227617979049683e-02 8.542519062757492065e-02
1.695139110088348389e-01 5.490838289260864258e-01 -2.661253213882446289e-01
-3.341931477189064026e-02 -4.666276574134826660e-01 -3.491334021091461182e-01
3.933460414409637451e-01 1.918635517358779907e-02 -7.908969372510910034e-02
-3.182877898216247559e-01 3.279310185462236404e-03 2.231220453977584839e-01
-1.266764253377914429e-01 6.628571748733520508e-01 2.104795575141906738e-01
3.260405659675598145e-01 4.305468797683715820e-01 -1.341488957405090332e-01
-2.261776775121688843e-01 5.324936509132385254e-01 1.980935186147689819e-01
-2.669892609119415283e-01 -5.225329399108886719e-01 1.716606914997100830e-01
2.161043286323547363e-01 -4.907864630222320557e-01 2.534007430076599121e-01
9.488958120346069336e-02 -7.874364852905273438e-01 1.414845436811447144e-01
-3.583213090896606445e-01 2.475033402442932129e-01 1.044139042496681213e-01
3.553214967250823975e-01 1.872641295194625854e-01 -1.655785143375396729e-01
3.685832917690277100e-01 -3.321335315704345703e-01 -1.400523260235786438e-02
2.598988711833953857e-01 -1.799209862947463989e-01 3.010531067848205566e-01
1.917297691106796265e-01 -4.242124855518341064e-01 2.955990135669708252e-01
6.082450598478317261e-02 -1.703741252422332764e-01 -3.948929309844970703e-01
2.049544006586074829e-01 1.970840692520141602e-01 -3.340287804603576660e-01
3.897455707192420959e-02 1.160435974597930908e-01 -4.023972749710083008e-01
-5.795538425445556641e-02 7.318775653839111328e-01 1.986416131258010864e-01
-3.672165870666503906e-01 1.492370963096618652e-01 1.147402077913284302e-01
-3.879594206809997559e-01 -9.448175877332687378e-02 6.949394941329956055e-02
-3.087254464626312256e-01 5.277354121208190918e-01 7.332660257816314697e-03
-2.665056884288787842e-01 -6.631058454513549805e-01 2.817865088582038879e-02
-6.457541137933731079e-02 8.506177663803100586e-01 2.706869691610336304e-02
-2.618369758129119873e-01 5.364828705787658691e-01 1.456106007099151611e-01
4.405753314495086670e-02 8.639636635780334473e-01 3.651490807533264160e-02
3.739247620105743408e-01 -2.681777775287628174e-01 8.277583122253417969e-02
-1.655089259147644043e-01 -6.577878594398498535e-01 -2.293695062398910522e-01
-3.079313933849334717e-01 -1.858659088611602783e-01 -2.659038901329040527e-01
2.929706275463104248e-01 5.327658057212829590e-01 -1.348882466554641724e-01
-2.518337666988372803e-01 4.490410387516021729e-01 2.089586853981018066e-01
-3.843221366405487061e-01 1.186497807502746582e-01 6.520405411720275879e-02
-2.828448414802551270e-01 4.770483970642089844e-01 1.490298360586166382e-01
6.480657309293746948e-02 -7.918186187744140625e-01 -1.617607325315475464e-01
3.533159792423248291e-01 -6.972960382699966431e-02 2.002951353788375854e-01
-3.103771209716796875e-01 1.376443542540073395e-04 2.336927056312561035e-01
3.641584217548370361e-01 -3.563070893287658691e-01 1.958619058132171631e-02
3.499888777732849121e-01 4.416155517101287842e-01 5.981025844812393188e-02
-2.776411771774291992e-01 5.356452465057373047e-01 1.155429556965827942e-01
-1.554476022720336914e-01 -7.123422622680664062e-01 1.696051210165023804e-01
2.148905247449874878e-01 3.725174069404602051e-01 3.021390438079833984e-01
3.280092179775238037e-01 3.184143602848052979e-01 -1.815532594919204712e-01
-3.304104506969451904e-01 1.370831727981567383e-01 1.934342831373214722e-01
3.984538912773132324e-01 -1.096876114606857300e-01 -8.021120913326740265e-03
-3.753254115581512451e-01 8.979294449090957642e-02 -1.508247256278991699e-01
-1.583064533770084381e-02 8.626133799552917480e-01 4.016840830445289612e-02
-2.082307487726211548e-01 -7.586225867271423340e-01 1.540551986545324326e-02
-1.814676970243453979e-01 5.522995442152023315e-02 -3.717418611049652100e-01
-1.045701503753662109e-01 7.067881226539611816e-01 1.941972374916076660e-01
-1.923335492610931396e-01 -7.197045087814331055e-01 -1.540756076574325562e-01
1.032741144299507141e-01 -8.091434240341186523e-01 -1.104236319661140442e-01
-1.387723386287689209e-01 -4.038661122322082520e-01 -3.447946608066558838e-01
8.669488877058029175e-02 -8.361863493919372559e-01 7.141450792551040649e-02
3.553840816020965576e-01 -1.894869208335876465e-01 -1.560551971197128296e-01
2.590327151119709015e-02 6.973062753677368164e-01 -2.449835240840911865e-01
-6.997521966695785522e-02 -7.135046124458312988e-01 2.165676355361938477e-01
-7.054561376571655273e-02 -4.148616641759872437e-02 3.871055245399475098e-01
9.155189245939254761e-02 4.587507992982864380e-02 3.905964493751525879e-01
2.790408208966255188e-03 -8.143528699874877930e-01 1.428040564060211182e-01
-2.325670272111892700e-01 -7.054618597030639648e-01 6.494113057851791382e-02
-1.162490099668502808e-01 -8.459559679031372070e-01 -4.636023193597793579e-03
-5.078528076410293579e-02 4.992472827434539795e-01 -3.324746191501617432e-01
-3.730334043502807617e-01 2.696532309055328369e-01 -6.959107518196105957e-02
-3.379486799240112305e-01 -3.020156323909759521e-01 -1.949966847896575928e-01
-2.071099728345870972e-01 -4.754155576229095459e-01 2.558942735195159912e-01
-6.613870710134506226e-02 5.772910714149475098e-01 -3.001976609230041504e-01
-3.147785961627960205e-01 -4.061766266822814941e-01 -1.955059915781021118e-01
3.618912398815155029e-01 2.877977192401885986e-01 -1.191743016242980957e-01
3.881376981735229492e-01 -2.134692668914794922e-01 3.161651641130447388e-02
3.374740779399871826e-01 4.087208807468414307e-01 1.384059041738510132e-01
3.430464863777160645e-02 8.352984189987182617e-01 -1.154079288244247437e-01
3.888273835182189941e-01 7.568264752626419067e-02 1.164624243974685669e-01
-2.499394267797470093e-01 2.404865920543670654e-01 2.734932005405426025e-01
-2.854872643947601318e-01 5.684783458709716797e-01 -9.008580446243286133e-02
2.874562740325927734e-01 1.789898276329040527e-01 -2.666663229465484619e-01
-2.873193323612213135e-01 4.864878058433532715e-01 1.342127770185470581e-01
1.404434442520141602e-01 -6.863517761230468750e-01 2.022263854742050171e-01
2.753773331642150879e-01 -4.435094594955444336e-01 2.117079794406890869e-01
-6.476905196905136108e-02 2.306343019008636475e-01 3.734900951385498047e-01
-3.807015717029571533e-01 1.634157896041870117e-01 6.305460631847381592e-02
1.759439855813980103e-01 -6.934065222740173340e-01 -1.643412560224533081e-01
7.738573104143142700e-02 3.951661288738250732e-02 3.930741548538208008e-01
-3.895481228828430176e-01 9.122444689273834229e-02 -9.590134024620056152e-02
3.231652379035949707e-01 4.884658157825469971e-01 1.152511313557624817e-01
-1.897616982460021973e-01 -7.710618376731872559e-01 4.870536178350448608e-02
-1.066946014761924744e-01 -1.539737880229949951e-01 3.715725839138031006e-01
2.119030654430389404e-01 7.620379328727722168e-02 -3.392353951930999756e-01
1.936187893152236938e-01 2.042610496282577515e-01 -3.402136266231536865e-01
-3.342127203941345215e-01 2.249346375465393066e-01 1.677804142236709595e-01
1.894883513450622559e-01 -4.922069609165191650e-01 -2.698463499546051025e-01
-1.525972336530685425e-01 -3.858299553394317627e-01 -3.438357114791870117e-01
3.433862328529357910e-01 -4.185827672481536865e-01 7.384318858385086060e-02
