3.739649057388305664e-01 4.938526451587677002e-01 2.658974528312683105e-01
5.447334647178649902e-01 1.185396127402782440e-02 -3.001387119293212891e-01
9.473180398344993591e-03 -6.794481873512268066e-01 -9.963928908109664917e-02
6.725242733955383301e-02 3.518808186054229736e-01 -6.740871071815490723e-01
4.658939838409423828e-01 3.798471391201019287e-02 -4.818078279495239258e-01
3.422980010509490967e-01 2.099154293537139893e-01 6.048739552497863770e-01
7.659510523080825806e-02 -5.109141469001770020e-01 5.232393741607666016e-01
1.815677620470523834e-03 -3.846103698015213013e-02 -7.826434969902038574e-01
2.478693425655364990e-02 -5.396316647529602051e-01 -4.763562083244323730e-01
1.681569516658782959e-01 -3.412343561649322510e-01 -6.368501782417297363e-01
-3.858901858329772949e-01 1.872010231018066406e-01 5.751976966857910156e-01
-5.411512255668640137e-01 -2.857574224472045898e-01 1.020950153470039368e-01
5.541878342628479004e-01 2.454295009374618530e-01 -6.085705012083053589e-02
3.695078492164611816e-01 -5.152620077133178711e-01 1.120428368449211121e-01
2.796324789524078369e-01 -5.924766659736633301e-01 -6.717228144407272339e-02
3.450958430767059326e-01 -4.913580715656280518e-01 -2.714127302169799805e-01
-5.589147210121154785e-01 1.431475877761840820e-01 -1.917838156223297119e-01
-4.793028235435485840e-01 -1.299496293067932129e-01 -4.328202903270721436e-01
2.664360404014587402e-02 -4.026862680912017822e-01 -6.291890144348144531e-01
-3.418272733688354492e-02 -1.711591184139251709e-01 -7.562212944030761719e-01
-2.224154621362686157e-01 2.631741166114807129e-01 6.808056235313415527e-01
3.801839426159858704e-02 1.827986687421798706e-01 -7.571552991867065430e-01
-5.319068208336830139e-02 2.712976932525634766e-01 7.349111437797546387e-01
-4.180123209953308105e-01 4.637812077999114990e-01 -1.589724421501159668e-01
3.797802925109863281e-01 4.545101821422576904e-01 3.326812982559204102e-01
2.493810355663299561e-01 -6.011929512023925781e-01 1.537896990776062012e-01
3.707379400730133057e-01 2.870724201202392578e-01 -5.270264148712158203e-01
-1.657914668321609497e-01 -5.070563554763793945e-01 5.037473440170288086e-01
-2.025972455739974976e-01 -6.245760321617126465e-01 2.233410030603408813e-01
-5.940576791763305664e-01 1.814426481723785400e-02 2.413984388113021851e-02
1.653694733977317810e-02 -4.560237228870391846e-01 -5.801883339881896973e-01
2.183648347854614258e-01 -5.083107948303222656e-01 4.392389953136444092e-01
2.927365601062774658e-01 2.327944338321685791e-01 6.407329440116882324e-01
-4.486098885536193848e-01 2.226143479347229004e-01 4.637489318847656250e-01
3.831589519977569580e-01 3.397522866725921631e-01 4.714029729366302490e-01
-5.627074241638183594e-01 -9.557946026325225830e-02 -2.200758755207061768e-01
4.154326021671295166e-02 -2.106826603412628174e-01 -7.419557571411132812e-01
1.348360180854797363e-01 -5.409823060035705566e-01 4.528760612010955811e-01
-2.847219407558441162e-01 5.084972977638244629e-01 3.875735998153686523e-01
5.399802327156066895e-01 1.516460329294204712e-01 -2.759775817394256592e-01
-1.678196787834167480e-01 -2.646417021751403809e-01 7.089298367500305176e-01
2.292212471365928650e-02 -6.660768985748291016e-01 1.957731246948242188e-01
-5.934664011001586914e-01 2.289305999875068665e-02 -1.410322729498147964e-02
1.461642533540725708e-01 -4.856480360031127930e-01 5.248708128929138184e-01
4.392365813255310059e-01 2.632578611373901367e-01 -4.428190886974334717e-01
3.173896074295043945e-01 -1.611138731241226196e-01 6.398478746414184570e-01
-2.966537475585937500e-01 -5.497856736183166504e-01 2.964143753051757812e-01
4.246996045112609863e-01 4.758320748805999756e-01 -1.449574083089828491e-01
4.190866053104400635e-01 4.994746148586273193e-01 -4.013211466372013092e-03
3.644370436668395996e-01 -4.689290523529052734e-01 -2.783456146717071533e-01
1.103930473327636719e-01 1.975556015968322754e-01 7.520652413368225098e-01
-2.652643918991088867e-01 -6.132633686065673828e-01 -1.000242307782173157e-01
4.843283295631408691e-01 -3.501822650432586670e-01 1.621982604265213013e-01
2.446896880865097046e-01 -8.027695119380950928e-03 -7.148663401603698730e-01
5.555477142333984375e-01 3.932054340839385986e-02 2.607834041118621826e-01
-9.949001669883728027e-02 -6.347879171371459961e-01 2.907951772212982178e-01
1.730895340442657471e-01 5.656830072402954102e-01 -4.027988314628601074e-01
-6.475098431110382080e-02 7.362100481986999512e-02 7.924031019210815430e-01
2.413282394409179688e-01 3.934977650642395020e-01 5.757958889007568359e-01
-4.435628652572631836e-01 -1.127525717020034790e-01 5.291946530342102051e-01
-5.383991599082946777e-01 2.400593459606170654e-01 -1.650609672069549561e-01
1.279994547367095947e-01 1.937249451875686646e-01 7.480655312538146973e-01
4.770021736621856689e-01 -3.672217428684234619e-01 -1.446410417556762695e-01
-5.898410081863403320e-01 -3.511434793472290039e-02 1.122782528400421143e-01
-1.238898932933807373e-01 1.836690306663513184e-01 7.559891939163208008e-01
4.514613449573516846e-01 -2.756589055061340332e-01 3.848162889480590820e-01
-3.956422209739685059e-02 -6.481349468231201172e-01 2.699885964393615723e-01
-3.153512477874755859e-01 -5.559742450714111328e-01 2.403582185506820679e-01
-4.105871617794036865e-01 -4.410347640514373779e-01 -2.677299678325653076e-01
4.941186010837554932e-01 2.562785744667053223e-01 3.307903409004211426e-01
-3.908188641071319580e-01 1.501126028597354889e-02 -5.842383503913879395e-01
-4.741699397563934326e-01 3.684394359588623047e-01 -1.971904784440994263e-01
-4.786375761032104492e-01 -3.106397390365600586e-01 3.335163891315460205e-01
-1.871324330568313599e-02 6.951483488082885742e-01 7.961324416100978851e-03
5.860666036605834961e-01 2.110161818563938141e-02 7.640030980110168457e-02
-1.671203076839447021e-01 -1.104083135724067688e-01 -7.396420240402221680e-01
-4.939776062965393066e-01 4.677078872919082642e-02 4.524559080600738525e-01
-5.166664123535156250e-01 -3.356533944606781006e-01 1.321103125810623169e-01
5.604820847511291504e-01 -1.903263926506042480e-01 4.026299342513084412e-02
-1.325290799140930176e-01 5.678027272224426270e-01 4.273180067539215088e-01
4.589845538139343262e-01 3.427775949239730835e-02 -4.936754405498504639e-01
2.109191268682479858e-01 2.949587404727935791e-01 -6.587814688682556152e-01
-4.700480997562408447e-01 -4.123935103416442871e-01 -1.260198503732681274e-01
3.319479525089263916e-01 -5.558316111564636230e-01 4.978641122579574585e-02
-1.348798871040344238e-01 4.550310075283050537e-01 -5.628681778907775879e-01
-4.076952040195465088e-01 4.988022148609161377e-01 1.081224158406257629e-02
-8.518721163272857666e-02 8.424155414104461670e-02 -7.701197862625122070e-01
7.996968924999237061e-02 -1.116432696580886841e-01 -7.654628157615661621e-01
3.890523314476013184e-01 4.866216778755187988e-01 2.435114681720733643e-01
-5.267879366874694824e-01 -3.064060211181640625e-01 1.536482274532318115e-01
4.944735765457153320e-01 3.670027852058410645e-01 -1.526109278202056885e-01
-2.846505939960479736e-01 1.599688380956649780e-01 -6.599360704421997070e-01
3.839536905288696289e-01 -5.037046074867248535e-01 8.973529934883117676e-02
3.011171221733093262e-01 5.237191915512084961e-01 3.451441228389739990e-01
5.862011313438415527e-01 -4.302556812763214111e-02 -2.484674751758575439e-02
-2.148087024688720703e-01 3.545771837234497070e-01 6.273113489151000977e-01
-1.174466088414192200e-01 -5.736112594604492188e-02 7.842161655426025391e-01
-2.947228252887725830e-01 -6.037887930870056152e-01 1.760335639119148254e-02
-2.646897435188293457e-01 6.159326434135437012e-01 6.793115288019180298e-02
3.694697916507720947e-01 -2.469329386949539185e-01 -5.349111557006835938e-01
1.341499984264373779e-01 6.657756567001342773e-01 1.630550771951675415e-01
5.759550333023071289e-01 -3.501574695110321045e-02 -1.529076993465423584e-01
-3.885594606399536133e-01 -3.424274325370788574e-01 4.745323956012725830e-01
2.901525702327489853e-03 2.781747281551361084e-01 7.344625592231750488e-01
3.690699338912963867e-01 7.701014727354049683e-02 6.142640113830566406e-01
2.793148159980773926e-01 5.697160363197326660e-01 -2.731235027313232422e-01
-2.428545653820037842e-01 -9.619227051734924316e-02 7.278241515159606934e-01
-3.047280013561248779e-01 -8.787707239389419556e-02 -6.617089509963989258e-01
-5.778954178094863892e-02 4.491538405418395996e-01 -5.938368439674377441e-01
-3.314447402954101562e-01 2.226958274841308594e-01 -5.938864946365356445e-01
3.195172548294067383e-01 3.924639821052551270e-01 -4.998643100261688232e-01
1.097933053970336914e-01 -4.352583885192871094e-01 5.976302027702331543e-01
4.677361547946929932e-01 1.759686022996902466e-01 -4.434642195701599121e-01
1.609651297330856323e-01 -6.015492677688598633e-01 3.087692558765411377e-01
-3.535387814044952393e-01 3.788588047027587891e-01 -4.517263472080230713e-01
3.784594237804412842e-01 1.614138484001159668e-01 5.836434960365295410e-01
-2.102576047182083130e-01 5.006350278854370117e-01 -4.606919586658477783e-01
5.569016933441162109e-01 1.872286349534988403e-01 -1.695848852396011353e-01
5.792650952935218811e-02 1.736288666725158691e-01 7.707973122596740723e-01
4.149831235408782959e-01 -4.078577458858489990e-01 -2.793395221233367920e-01
5.312655568122863770e-01 -1.796932220458984375e-01 -2.541973590850830078e-01
2.028898894786834717e-02 -9.724445641040802002e-02 7.909860610961914062e-01
1.011187955737113953e-01 -6.180947422981262207e-01 3.166781365871429443e-01
-5.621291399002075195e-01 -6.609661877155303955e-02 2.666895687580108643e-01
-6.817052513360977173e-02 4.866798222064971924e-01 -5.521256327629089355e-01
4.493952393531799316e-01 -7.773568481206893921e-02 -4.978351891040802002e-01
-4.858172535896301270e-01 3.759817481040954590e-01 1.424383521080017090e-01
-3.285363316535949707e-01 5.734949111938476562e-01 -7.868683896958827972e-03
-1.984456926584243774e-01 4.531515538692474365e-01 5.467695593833923340e-01
-1.090480238199234009e-01 6.505237817764282227e-01 -2.272750437259674072e-01
-3.036103546619415283e-01 -4.915616810321807861e-01 -3.751246631145477295e-01
-3.887206315994262695e-01 1.236148625612258911e-01 5.954360365867614746e-01
-3.771910369396209717e-01 1.495547294616699219e-01 -5.747843384742736816e-01
-5.379987955093383789e-01 7.055355608463287354e-02 -3.102401793003082275e-01
2.354077696800231934e-01 6.067773103713989258e-01 -2.399755269289016724e-01
2.136667817831039429e-01 -4.271927177906036377e-01 5.475300550460815430e-01
-3.400859832763671875e-01 4.813924431800842285e-01 -3.276926577091217041e-01
-3.371331095695495605e-02 3.520874083042144775e-01 -6.760523319244384766e-01
-4.297265112400054932e-01 2.265362441539764404e-01 -4.663793742656707764e-01
5.211684703826904297e-01 2.934959232807159424e-01 1.870544254779815674e-01
5.276015400886535645e-01 3.030064404010772705e-01 -1.280960440635681152e-01
-2.338975667953491211e-01 5.633468627929687500e-01 -3.277085423469543457e-01
5.119867324829101562e-01 3.464263677597045898e-01 -1.011712700128555298e-01
-3.204931318759918213e-01 7.599645759910345078e-03 -6.557826399803161621e-01
-3.797828257083892822e-01 5.260311365127563477e-01 6.646289676427841187e-02
4.884291589260101318e-01 1.813120841979980469e-01 3.994046747684478760e-01
-4.512073099613189697e-01 -4.539450705051422119e-01 -4.780202731490135193e-02
3.270601630210876465e-01 2.891466617584228516e-01 5.784327387809753418e-01
-8.768335729837417603e-02 6.704465150833129883e-01 1.759029328823089600e-01
-4.639120101928710938e-01 3.165639936923980713e-01 3.441084325313568115e-01
5.382757782936096191e-01 1.307806186378002167e-02 -3.203894197940826416e-01
3.167538344860076904e-01 5.804705619812011719e-01 -1.423292160034179688e-01
3.794321119785308838e-01 -4.477840363979339600e-01 2.968359887599945068e-01
-3.038046061992645264e-01 -1.203561574220657349e-01 -6.558948159217834473e-01
-6.652227044105529785e-02 -4.559723436832427979e-01 5.968933701515197754e-01
1.741479486227035522e-01 5.847415924072265625e-01 3.718177676200866699e-01
-8.634849637746810913e-02 6.275196671485900879e-01 3.262072801589965820e-01
-3.342864811420440674e-01 -3.094286657869815826e-02 -6.426776647567749023e-01
2.717294171452522278e-02 -3.892852962017059326e-01 -6.401700973510742188e-01
1.218424737453460693e-01 6.206225156784057617e-01 3.295940756797790527e-01
-2.386763542890548706e-01 -6.265645623207092285e-01 -1.049880534410476685e-01
-1.811953336000442505e-01 6.592512726783752441e-01 -2.145078033208847046e-04
5.182760953903198242e-01 9.469898790121078491e-02 3.647608160972595215e-01
1.436465829610824585e-01 5.242826938629150391e-01 -4.852888584136962891e-01
-1.648615151643753052e-01 -6.424298286437988281e-01 2.060249447822570801e-01
-1.811117678880691528e-01 -3.206247687339782715e-01 6.717388033866882324e-01
-5.528325438499450684e-01 -2.274177670478820801e-01 1.673611849546432495e-01
4.798127338290214539e-02 -4.443698823451995850e-01 -5.883345603942871094e-01
-5.801063179969787598e-01 1.409417390823364258e-01 -8.175612427294254303e-03
-8.562530577182769775e-02 -6.367446780204772949e-01 -2.683654129505157471e-01
-2.435716390609741211e-01 -6.650201976299285889e-03 -7.122368812561035156e-01
-1.293930597603321075e-02 -3.946727216243743896e-01 6.564803719520568848e-01
-1.498410552740097046e-01 -5.052625536918640137e-01 5.143122673034667969e-01
-3.680312633514404297e-01 -4.795360565185546875e-01 -2.880545258522033691e-01
-5.685634016990661621e-01 -4.465019702911376953e-02 -2.123756408691406250e-01
1.711401194334030151e-01 4.703198671340942383e-01 5.455500483512878418e-01
9.685084968805313110e-02 5.533391237258911133e-01 4.710637927055358887e-01
-3.690957725048065186e-01 3.123320937156677246e-01 -4.933588802814483643e-01
-3.972489759325981140e-02 3.296584188938140869e-01 -6.896529197692871094e-01
2.328787446022033691e-01 -3.849496543407440186e-01 5.742352604866027832e-01
1.378191858530044556e-01 -2.158572077751159668e-01 -7.187315821647644043e-01
2.076649218797683716e-01 -2.823784947395324707e-01 -6.543797254562377930e-01
-8.766529709100723267e-02 5.614641308784484863e-01 4.590960144996643066e-01
5.555586889386177063e-02 5.158172249794006348e-01 -5.241158604621887207e-01
1.636475473642349243e-01 -2.580815851688385010e-01 -6.895036101341247559e-01
9.120223112404346466e-03 -6.610863208770751953e-01 -2.011047005653381348e-01
5.512717366218566895e-01 2.127813398838043213e-01 1.648459583520889282e-01
3.714602589607238770e-01 -4.055791199207305908e-01 3.856387138366699219e-01
2.125834077596664429e-01 -5.946224927902221680e-01 -2.466446906328201294e-01
-5.683556199073791504e-01 -1.368615031242370605e-01 1.983173787593841553e-01
-2.038718014955520630e-01 -6.471830606460571289e-01 8.751633763313293457e-02
2.875879406929016113e-01 1.335080415010452271e-01 -6.727339625358581543e-01
1.120805889368057251e-01 -3.982284963130950928e-01 -6.149106621742248535e-01
3.629426062107086182e-01 5.330064892768859863e-01 1.830229759216308594e-01
-2.225356400012969971e-01 1.526887565851211548e-01 7.249174118041992188e-01
4.560259878635406494e-01 -7.466872222721576691e-03 -4.981152117252349854e-01
4.667229950428009033e-01 -3.263944685459136963e-01 -2.773948907852172852e-01
5.791416764259338379e-01 -1.191249303519725800e-02 -1.390506327152252197e-01
2.015285938978195190e-01 6.513667702674865723e-01 -1.054195612668991089e-01
1.565195322036743164e-01 6.721280813217163086e-01 -5.613742768764495850e-02
-4.608343243598937988e-01 2.773631513118743896e-01 3.953164815902709961e-01
2.870675921440124512e-01 -3.845778107643127441e-01 -5.150287747383117676e-01
5.584529638290405273e-01 -1.970776021480560303e-01 -4.329886287450790405e-02
5.364937186241149902e-01 2.159796953201293945e-01 2.329981774091720581e-01
-5.692873001098632812e-01 1.888843625783920288e-01 -1.491210144013166428e-02
1.606645882129669189e-01 -2.789734601974487305e-01 6.931231021881103516e-01
-5.571618080139160156e-01 2.301799058914184570e-01 5.674564838409423828e-02
2.523374855518341064e-01 -5.680555105209350586e-01 2.723809182643890381e-01
-3.584021925926208496e-01 5.466539263725280762e-01 -3.944326564669609070e-02
-2.950306832790374756e-01 5.942215323448181152e-01 -7.224658131599426270e-02
5.463001132011413574e-01 2.590084373950958252e-01 -1.046378090977668762e-01
3.932737410068511963e-01 -3.450398743152618408e-01 4.240681231021881104e-01
-5.361762046813964844e-01 2.638787329196929932e-01 -1.279677599668502808e-01
-2.761117517948150635e-01 2.249342948198318481e-01 -6.417151689529418945e-01
4.271655678749084473e-01 -4.416252970695495605e-01 1.522939950227737427e-01
-3.386458754539489746e-01 3.137219250202178955e-01 5.531840324401855469e-01
-2.884419858455657959e-01 -1.008600667119026184e-01 6.971865892410278320e-01
2.389444261789321899e-01 6.406624317169189453e-01 3.576548770070075989e-02
2.308333665132522583e-01 3.129675984382629395e-01 -6.364822983741760254e-01
1.869027167558670044e-01 4.327495396137237549e-02 7.545291185379028320e-01
3.767755255103111267e-02 -6.488115787506103516e-01 -2.393247038125991821e-01
2.206089794635772705e-01 -4.833304882049560547e-01 4.739451110363006592e-01
-2.568285465240478516e-01 -3.858138024806976318e-01 5.772041082382202148e-01
-6.535322219133377075e-02 -1.417589336633682251e-01 7.796326279640197754e-01
-9.301672875881195068e-02 -2.834392488002777100e-01 7.216098308563232422e-01
3.183632194995880127e-01 5.927664637565612793e-01 1.648158952593803406e-02
3.701459765434265137e-01 5.254272222518920898e-01 -1.844336837530136108e-01
8.623811602592468262e-02 3.400339484214782715e-01 -6.783948540687561035e-01
2.436258941888809204e-01 -5.156503915786743164e-01 -3.871744573116302490e-01
4.914756119251251221e-02 -6.409102082252502441e-01 2.803860306739807129e-01
3.728778362274169922e-01 -3.400292992591857910e-01 -4.545604288578033447e-01
-7.073339819908142090e-02 -6.777954697608947754e-01 -9.138637781143188477e-02
-3.257395327091217041e-01 4.434087574481964111e-01 -4.116941988468170166e-01
-3.465160727500915527e-01 -3.818147182464599609e-01 -4.632882475852966309e-01
-3.173945844173431396e-01 4.216706752777099609e-01 -4.509186148643493652e-01
-5.416095852851867676e-01 -2.854933738708496094e-01 -6.418399512767791748e-02
3.825078904628753662e-02 2.653813064098358154e-01 -7.257614135742187500e-01
3.965150713920593262e-01 -1.801168024539947510e-01 -5.375438332557678223e-01
-3.392488658428192139e-01 -4.614963233470916748e-01 -3.718503713607788086e-01
2.074250876903533936e-01 -5.836987495422363281e-01 3.000690639019012451e-01
2.454418390989303589e-01 -5.167140811681747437e-02 -7.110043168067932129e-01
-1.494273692369461060e-01 5.193735361099243164e-01 -4.778564870357513428e-01
3.852038383483886719e-01 5.356850624084472656e-01 -1.559935789555311203e-02
-4.375428855419158936e-01 4.358465671539306641e-01 1.926560997962951660e-01
-4.560336768627166748e-01 1.714963465929031372e-01 -4.529183804988861084e-01
2.578980326652526855e-01 6.309105157852172852e-01 -2.719562873244285583e-02
1.966447532176971436e-01 6.502277851104736328e-01 -1.274260133504867554e-01
3.679632842540740967e-01 4.157765209674835205e-01 -4.097479581832885742e-01
5.475959777832031250e-01 2.614074647426605225e-01 -8.277149498462677002e-02
5.667063593864440918e-01 2.304232306778430939e-02 -2.150759696960449219e-01
2.857174277305603027e-01 -1.293410509824752808e-01 6.768835783004760742e-01
-2.307434976100921631e-01 5.851484537124633789e-01 -2.794741690158843994e-01
-5.705895423889160156e-01 -2.354270592331886292e-02 -2.063678056001663208e-01
-1.169664040207862854e-01 1.135868206620216370e-02 7.869557738304138184e-01
-2.470582723617553711e-01 1.154007464647293091e-01 7.202403545379638672e-01
-2.263434231281280518e-01 -5.509248971939086914e-01 3.883798420429229736e-01
4.191657602787017822e-01 -5.890443176031112671e-02 -5.467617511749267578e-01
3.409699201583862305e-01 -1.374917849898338318e-02 6.471788883209228516e-01
5.051565170288085938e-01 1.613147929310798645e-02 4.068592786788940430e-01
-2.520276308059692383e-01 -6.283636093139648438e-01 2.334516681730747223e-02
-5.214933753013610840e-01 -1.284906566143035889e-01 -3.395599126815795898e-01
1.175516285002231598e-02 -3.766189217567443848e-01 -6.510950922966003418e-01
3.523496389389038086e-01 2.953422665596008301e-01 -5.432466268539428711e-01
3.079575002193450928e-01 5.211167931556701660e-01 -3.364638984203338623e-01
-5.463936328887939453e-01 6.023486703634262085e-02 -2.873836159706115723e-01
4.405509233474731445e-01 -1.077223792672157288e-01 5.073082447052001953e-01
-1.505523771047592163e-01 -6.630709171295166016e-01 -8.330564945936203003e-02
-2.745055854320526123e-01 -4.574404060840606689e-01 -4.584586918354034424e-01
-9.597227722406387329e-02 -6.666834950447082520e-01 1.672426760196685791e-01
-1.002048179507255554e-01 -4.249025136232376099e-02 -7.702446579933166504e-01
-5.892431735992431641e-01 -7.483739405870437622e-02 -5.860830843448638916e-02
4.612709879875183105e-01 -2.007284611463546753e-01 4.261750876903533936e-01
-4.745451509952545166e-01 1.169852167367935181e-01 -4.424218535423278809e-01
-1.121130809187889099e-01 3.589250743389129639e-01 6.706656813621520996e-01
-4.535111784934997559e-01 1.259608715772628784e-01 5.045350193977355957e-01
4.479352533817291260e-01 -4.157734513282775879e-01 1.406348347663879395e-01
-4.848521351814270020e-01 3.568851053714752197e-01 -1.789172142744064331e-01
-3.791008293628692627e-01 -5.303943753242492676e-01 1.188226714730262756e-01
-3.227731585502624512e-01 -5.242098569869995117e-01 3.106238543987274170e-01
-2.492883652448654175e-01 4.437429606914520264e-01 5.182409286499023438e-01
-2.029961198568344116e-01 -6.506894826889038086e-01 3.041479736566543579e-03
-1.144448220729827881e-01 5.592131614685058594e-01 -4.366819262504577637e-01
3.141541481018066406e-01 -1.339880563318729401e-02 -6.648870706558227539e-01
1.345027238130569458e-01 -5.770373344421386719e-01 3.880909979343414307e-01
-7.616977393627166748e-02 -6.618567705154418945e-01 2.056402862071990967e-01
-4.877520203590393066e-01 -8.997718244791030884e-02 -4.286985993385314941e-01
1.700067818164825439e-01 8.991090208292007446e-02 -7.468600273132324219e-01
-5.705156922340393066e-01 -1.671202778816223145e-01 1.482423394918441772e-01
-3.865304887294769287e-01 3.221971094608306885e-01 4.848861098289489746e-01
-2.258303314447402954e-01 6.393867135047912598e-01 1.062734145671129227e-02
-2.253432124853134155e-01 6.161462664604187012e-01 2.058201432228088379e-01
-3.079122006893157959e-01 -2.035794593393802643e-02 6.910842061042785645e-01
1.225781254470348358e-02 -5.078918337821960449e-01 5.405420660972595215e-01
-5.846394300460815430e-01 8.976380527019500732e-02 -7.291558384895324707e-02
5.275981966406106949e-04 -5.690429210662841797e-01 4.520090222358703613e-01
5.479102730751037598e-01 -1.739140003919601440e-01 -1.876669377088546753e-01
-7.951802015304565430e-02 -4.216730296611785889e-01 6.276284456253051758e-01
3.926605284214019775e-01 -1.957956999540328979e-01 -5.348400473594665527e-01
4.118791222572326660e-02 5.739836692810058594e-01 4.522195160388946533e-01
2.711257934570312500e-01 3.347688913345336914e-01 5.991180539131164551e-01
-9.254935383796691895e-02 2.642841935157775879e-01 -7.150478959083557129e-01
-4.428120255470275879e-01 -2.729851007461547852e-01 4.480282664299011230e-01
3.225279748439788818e-01 1.529151499271392822e-01 6.446012854576110840e-01
-3.833678960800170898e-01 1.076433584094047546e-01 -5.798360109329223633e-01
-1.427087485790252686e-01 6.696897745132446289e-01 -6.643053889274597168e-02
-5.305011868476867676e-01 -1.816854476928710938e-01 -2.821175456047058105e-01
5.564922690391540527e-01 5.586963891983032227e-02 2.545650899410247803e-01
3.483841419219970703e-01 5.114644169807434082e-01 -2.824463546276092529e-01
5.603941679000854492e-01 1.746111661195755005e-01 1.631272882223129272e-01
2.090748250484466553e-01 -5.328887701034545898e-01 -3.933706879615783691e-01
-2.055182009935379028e-01 -5.077714323997497559e-01 4.774407744407653809e-01
1.396220028400421143e-01 6.212900876998901367e-01 3.153890669345855713e-01
-5.749523639678955078e-01 -6.498532742261886597e-02 2.085482925176620483e-01
-5.928323864936828613e-01 2.378311939537525177e-03 -4.252878949046134949e-02
-7.369621098041534424e-02 2.905527949333190918e-01 -7.062325477600097656e-01
-4.422499835491180420e-01 4.221649169921875000e-01 -1.886592358350753784e-01
-5.869085192680358887e-01 -1.144158095121383667e-01 5.855232477188110352e-02
-1.796240918338298798e-02 -6.361469030380249023e-01 -2.868376672267913818e-01
-3.502232432365417480e-01 -5.549759864807128906e-01 1.263549029827117920e-01
-4.400891363620758057e-01 -4.084211289882659912e-01 -2.529614567756652832e-01
2.558963894844055176e-01 4.457047283649444580e-01 5.117571353912353516e-01
-2.002957314252853394e-01 -6.429065465927124023e-01 1.364069879055023193e-01
-4.082049727439880371e-01 -6.677184253931045532e-02 -5.587506890296936035e-01
-4.837789237499237061e-01 -3.992590904235839844e-01 -8.860692381858825684e-02
-5.293491482734680176e-01 -2.049058228731155396e-01 2.991625368595123291e-01
-5.088251829147338867e-01 3.494836986064910889e-01 -1.853180304169654846e-02
-5.537708997726440430e-01 1.972421556711196899e-01 1.818437874317169189e-01
-1.946153342723846436e-01 -3.453612625598907471e-01 -6.244171857833862305e-01
2.188228368759155273e-01 -6.224527359008789062e-01 1.257939487695693970e-01
-3.097106218338012695e-01 5.853747725486755371e-01 -5.466005206108093262e-02
2.518792450428009033e-01 6.208321452140808105e-01 1.517561674118041992e-01
-5.441360473632812500e-01 1.593775898218154907e-01 2.708747088909149170e-01
-5.062935948371887207e-01 8.062232285737991333e-02 -3.888589441776275635e-01
-4.555912613868713379e-01 -4.497876763343811035e-01 -2.855790033936500549e-02
1.090046465396881104e-01 -4.088734090328216553e-01 6.225461959838867188e-01
-4.557043612003326416e-01 -4.962262511253356934e-02 5.223035216331481934e-01
7.232814095914363861e-03 6.124109029769897461e-01 3.830028772354125977e-01
-4.108056128025054932e-01 4.721636176109313965e-01 1.844952255487442017e-01
-2.684980928897857666e-01 5.910499095916748047e-01 -1.885814964771270752e-01
-9.404037147760391235e-02 6.850773096084594727e-01 2.681747451424598694e-02
4.616274237632751465e-01 1.568939685821533203e-01 4.641841053962707520e-01
2.475519776344299316e-01 5.242528915405273438e-01 4.131976664066314697e-01
3.003139495849609375e-01 5.738808512687683105e-01 -2.179778516292572021e-01
3.769204914569854736e-01 5.258381962776184082e-01 -1.568611711263656616e-01
3.359340429306030273e-01 5.375080704689025879e-01 -2.445345371961593628e-01
4.095167815685272217e-01 2.017261236906051636e-01 -5.249449610710144043e-01
1.579595059156417847e-01 -5.584288239479064941e-01 -3.909581899642944336e-01
2.179908156394958496e-01 -2.292721420526504517e-01 -6.762751936912536621e-01
4.127418696880340576e-01 -9.587856382131576538e-02 5.519111156463623047e-01
-7.471425831317901611e-02 -6.325510740280151367e-01 3.081709146499633789e-01
3.191373646259307861e-01 3.015445545315742493e-02 -6.611881256103515625e-01
-1.913398951292037964e-01 3.401388823986053467e-01 6.512942910194396973e-01
5.598217248916625977e-01 1.906707510352134705e-02 2.449834793806076050e-01
-1.396922171115875244e-01 -6.708474755287170410e-01 -1.272205542773008347e-02
3.929760456085205078e-01 3.345569968223571777e-01 4.614534974098205566e-01
9.798101335763931274e-02 -1.967498660087585449e-01 -7.376332879066467285e-01
2.810213565826416016e-01 4.617708027362823486e-01 4.678295850753784180e-01
-2.493818849325180054e-01 -6.021576523780822754e-01 -1.972967088222503662e-01
-2.539898455142974854e-01 4.818971455097198486e-01 -4.458368420600891113e-01
-4.990319013595581055e-01 -3.465695381164550781e-01 -1.713729947805404663e-01
6.766927987337112427e-02 3.728799521923065186e-01 -6.594915986061096191e-01
-1.634187251329421997e-01 -9.692128747701644897e-02 -7.436202764511108398e-01
5.504101514816284180e-01 -2.268453985452651978e-01 -9.943771176040172577e-03
2.300967574119567871e-01 -1.703140884637832642e-02 -7.229471802711486816e-01
-3.107446730136871338e-01 -1.161989420652389526e-01 6.769209504127502441e-01
2.769858837127685547e-01 -5.850422978401184082e-01 -1.347812861204147339e-01
-3.732625246047973633e-01 3.224276006221771240e-01 -4.791653454303741455e-01
1.623717844486236572e-01 -4.121328294277191162e-01 -5.811621546745300293e-01
-2.681316435337066650e-01 -3.126002848148345947e-01 6.251881122589111328e-01
-1.287424713373184204e-01 6.760677695274353027e-01 -3.095721080899238586e-02
-2.261482477188110352e-01 -2.527674734592437744e-01 6.867197155952453613e-01
3.317540287971496582e-01 -4.859089255332946777e-01 3.217002451419830322e-01
5.062515847384929657e-04 -6.479457616806030273e-01 -2.504917085170745850e-01
3.220620751380920410e-01 -5.123117566108703613e-01 -2.713766098022460938e-01
5.631749629974365234e-01 -1.439700424671173096e-01 1.370836198329925537e-01
1.498572379350662231e-01 -6.317610144615173340e-01 -2.099465280771255493e-01
-2.588087022304534912e-01 3.313529789447784424e-01 -5.933728218078613281e-01
4.505649805068969727e-01 -1.864437609910964966e-01 4.554684162139892578e-01
-4.505758732557296753e-02 -1.964304149150848389e-01 7.656731009483337402e-01
3.055460751056671143e-01 9.903133660554885864e-02 -6.656442284584045410e-01
-5.912202596664428711e-01 4.925711452960968018e-02 -3.377693518996238708e-02
-5.230364799499511719e-01 -3.372475802898406982e-01 6.615519523620605469e-04
3.089455366134643555e-01 4.073957502841949463e-01 -4.963168799877166748e-01
-1.171352118253707886e-01 4.828828871250152588e-01 -5.401400327682495117e-01
4.706169068813323975e-01 3.808656632900238037e-01 -2.262747436761856079e-01
-2.829090356826782227e-01 -3.939339518547058105e-01 -5.207776427268981934e-01
5.237697362899780273e-01 -2.335871607065200806e-01 2.197505384683609009e-01
4.489336013793945312e-01 3.911404609680175781e-01 -2.766618728637695312e-01
-2.916202843189239502e-01 5.989225506782531738e-01 6.495010852813720703e-02
-1.703807264566421509e-01 -4.487717449665069580e-01 -5.465909838676452637e-01
-3.970626294612884521e-01 -1.124562472105026245e-01 5.920307636260986328e-01
9.905407577753067017e-02 6.714380979537963867e-01 1.747572422027587891e-01
-4.730287492275238037e-01 -4.156536757946014404e-01 -9.245138615369796753e-02
-3.581081330776214600e-01 -5.500767827033996582e-01 1.141022965312004089e-01
2.568934261798858643e-01 2.285356223583221436e-01 -6.633945703506469727e-01
2.927540801465511322e-03 5.932869315147399902e-01 4.209921360015869141e-01
8.217769674956798553e-03 -6.590287685394287109e-01 2.303939461708068848e-01
2.191076427698135376e-02 2.751508653163909912e-01 -7.220384478569030762e-01
-1.405846625566482544e-01 -6.659206151962280273e-01 1.069592833518981934e-01
-3.471115529537200928e-01 4.614416658878326416e-01 -3.505182564258575439e-01
2.899100184440612793e-01 -4.883102327585220337e-02 6.889774203300476074e-01
-3.917248249053955078e-01 5.124198794364929199e-01 -5.888867378234863281e-02
3.998370468616485596e-02 3.489614725112915039e-01 6.912835240364074707e-01
4.285130500793457031e-01 -3.592990934848785400e-01 3.347114622592926025e-01
-5.897683501243591309e-01 5.703876912593841553e-02 8.175689727067947388e-02
-3.146960735321044922e-01 -5.724616646766662598e-01 -1.505849212408065796e-01
-8.058435469865798950e-02 3.662516176700592041e-02 7.934523224830627441e-01
1.863668560981750488e-01 -1.428458243608474731e-01 7.360011935234069824e-01
-5.886057615280151367e-01 -1.344298757612705231e-02 -9.560725837945938110e-02
-3.711844980716705322e-02 -7.262155413627624512e-02 -7.773296833038330078e-01
1.624878197908401489e-01 -3.878606259822845459e-01 6.171708106994628906e-01
-4.147399067878723145e-01 4.397608637809753418e-01 -2.389733344316482544e-01
-3.002140522003173828e-01 3.257174491882324219e-01 5.833271741867065430e-01
6.017193943262100220e-02 2.256254553794860840e-01 -7.403165102005004883e-01
4.461506605148315430e-01 -2.566718459129333496e-01 -4.085008800029754639e-01
3.144317865371704102e-01 5.545728802680969238e-01 -2.455769926309585571e-01
3.661329746246337891e-01 -2.151026725769042969e-01 -5.576766729354858398e-01
-2.724834084510803223e-01 -3.750095665454864502e-01 5.742183327674865723e-01
3.875107467174530029e-01 3.738723099231719971e-01 4.304297864437103271e-01
-3.377086222171783447e-01 -3.694640696048736572e-01 -4.865342676639556885e-01
2.090245485305786133e-01 8.568101376295089722e-02 -7.300238609313964844e-01
-6.773117929697036743e-02 4.757308214902877808e-02 7.946183085441589355e-01
-5.820823907852172852e-01 -1.505909860134124756e-01 8.007862605154514313e-03
-5.198960900306701660e-01 1.749285124242305756e-02 3.995813429355621338e-01
-5.777351260185241699e-01 -1.444982290267944336e-01 -8.917647600173950195e-02
-1.413323581218719482e-01 2.038523405790328979e-01 -7.252220511436462402e-01
-1.422782391309738159e-01 3.997131884098052979e-01 -6.113671660423278809e-01
1.502622365951538086e-01 5.808072686195373535e-01 3.973506987094879150e-01
-4.475928544998168945e-01 -2.100055813789367676e-01 4.827701151371002197e-01
-3.018324077129364014e-01 -4.725293815135955811e-01 -4.070880711078643799e-01
1.699333041906356812e-01 -4.581881165504455566e-01 -5.290628671646118164e-01
4.981921613216400146e-01 -1.538075357675552368e-01 3.747106790542602539e-01
-1.174245327711105347e-01 2.799147665500640869e-01 7.174942493438720703e-01
-5.217134952545166016e-01 3.240741491317749023e-01 2.459196746349334717e-02
4.741513431072235107e-01 2.379526793956756592e-01 3.941587805747985840e-01
-3.727245032787322998e-01 -1.641191691160202026e-01 -5.767412781715393066e-01
-1.851285696029663086e-01 -1.464515477418899536e-01 -7.235958576202392578e-01
5.464438199996948242e-01 5.071153491735458374e-02 -2.923453450202941895e-01
-3.979206979274749756e-01 5.095042586326599121e-01 7.939741015434265137e-03
-1.596637070178985596e-01 2.780864834785461426e-01 7.038844227790832520e-01
-2.914711534976959229e-01 5.920733809471130371e-01 -1.082580536603927612e-01
3.848076164722442627e-01 2.327411025762557983e-01 5.450678467750549316e-01
-5.102311968803405762e-01 -1.359532773494720459e-01 3.961468338966369629e-01
2.365539819002151489e-01 -3.325913548469543457e-01 -6.027550697326660156e-01
-4.910318553447723389e-01 8.168736845254898071e-02 -4.212013781070709229e-01
-4.671693742275238037e-01 -3.990925550460815430e-01 2.136195302009582520e-01
-5.274719595909118652e-01 -1.583556532859802246e-01 3.397393226623535156e-01
3.788864612579345703e-01 -2.305982634425163269e-04 -6.026746630668640137e-01
-6.267865747213363647e-02 -1.983370184898376465e-01 7.632846832275390625e-01
5.510292053222656250e-01 2.572175264358520508e-01 5.001568421721458435e-02
-3.823511600494384766e-01 -5.343363881111145020e-01 4.581424966454505920e-02
-2.438060194253921509e-01 4.542698860168457031e-01 -4.912247955799102783e-01
2.242884784936904907e-01 5.839574933052062988e-01 3.227669894695281982e-01
-9.704098105430603027e-02 -2.431158274412155151e-01 7.401679754257202148e-01
1.309795528650283813e-01 1.387574374675750732e-01 7.625705003738403320e-01
-2.220431119203567505e-01 1.265773549675941467e-03 7.470968365669250488e-01
9.254207462072372437e-02 -4.757249355316162109e-02 -7.726293206214904785e-01
1.434932053089141846e-01 5.912975072860717773e-01 3.811443746089935303e-01
1.891756802797317505e-01 -3.083768486976623535e-01 -6.485956311225891113e-01
3.737551271915435791e-01 -9.451244771480560303e-02 -5.954459905624389648e-01
-5.792573466897010803e-02 2.256322205066680908e-01 7.544611692428588867e-01
-1.187855098396539688e-02 1.467026025056838989e-01 7.827880978584289551e-01
-5.366762876510620117e-01 1.642083376646041870e-01 -2.635897994041442871e-01
-4.886623919010162354e-01 -2.373557388782501221e-01 3.834263384342193604e-01
-4.710169136524200439e-01 -4.290494620800018311e-01 4.001276940107345581e-02
-2.922497689723968506e-01 5.914391279220581055e-01 1.286887973546981812e-01
-2.446658313274383545e-01 -4.905736446380615234e-01 4.698806703090667725e-01
9.004622697830200195e-02 6.256753206253051758e-01 3.345600962638854980e-01
3.029355108737945557e-01 5.965858101844787598e-01 1.069004833698272705e-01
5.810940265655517578e-01 1.272758394479751587e-01 2.977817878127098083e-02
-4.841881096363067627e-01 3.945092260837554932e-01 -5.752458237111568451e-03
1.197701022028923035e-01 -5.953244566917419434e-01 3.594822287559509277e-01
4.553612172603607178e-01 -3.214285969734191895e-01 3.218497037887573242e-01
3.502864837646484375e-01 3.455919921398162842e-01 -5.073637366294860840e-01
4.682426340878009796e-03 5.975604057312011719e-01 -4.017584621906280518e-01
-3.032950460910797119e-01 -3.988893032073974609e-01 -4.957201778888702393e-01
4.061664640903472900e-01 -4.769921600818634033e-01 1.054335832595825195e-01
-3.907966911792755127e-01 3.047194182872772217e-01 -4.691931307315826416e-01
-4.545157849788665771e-01 -3.396059572696685791e-01 -3.249478042125701904e-01
3.231858611106872559e-01 4.119119942188262939e-01 4.787646234035491943e-01
2.159243971109390259e-01 6.490879058837890625e-01 7.413983345031738281e-02
5.441467277705669403e-03 9.124834090471267700e-03 8.000513911247253418e-01
-3.303262293338775635e-01 5.348157286643981934e-01 -2.235276848077774048e-01
8.660791069269180298e-02 6.823757886886596680e-01 1.209440603852272034e-01
-1.029580235481262207e-01 -1.988906413316726685e-01 7.563197612762451172e-01
-1.140330433845520020e-01 -3.114531040191650391e-01 -6.795302629470825195e-01
4.621644914150238037e-01 2.833954989910125732e-01 3.823659420013427734e-01
-3.247712850570678711e-01 -5.518096685409545898e-01 2.306155711412429810e-01
4.118558168411254883e-01 2.274339552968740463e-03 -5.629796385765075684e-01
4.712356925010681152e-01 4.296864271163940430e-01 -1.040898542851209641e-02
-2.294136583805084229e-01 4.652154743671417236e-01 -4.907093048095703125e-01
2.420169115066528320e-01 -3.040501475334167480e-01 -6.190036535263061523e-01
-2.373594790697097778e-02 -6.523510813713073730e-01 -2.356977611780166626e-01
1.711359322071075439e-01 -6.018342375755310059e-01 2.967275083065032959e-01
3.883689343929290771e-01 4.242301881313323975e-01 -3.631247282028198242e-01
-5.328795909881591797e-01 7.339375466108322144e-02 3.549258410930633545e-01
4.474152624607086182e-01 -3.244643211364746094e-01 3.378897309303283691e-01
3.990035355091094971e-01 3.403140604496002197e-01 4.465750157833099365e-01
1.736872047185897827e-01 6.364700198173522949e-01 2.361735552549362183e-01
-4.800960421562194824e-01 2.648246884346008301e-01 3.635380268096923828e-01
3.509135246276855469e-01 3.055751621723175049e-01 5.412069559097290039e-01
3.652285039424896240e-01 -2.709193527698516846e-01 5.314484238624572754e-01
5.038896799087524414e-01 3.321549892425537109e-01 1.912842392921447754e-01
-9.952984005212783813e-02 -6.756646037101745605e-01 9.669818729162216187e-02
5.798506140708923340e-01 3.630953282117843628e-02 1.357770115137100220e-01
5.447583794593811035e-01 4.214943945407867432e-02 2.988104224205017090e-01
-2.589992880821228027e-01 -6.233922243118286133e-01 -3.284490108489990234e-02
-4.919624030590057373e-01 3.621568679809570312e-01 1.530707329511642456e-01
8.859726041555404663e-02 -6.332126259803771973e-01 2.820683717727661133e-01
5.774604678153991699e-01 -1.093999892473220825e-01 4.896189644932746887e-02
-2.132755219936370850e-01 2.912173569202423096e-01 -6.507639884948730469e-01
3.426987230777740479e-01 2.931086719036102295e-01 -5.554370880126953125e-01
-2.611196935176849365e-01 -2.639832794666290283e-01 6.591099500656127930e-01
7.073004543781280518e-02 6.194431185722351074e-01 3.569645881652832031e-01
4.223813712596893311e-01 4.832551181316375732e-01 1.241547614336013794e-01
-2.560368180274963379e-01 -1.260660737752914429e-01 7.138999104499816895e-01
-2.846712945029139519e-03 1.994286626577377319e-01 7.673987150192260742e-01
2.221171706914901733e-01 -5.968996882438659668e-01 -2.229586094617843628e-01
5.299984812736511230e-01 -1.544689238071441650e-01 -2.815843820571899414e-01
3.427588343620300293e-01 -2.554772496223449707e-01 -5.606837868690490723e-01
4.380788207054138184e-01 -3.664106130599975586e-01 2.991388142108917236e-01
-2.544956505298614502e-01 -5.352892875671386719e-01 -3.603142201900482178e-01
-2.952106297016143799e-01 5.183957815170288086e-01 3.536105155944824219e-01
-2.145650535821914673e-01 -4.684830904006958008e-01 5.224943161010742188e-01
-5.639923810958862305e-01 1.591059267520904541e-01 -1.458136290311813354e-01
-1.429848223924636841e-01 5.851321220397949219e-01 -3.723160326480865479e-01
-3.926801979541778564e-01 -4.899082183837890625e-01 2.305607348680496216e-01
-4.722388386726379395e-01 -1.910582631826400757e-01 4.492925107479095459e-01
5.395558476448059082e-02 3.413570523262023926e-01 6.944516301155090332e-01
2.647803425788879395e-01 1.452266871929168701e-01 6.932735443115234375e-01
4.089194238185882568e-01 -3.650420904159545898e-01 -3.630530834197998047e-01
-5.850855708122253418e-01 7.620789110660552979e-02 1.175348609685897827e-01
4.329586029052734375e-01 2.785230427980422974e-02 -5.341442823410034180e-01
-2.202230393886566162e-01 -6.362967491149902344e-01 -9.703525155782699585e-02
2.797431349754333496e-01 5.762643814086914062e-01 -2.541592419147491455e-01
2.626726925373077393e-01 -5.910088419914245605e-01 1.646591126918792725e-01
-8.764709532260894775e-02 -6.201356053352355957e-01 -3.130727112293243408e-01
6.351100653409957886e-02 -6.725568324327468872e-02 7.900854349136352539e-01
-5.030823349952697754e-01 -3.131152987480163574e-01 -2.212134450674057007e-01
-4.352505803108215332e-01 3.479371964931488037e-02 5.529567599296569824e-01
-8.098270744085311890e-02 3.807496726512908936e-01 6.626271009445190430e-01
-2.794218659400939941e-01 2.943306565284729004e-01 6.233103275299072266e-01
4.589893221855163574e-01 -3.883078694343566895e-01 -1.723548620939254761e-01
-3.048770502209663391e-02 -5.410090088844299316e-01 4.965033531188964844e-01
-1.313418000936508179e-01 -3.988853096961975098e-01 6.339400410652160645e-01
1.368419826030731201e-01 4.652931094169616699e-01 -5.597226023674011230e-01
3.123330771923065186e-01 1.265229284763336182e-01 -6.546835899353027344e-01
-4.222323894500732422e-01 1.318286266177892685e-02 -5.445005297660827637e-01
-2.968038916587829590e-01 -1.793694347143173218e-01 -6.441326141357421875e-01
-3.044740259647369385e-01 -5.448125600814819336e-01 -2.658578753471374512e-01
4.708461165428161621e-01 -4.499117285013198853e-02 4.709301590919494629e-01
4.909734725952148438e-01 -2.691195607185363770e-01 2.903956770896911621e-01
-2.698416709899902344e-01 -8.992763608694076538e-02 7.120393514633178711e-01
2.527623176574707031e-01 -5.508183240890502930e-01 -3.035842776298522949e-01
-2.309696227312088013e-01 1.660136282444000244e-01 7.162064313888549805e-01
-5.733190774917602539e-01 1.736526042222976685e-01 -1.233296468853950500e-03
5.406333804130554199e-01 -2.280506938695907593e-01 1.378374099731445312e-01
1.186979636549949646e-01 6.555345654487609863e-01 -2.189206182956695557e-01
-3.389090001583099365e-01 5.484656095504760742e-01 1.681630164384841919e-01
3.872166574001312256e-01 5.068231821060180664e-01 -1.892773061990737915e-01
-2.642893046140670776e-02 -2.776809334754943848e-01 -7.134064435958862305e-01
-1.191331190057098866e-03 -6.158697605133056641e-01 -3.386905491352081299e-01
-3.712420463562011719e-01 -3.278169035911560059e-02 -6.057085394859313965e-01
7.516499608755111694e-02 -1.171101704239845276e-01 7.798227071762084961e-01
5.578830242156982422e-01 1.122007519006729126e-01 -2.295297533273696899e-01
-4.233805537223815918e-01 3.924792110919952393e-01 -3.074081242084503174e-01
-2.134842276573181152e-01 5.208061933517456055e-01 4.461209475994110107e-01
-2.301812469959259033e-01 1.529531031847000122e-01 -6.992014646530151367e-01
-3.004652261734008789e-01 5.018393993377685547e-01 3.770945668220520020e-01
-1.792034655809402466e-01 -5.998854637145996094e-01 3.270286619663238525e-01
4.062919914722442627e-01 4.245261549949645996e-01 -3.263672888278961182e-01
-5.817724466323852539e-01 -1.254659891128540039e-01 1.127989962697029114e-01
3.551092445850372314e-01 -3.697538971900939941e-01 4.572295844554901123e-01
2.361763641238212585e-02 6.891478896141052246e-01 1.140737235546112061e-01
3.545768857002258301e-01 -4.559709429740905762e-01 -3.260410428047180176e-01
-1.426135748624801636e-01 -9.744766354560852051e-02 -7.511335015296936035e-01
2.214230448007583618e-01 -4.442847371101379395e-01 5.225369334220886230e-01
-3.498867750167846680e-01 3.735034465789794922e-01 4.855842292308807373e-01
-1.713202595710754395e-01 -5.858358144760131836e-01 -3.410850763320922852e-01
4.954509437084197998e-01 -3.210698664188385010e-01 -1.785409301519393921e-01
-1.129057630896568298e-01 5.677341818809509277e-01 -4.231226146221160889e-01
-6.685092300176620483e-02 2.671057879924774170e-01 7.350540757179260254e-01
3.120031654834747314e-01 3.880847990512847900e-01 5.161811113357543945e-01
-2.489902675151824951e-01 6.270778179168701172e-01 -9.305011481046676636e-04
-5.355005264282226562e-01 -2.760885655879974365e-01 1.746747046709060669e-01
4.969122111797332764e-01 4.465596377849578857e-02 -4.223995804786682129e-01
-4.211435019969940186e-01 -3.961980044841766357e-01 3.526354134082794189e-01
-4.799035489559173584e-01 -5.417153239250183105e-03 4.836614429950714111e-01
2.006035894155502319e-01 4.594706743955612183e-02 7.477031946182250977e-01
3.069553971290588379e-01 -9.115726500749588013e-02 -6.606822013854980469e-01
2.783993184566497803e-01 -1.207135394215583801e-01 -6.760144829750061035e-01
-3.631599247455596924e-01 -5.507843494415283203e-01 6.482535600662231445e-02
-1.613448560237884521e-01 6.391665339469909668e-01 2.248953729867935181e-01
-3.351075649261474609e-01 9.816394001245498657e-02 -6.327304840087890625e-01
-4.670736491680145264e-01 1.425225436687469482e-01 4.747029840946197510e-01
-1.252816617488861084e-01 -5.840521454811096191e-01 3.995846807956695557e-01
5.322831869125366211e-01 1.424857825040817261e-01 -3.066349029541015625e-01
-4.991665482521057129e-01 3.681502640247344971e-01 -1.199875865131616592e-02
-4.799316525459289551e-01 -3.821737468242645264e-01 2.028886079788208008e-01
-1.805634424090385437e-02 -6.830665469169616699e-01 -7.079488039016723633e-02
3.910970687866210938e-01 1.860297322273254395e-01 5.589935183525085449e-01
7.138413935899734497e-02 -6.742622852325439453e-01 1.049484014511108398e-01
-4.412549734115600586e-01 4.090499877929687500e-01 2.508391141891479492e-01
5.551326274871826172e-01 -2.056991010904312134e-01 6.126492470502853394e-02
-2.880454063415527344e-02 -2.506398260593414307e-01 7.451193928718566895e-01
-2.776358425617218018e-01 3.723769783973693848e-01 5.655911564826965332e-01
-5.508566498756408691e-01 1.657658219337463379e-01 -2.067241072654724121e-01
-4.814377427101135254e-02 -5.036116838455200195e-01 -5.243546962738037109e-01
2.769123017787933350e-02 -4.230530560016632080e-01 6.296285390853881836e-01
3.959471285343170166e-01 -3.225023746490478516e-01 4.434041976928710938e-01
-4.412323236465454102e-01 4.538344740867614746e-01 8.485896885395050049e-02
-2.361634224653244019e-01 -1.629100441932678223e-01 7.160971164703369141e-01
2.917875945568084717e-01 -5.570291876792907715e-01 2.226321846246719360e-01
5.872318744659423828e-01 -1.960602216422557831e-02 3.844616562128067017e-02
4.418248832225799561e-01 3.754568099975585938e-01 3.209449350833892822e-01
-5.057885125279426575e-02 -5.379479527473449707e-01 4.991984367370605469e-01
-4.322680234909057617e-01 -4.250893890857696533e-01 -2.415206283330917358e-01
-3.412666022777557373e-01 2.064192891120910645e-01 6.157643198966979980e-01
-3.799024224281311035e-01 2.631902396678924561e-01 5.402756929397583008e-01
-4.043278098106384277e-01 -2.926312685012817383e-01 -4.648633003234863281e-01
-4.322937130928039551e-01 4.519572854042053223e-01 -1.347030848264694214e-01
2.168678492307662964e-01 6.504022479057312012e-01 4.968329146504402161e-02
-5.664136409759521484e-01 -5.765702575445175171e-02 -2.186369150876998901e-01
-2.457054257392883301e-01 -1.836504638195037842e-01 -6.793844699859619141e-01
2.006120532751083374e-01 -6.393579840660095215e-01 2.269040606915950775e-02
2.742711305618286133e-01 6.031827330589294434e-01 -1.710719019174575806e-01
2.955978214740753174e-01 5.930959582328796387e-01 -1.541033983230590820e-01
