-8.933899402618408203e-01 9.549699723720550537e-03 1.237211972475051880e-01
-6.357539296150207520e-01 -5.124723538756370544e-02 1.452178657054901123e-01
-5.099397897720336914e-02 2.572451345622539520e-02 -2.887639999389648438e-01
-6.069616079330444336e-01 -5.827280133962631226e-02 -1.416234076023101807e-01
5.175302624702453613e-01 5.560477077960968018e-02 1.789702773094177246e-01
-6.696923375129699707e-01 -6.196719035506248474e-02 5.579731985926628113e-02
4.050194323062896729e-01 -8.282662183046340942e-02 1.692577823996543884e-02
5.293456912040710449e-01 -4.365363344550132751e-02 -2.080355584621429443e-01
-2.306231707334518433e-01 6.997064501047134399e-02 -1.671852469444274902e-01
-2.536549568176269531e-01 5.334738641977310181e-02 -2.284800261259078979e-01
-9.211512804031372070e-01 -3.090776130557060242e-02 -3.827361762523651123e-02
-9.053876399993896484e-01 -1.557768415659666061e-02 -1.231249198317527771e-01
-7.205550670623779297e-01 3.415031731128692627e-02 -1.829202026128768921e-01
3.365371823310852051e-01 -5.049757286906242371e-02 -2.296999096870422363e-01
6.971348822116851807e-02 -7.605228573083877563e-02 1.640037745237350464e-01
-1.350868493318557739e-02 -8.947823941707611084e-02 1.426480989903211594e-02
2.291091531515121460e-01 -8.667040616273880005e-02 -4.675912111997604370e-02
2.894224785268306732e-02 -8.965416997671127319e-02 -7.817056030035018921e-03
1.813859641551971436e-01 4.729183390736579895e-03 3.085258603096008301e-01
-8.461714982986450195e-01 -4.359956830739974976e-02 3.142977133393287659e-02
-4.938990175724029541e-01 4.470473155379295349e-02 -2.190878093242645264e-01
7.033966779708862305e-01 5.661638826131820679e-02 6.817959994077682495e-02
5.156238675117492676e-01 6.301861256361007690e-02 -1.116785183548927307e-01
-3.671205341815948486e-01 -4.434552416205406189e-02 -2.460888773202896118e-01
5.567302107810974121e-01 -7.367075234651565552e-02 -5.168524384498596191e-02
-3.471535742282867432e-01 7.705231010913848877e-02 1.079040095210075378e-01
3.387908935546875000e-01 4.119130596518516541e-02 -2.350078523159027100e-01
-5.934702157974243164e-01 1.803012564778327942e-02 2.362279891967773438e-01
2.664002478122711182e-01 -8.127587288618087769e-02 -1.045254021883010864e-01
2.256930917501449585e-01 -3.677274286746978760e-02 2.788721621036529541e-01
-4.707829058170318604e-01 7.092680037021636963e-02 -1.126131489872932434e-01
6.490808445960283279e-03 -5.616737902164459229e-02 2.420943230390548706e-01
2.608330845832824707e-01 8.173628896474838257e-02 -4.043414443731307983e-02
7.788276672363281250e-01 -4.767585918307304382e-02 -9.611454606056213379e-02
1.977969557046890259e-01 5.722078680992126465e-02 2.303962707519531250e-01
-2.700170576572418213e-01 -8.531107008457183838e-02 1.941600441932678223e-02
2.166047692298889160e-02 8.482433110475540161e-02 7.722961902618408203e-02
-1.083556041121482849e-01 7.051778584718704224e-02 -1.720695197582244873e-01
-4.880040884017944336e-01 2.730908058583736420e-02 -2.534302175045013428e-01
-5.824590474367141724e-02 -2.788679488003253937e-02 -2.919664084911346436e-01
-8.252243995666503906e-01 -1.423255261033773422e-02 -1.725998967885971069e-01
-1.413660049438476562e-01 -8.767101913690567017e-02 -4.209967702627182007e-02
3.107027411460876465e-01 3.473080322146415710e-02 2.725443243980407715e-01
5.574710369110107422e-01 4.648603871464729309e-02 -1.715156733989715576e-01
-1.460925117135047913e-02 -4.228603467345237732e-02 -2.718545496463775635e-01
-2.455220669507980347e-01 -7.933825254440307617e-02 -1.221329793334007263e-01
3.199714422225952148e-01 -9.039634838700294495e-03 2.980347871780395508e-01
3.557696640491485596e-01 7.962165027856826782e-02 4.035869240760803223e-02
-9.808255359530448914e-03 2.273102849721908569e-02 -2.917003333568572998e-01
-2.323505282402038574e-02 2.251254208385944366e-02 -2.921082079410552979e-01
-2.005057334899902344e-01 8.151509612798690796e-02 1.011184304952621460e-01
-2.360404469072818756e-02 -8.914140611886978149e-02 2.792488038539886475e-02
5.522787570953369141e-01 -7.064246386289596558e-02 1.027991920709609985e-01
-5.446245670318603516e-01 6.860006600618362427e-02 1.000620126724243164e-01
3.902785852551460266e-02 -8.730156719684600830e-02 7.001133263111114502e-02
4.919080436229705811e-02 7.634232938289642334e-02 -1.365473419427871704e-01
1.581051945686340332e-01 2.830052375793457031e-02 2.931217551231384277e-01
5.581693053245544434e-01 5.841175839304924011e-02 -1.206858456134796143e-01
4.415747821331024170e-01 9.120791219174861908e-03 2.827317416667938232e-01
3.697801232337951660e-01 -1.078364159911870956e-02 -2.752791643142700195e-01
-8.041720986366271973e-01 -2.459022589027881622e-02 1.484943628311157227e-01
7.902132868766784668e-01 -3.422370413318276405e-03 -1.684451848268508911e-01
-1.604702472686767578e-01 -3.785683959722518921e-02 -2.763566076755523682e-01
4.984733760356903076e-01 -7.882183045148849487e-02 2.675228053703904152e-03
-2.017551064491271973e-01 -4.235693812370300293e-02 2.630805671215057373e-01
-6.758686304092407227e-01 5.408878624439239502e-02 -1.318351775407791138e-01
4.858582019805908203e-01 6.453169882297515869e-02 1.436501443386077881e-01
4.323954582214355469e-01 5.959182232618331909e-02 1.852653920650482178e-01
-2.156507819890975952e-01 8.453400433063507080e-02 -4.396485537290573120e-02
-6.925650835037231445e-01 3.899194672703742981e-02 -1.809102743864059448e-01
-6.652352213859558105e-01 -3.197822347283363342e-02 1.913571953773498535e-01
-4.153154045343399048e-02 2.382203564047813416e-02 -2.908751964569091797e-01
3.971701264381408691e-01 -8.317733556032180786e-02 1.044719945639371872e-02
6.448081731796264648e-01 -2.242796123027801514e-03 2.454299926757812500e-01
-7.973229289054870605e-01 -4.801458865404129028e-02 5.775122717022895813e-02
-2.862160801887512207e-01 5.447268486022949219e-03 2.946964800357818604e-01
-2.988910675048828125e-01 7.339550554752349854e-02 1.465434879064559937e-01
-1.125708743929862976e-01 -8.543752133846282959e-02 -8.663020282983779907e-02
-3.598138689994812012e-01 2.550905011594295502e-02 2.733901739120483398e-01
-2.477531135082244873e-02 -5.950825661420822144e-02 2.313937097787857056e-01
-6.398306488990783691e-01 4.683614149689674377e-02 -1.755595058202743530e-01
-1.751884520053863525e-01 -8.368933200836181641e-02 -9.591186791658401489e-02
8.304181694984436035e-01 -5.097739771008491516e-02 1.212026923894882202e-03
4.395144060254096985e-02 5.473441630601882935e-02 -2.299522459506988525e-01
-5.187550783157348633e-01 -7.492928951978683472e-02 -3.191971406340599060e-02
6.226671338081359863e-01 6.521914899349212646e-02 1.491394732147455215e-02
-7.637676596641540527e-01 -4.758612066507339478e-02 9.165380150079727173e-02
-1.688623279333114624e-01 5.696490406990051270e-02 -2.230099141597747803e-01
-6.598362326622009277e-01 6.635003536939620972e-02 2.783627063035964966e-02
1.833176016807556152e-01 -7.124794274568557739e-02 1.836391091346740723e-01
-3.713744133710861206e-02 8.682797104120254517e-02 -1.874043233692646027e-02
-6.804549098014831543e-01 -6.364059448242187500e-02 5.662339739501476288e-03
-3.278105333447456360e-02 -8.784604817628860474e-02 5.758129805326461792e-02
-5.236409902572631836e-01 -5.380737781524658203e-02 1.753870993852615356e-01
4.747548699378967285e-01 -5.276834964752197266e-02 2.128441631793975830e-01
-3.476030826568603516e-01 3.308306261897087097e-02 -2.640467584133148193e-01
-5.825079679489135742e-01 -6.875222921371459961e-02 5.702168494462966919e-02
3.668102324008941650e-01 -8.067116141319274902e-02 8.791242539882659912e-02
1.195728331804275513e-01 2.962390519678592682e-02 -2.784580886363983154e-01
-5.171550512313842773e-01 6.396841257810592651e-02 -1.418742239475250244e-01
-5.713853240013122559e-01 4.768491163849830627e-02 -1.931586116552352905e-01
2.395190149545669556e-01 -8.725646883249282837e-02 -2.517263777554035187e-02
-8.462120890617370605e-01 -2.159316465258598328e-02 -1.508928835391998291e-01
-5.126554965972900391e-01 -6.444539874792098999e-02 -1.454554200172424316e-01
5.012777447700500488e-01 -7.820516824722290039e-02 3.625378385186195374e-02
-6.941919326782226562e-01 -4.645701870322227478e-02 1.382569074630737305e-01
-1.920856982469558716e-01 -5.080292373895645142e-02 2.450654059648513794e-01
1.699021309614181519e-01 6.315267831087112427e-02 -1.919676512479782104e-01
-6.241995096206665039e-01 -3.138831630349159241e-02 2.057215422391891479e-01
-1.721538454294204712e-01 1.775749027729034424e-02 -2.945129871368408203e-01
-9.493879228830337524e-02 -4.818633571267127991e-02 2.585918903350830078e-01
2.442678958177566528e-01 8.200638741254806519e-02 6.839143484830856323e-02
3.594490587711334229e-01 6.794955581426620483e-02 1.614657044410705566e-01
6.644449234008789062e-01 -3.766064066439867020e-03 2.401691079139709473e-01
7.254808545112609863e-01 -5.794544890522956848e-02 -7.321515679359436035e-02
-4.471964016556739807e-02 -8.174826204776763916e-02 -1.273922920227050781e-01
-2.361971437931060791e-01 -2.223707549273967743e-02 2.889959514141082764e-01
8.400947451591491699e-01 3.108702972531318665e-02 -8.688983321189880371e-02
3.049802780151367188e-01 7.270730286836624146e-02 -1.197937577962875366e-01
-5.578494071960449219e-01 -6.969591230154037476e-02 6.610427051782608032e-02
-5.257968306541442871e-01 5.804544687271118164e-02 1.670794337987899780e-01
6.664370298385620117e-01 -5.995059758424758911e-02 -1.003465056419372559e-01
3.281975910067558289e-02 5.457731336355209351e-02 -2.308628112077713013e-01
8.141757249832153320e-01 -4.460080340504646301e-02 -8.469153940677642822e-02
3.577170670032501221e-01 -3.261936083436012268e-02 -2.595955729484558105e-01
-1.907019764184951782e-01 7.525058835744857788e-02 -1.410851031541824341e-01
-6.491047143936157227e-01 4.067041352391242981e-02 -1.908828616142272949e-01
8.274616003036499023e-01 4.365423694252967834e-02 4.028534889221191406e-02
-1.794828623533248901e-01 4.040728881955146790e-02 2.708309292793273926e-01
-4.522221386432647705e-01 6.622296571731567383e-02 -1.483060121536254883e-01
-6.577397584915161133e-01 4.267533868551254272e-02 1.760349571704864502e-01
-1.622450053691864014e-01 5.285932496190071106e-02 2.444930374622344971e-01
9.555241465568542480e-01 5.057647824287414551e-03 -4.897033795714378357e-02
7.481491565704345703e-01 3.954134508967399597e-02 -1.152172163128852844e-01
4.101125895977020264e-01 5.271726474165916443e-02 -1.902489662170410156e-01
-2.417263537645339966e-01 6.478657573461532593e-02 1.980305761098861694e-01
-3.032527677714824677e-02 7.325986027717590332e-02 1.735907495021820068e-01
-2.766666710376739502e-01 -5.963290855288505554e-02 -2.163954824209213257e-01
3.509909510612487793e-01 -8.267306536436080933e-02 -6.045673787593841553e-02
-5.941693186759948730e-01 4.268479719758033752e-02 -2.013561129570007324e-01
-9.871243238449096680e-01 6.928589195013046265e-03 -4.118129983544349670e-02
-9.612342715263366699e-01 3.316900460049510002e-03 -8.832588046789169312e-02
-6.131859496235847473e-02 -5.236996337771415710e-02 -2.506079971790313721e-01
3.647366762161254883e-01 -8.347423374652862549e-02 4.521931335330009460e-02
-3.319628164172172546e-02 -7.364724576473236084e-02 -1.771951168775558472e-01
-9.171738028526306152e-01 -3.119682334363460541e-02 2.338422089815139771e-02
7.296632528305053711e-01 -2.334216237068176270e-02 -1.815164834260940552e-01
-5.367757081985473633e-01 -4.252219200134277344e-02 2.060425728559494019e-01
7.646332979202270508e-01 3.065262362360954285e-02 -1.360901743173599243e-01
-4.935126006603240967e-01 -4.346092790365219116e-02 2.145449668169021606e-01
8.138067722320556641e-01 3.691376745700836182e-02 -8.188614994287490845e-02
-6.617395877838134766e-01 -2.622594684362411499e-02 2.030391395092010498e-01
-8.011057972908020020e-01 -3.767013549804687500e-02 1.129621863365173340e-01
-1.075867041945457458e-01 -6.023584678769111633e-02 -2.276607006788253784e-01
2.661947607994079590e-01 -4.163410514593124390e-02 -2.571715116500854492e-01
-7.360517978668212891e-01 -4.903022199869155884e-02 1.030491068959236145e-01
4.186413586139678955e-01 7.641661167144775391e-02 5.721823871135711670e-02
-1.564504653215408325e-01 8.442325890064239502e-02 -5.993332713842391968e-02
-7.355644106864929199e-01 3.415967104956507683e-03 -2.142225652933120728e-01
-2.406103163957595825e-01 -7.675930857658386230e-02 -1.419493257999420166e-01
1.122361049056053162e-03 -8.909358829259872437e-02 -3.577727451920509338e-02
-4.505479335784912109e-02 3.146288916468620300e-02 2.911741435527801514e-01
1.926503479480743408e-01 4.612668603658676147e-02 -2.421909421682357788e-01
3.132199496030807495e-02 8.552177250385284424e-02 6.455828249454498291e-02
-7.444546222686767578e-01 -5.766590684652328491e-02 -3.701515961438417435e-04
2.262062132358551025e-01 1.950581558048725128e-02 -2.820335328578948975e-01
-2.157495357096195221e-02 7.683954387903213501e-02 -1.365391612052917480e-01
2.765477001667022705e-01 -4.217015206813812256e-02 -2.550543546676635742e-01
3.653310537338256836e-01 -3.958955407142639160e-02 -2.479081898927688599e-01
1.562323570251464844e-01 -7.363939285278320312e-02 -1.703202277421951294e-01
4.247962534427642822e-01 -7.801441103219985962e-02 -8.283924311399459839e-02
-3.818520307540893555e-01 -1.332566328346729279e-02 -2.837601304054260254e-01
6.527372598648071289e-01 3.800906985998153687e-02 1.954287588596343994e-01
-3.141479790210723877e-01 -6.918271631002426147e-02 -1.723565012216567993e-01
-3.872592449188232422e-01 8.111263066530227661e-02 2.581723593175411224e-02
-6.403077244758605957e-01 6.515315175056457520e-02 6.997951865196228027e-02
-8.585693836212158203e-01 -1.009211130440235138e-02 -1.597712039947509766e-01
-6.592590808868408203e-01 5.950543656945228577e-02 1.041049435734748840e-01
1.856605857610702515e-01 -6.689053028821945190e-02 2.024296820163726807e-01
-3.720968961715698242e-01 -7.531116902828216553e-02 -1.210042536258697510e-01
4.036902785301208496e-01 4.177184402942657471e-02 2.466191798448562622e-01
3.223927319049835205e-02 8.247557282447814941e-02 -8.770803362131118774e-02
1.587525308132171631e-01 8.003114908933639526e-02 -9.447699040174484253e-02
-6.506237387657165527e-01 -6.577889621257781982e-02 1.884013973176479340e-02
-8.667373657226562500e-02 -6.815133243799209595e-02 -2.002954632043838501e-01
2.158534526824951172e-01 7.837573438882827759e-02 -9.748775511980056763e-02
6.687722634524106979e-03 -8.633532375097274780e-02 8.243639022111892700e-02
5.035179853439331055e-01 -7.850527018308639526e-02 -4.988861270248889923e-03
-1.682698428630828857e-01 6.923353672027587891e-02 -1.756853461265563965e-01
-7.602761983871459961e-01 -5.597855523228645325e-02 -2.108159288763999939e-02
5.855548381805419922e-01 -5.990389734506607056e-02 1.563215404748916626e-01
4.398672878742218018e-01 7.633975148200988770e-02 5.852677393704652786e-03
2.128827422857284546e-01 -8.759035915136337280e-02 3.451938927173614502e-02
-3.945145905017852783e-01 8.092462271451950073e-02 -1.700587756931781769e-02
4.154032766819000244e-01 7.713001221418380737e-02 4.165474697947502136e-02
1.093283295631408691e-01 -8.937173336744308472e-02 2.696956973522901535e-03
-1.178035065531730652e-01 -8.804150670766830444e-02 3.464128077030181885e-02
4.137433469295501709e-01 7.482618838548660278e-02 -5.854951217770576477e-02
1.005889102816581726e-01 -8.860930055379867554e-02 -4.195573180913925171e-02
5.504599809646606445e-01 -2.956639043986797333e-02 -2.275475263595581055e-01
5.080607533454895020e-01 -4.369113594293594360e-02 2.301439791917800903e-01
2.240407615900039673e-01 8.400763571262359619e-02 2.140725776553153992e-02
1.707218885421752930e-01 -5.885243043303489685e-02 -2.261022776365280151e-01
1.835307180881500244e-01 -8.575110137462615967e-02 7.785085588693618774e-02
1.141365021467208862e-01 -2.784589305520057678e-02 2.957488298416137695e-01
4.815995097160339355e-01 -7.940020412206649780e-02 2.765459194779396057e-02
1.131181046366691589e-01 -8.457115292549133301e-02 9.998522698879241943e-02
-6.759237051010131836e-01 -4.176042973995208740e-02 -1.796632707118988037e-01
-7.869334220886230469e-01 3.486264124512672424e-02 1.417180746793746948e-01
-1.803757101297378540e-01 7.669371366500854492e-02 -1.324656456708908081e-01
-2.881002426147460938e-01 8.403912186622619629e-02 -1.655644364655017853e-02
9.284048676490783691e-01 -3.294263407588005066e-02 3.246383368968963623e-02
5.478284358978271484e-01 1.550896186381578445e-02 2.600964605808258057e-01
1.399379372596740723e-01 -8.130805939435958862e-02 -1.248783990740776062e-01
-3.219125047326087952e-02 -2.411404997110366821e-02 -2.956554293632507324e-01
-1.060028448700904846e-01 8.462888747453689575e-02 7.730717211961746216e-02
5.693749189376831055e-01 -7.484573870897293091e-02 1.913146860897541046e-02
5.229736492037773132e-02 6.130773201584815979e-02 2.245164662599563599e-01
4.654478728771209717e-01 -8.038540184497833252e-02 7.103602401912212372e-04
3.207878023386001587e-02 -8.348527550697326660e-02 1.125713735818862915e-01
7.026282548904418945e-01 -2.878701314330101013e-02 2.086041569709777832e-01
-7.969083189964294434e-01 2.808495052158832550e-02 -1.649048924446105957e-01
5.166465416550636292e-04 3.299510106444358826e-02 2.898207008838653564e-01
-4.179565608501434326e-01 8.016337454319000244e-02 -1.150244008749723434e-02
-2.778569459915161133e-01 8.168097585439682007e-02 8.015456795692443848e-02
-3.960258662700653076e-01 -1.385030988603830338e-02 -2.817775011062622070e-01
8.311170935630798340e-01 -5.074486881494522095e-02 2.983244322240352631e-02
7.566393017768859863e-01 -9.773848578333854675e-03 2.097313255071640015e-01
-2.408568561077117920e-01 -8.585340529680252075e-02 -3.767859190702438354e-02
-7.042412757873535156e-01 5.223444104194641113e-02 -1.271931529045104980e-01
8.455444574356079102e-01 -3.356361994519829750e-03 1.733584254980087280e-01
-2.068613618612289429e-01 -4.933740571141242981e-02 -2.515534162521362305e-01
-6.339483708143234253e-02 7.389613986015319824e-02 1.693409532308578491e-01
5.092302560806274414e-01 -5.165114998817443848e-02 -1.926501989364624023e-01
1.953449994325637817e-01 8.452694863080978394e-02 3.089540079236030579e-02
-7.924836874008178711e-01 4.789781197905540466e-02 -9.482415765523910522e-02
-4.927374124526977539e-01 5.583546310663223267e-02 -1.850540786981582642e-01
2.332905977964401245e-01 5.972933955490589142e-03 -2.903892993927001953e-01
-9.219925999641418457e-01 1.383076421916484833e-02 9.822852909564971924e-02
3.002869486808776855e-01 8.183752745389938354e-02 2.551602199673652649e-02
-3.995552957057952881e-01 -6.038368493318557739e-02 1.831778287887573242e-01
-4.593924880027770996e-01 7.369193434715270996e-02 -9.361781179904937744e-02
-8.362540006637573242e-01 -1.524615846574306488e-02 1.475095003843307495e-01
-3.844362497329711914e-01 7.710219919681549072e-02 -8.916603028774261475e-02
4.509667456150054932e-01 -5.194880068302154541e-02 2.198823839426040649e-01
2.777100205421447754e-01 6.237887218594551086e-02 -1.801156997680664062e-01
-7.469698786735534668e-01 -5.269326642155647278e-02 7.055682688951492310e-02
-7.829951047897338867e-01 -7.929734885692596436e-03 -1.957069635391235352e-01
1.985337883234024048e-01 7.927285879850387573e-02 1.158811226487159729e-01
2.113652080297470093e-01 6.652645021677017212e-02 -1.723551601171493530e-01
-1.794264018535614014e-01 -2.886352129280567169e-02 2.865281701087951660e-01
-7.836900353431701660e-01 5.479842796921730042e-02 2.647220529615879059e-02
6.810560226440429688e-01 -5.917042866349220276e-02 -9.640803933143615723e-02
1.404324918985366821e-01 6.817875057458877563e-02 -1.734519749879837036e-01
-9.060320258140563965e-01 3.431506454944610596e-02 4.709783196449279785e-02
-2.813609242439270020e-01 8.405189216136932373e-02 3.192872181534767151e-02
-9.255034327507019043e-01 -2.072885073721408844e-02 7.092940807342529297e-02
2.802410535514354706e-02 7.650066912174224854e-02 -1.368336826562881470e-01
-7.272303849458694458e-02 7.022407650947570801e-02 1.878355741500854492e-01
-5.109564065933227539e-01 5.133070051670074463e-02 1.952736377716064453e-01
8.586761355400085449e-01 2.684644795954227448e-02 -8.807288855314254761e-02
5.322155952453613281e-01 -2.077410370111465454e-02 -2.409509867429733276e-01
3.929176628589630127e-01 7.602742314338684082e-02 -5.518858507275581360e-02
3.163298666477203369e-01 5.189173296093940735e-02 -2.108546346426010132e-01
-7.485165446996688843e-02 6.332212686538696289e-02 -2.036453038454055786e-01
6.064270734786987305e-01 -5.003945529460906982e-02 -1.689998805522918701e-01
5.447655320167541504e-01 -3.094621561467647552e-02 2.466997504234313965e-01
-1.521794199943542480e-01 7.377345114946365356e-02 1.646934151649475098e-01
2.781829535961151123e-01 -6.335025280714035034e-02 2.079676985740661621e-01
2.495213747024536133e-01 -6.999414414167404175e-02 -1.770223826169967651e-01
5.684882998466491699e-01 6.871286779642105103e-02 4.137720912694931030e-02
-3.064389526844024658e-01 7.855900377035140991e-02 1.059430241584777832e-01
5.354446172714233398e-01 -3.254755213856697083e-02 -2.269329279661178589e-01
-5.507176518440246582e-01 -5.366326496005058289e-02 1.674016714096069336e-01
-3.957644104957580566e-01 -7.610625028610229492e-02 9.290360659360885620e-02
-6.586281061172485352e-01 -5.445670709013938904e-02 -1.374699622392654419e-01
7.215671539306640625e-01 -1.371216494590044022e-02 2.195685058832168579e-01
6.157847642898559570e-01 6.467734277248382568e-02 -2.553439140319824219e-02
-6.564284563064575195e-01 3.070947527885437012e-02 2.029187977313995361e-01
1.717346906661987305e-01 -7.866889983415603638e-02 1.432240307331085205e-01
-6.298802047967910767e-02 -7.329087704420089722e-02 1.752756536006927490e-01
3.200281262397766113e-01 -1.825897954404354095e-02 2.930313646793365479e-01
-7.533311843872070312e-01 5.110833421349525452e-02 9.587153792381286621e-02
-8.617633581161499023e-01 -3.026421181857585907e-02 9.710679203271865845e-02
-8.305584788322448730e-01 -4.357899352908134460e-02 5.553308501839637756e-02
-7.200960516929626465e-01 -5.740300565958023071e-02 -7.345635443925857544e-02
-5.869311690330505371e-01 6.194275245070457458e-02 1.258859634399414062e-01
-1.243440154939889908e-02 -7.785692065954208374e-02 -1.545415371656417847e-01
-8.425856232643127441e-01 2.564033120870590210e-02 1.330369263887405396e-01
7.266795635223388672e-02 6.773274391889572144e-02 1.989329457283020020e-01
8.915975689888000488e-01 -4.038452357053756714e-02 4.301528632640838623e-02
-1.623369008302688599e-01 -8.257456123828887939e-02 -1.093854829668998718e-01
-5.371413007378578186e-02 -8.749159425497055054e-02 6.104035675525665283e-02
6.638901829719543457e-01 -6.829258054494857788e-02 -1.327507430687546730e-03
-8.525998592376708984e-01 -4.418529197573661804e-02 -2.062100730836391449e-02
1.861244887113571167e-01 -8.652532845735549927e-02 6.602718681097030640e-02
-2.001459747552871704e-01 -5.890097841620445251e-02 -2.263370007276535034e-01
-9.158913046121597290e-02 8.700569719076156616e-02 -6.318141240626573563e-04
1.238328814506530762e-01 -1.610985957086086273e-02 3.060096800327301025e-01
3.579377532005310059e-01 -8.453455567359924316e-02 -1.109272940084338188e-03
-1.860611438751220703e-01 7.852902263402938843e-02 -1.184772998094558716e-01
5.653156712651252747e-02 8.667878806591033936e-02 -4.379923455417156219e-03
-4.713832866400480270e-03 -7.305729202926158905e-03 -3.042322099208831787e-01
3.669784963130950928e-02 -5.606720224022865295e-02 2.427417635917663574e-01
6.019425988197326660e-01 -5.083383526653051376e-03 2.555427253246307373e-01
4.636450111865997314e-01 -7.623509317636489868e-02 -8.244921267032623291e-02
2.617820799350738525e-01 6.437384337186813354e-02 -1.742577552795410156e-01
-2.530951797962188721e-01 -8.141954243183135986e-02 9.221802651882171631e-02
8.677937090396881104e-02 -8.796256035566329956e-02 -5.763347819447517395e-02
-2.646709978580474854e-01 -2.155650965869426727e-02 2.868098318576812744e-01
-6.522110700607299805e-01 6.240113452076911926e-02 -9.107401221990585327e-02
-2.667640149593353271e-01 5.917105823755264282e-02 -2.088709026575088501e-01
-8.304645419120788574e-01 4.763298854231834412e-02 -5.611155927181243896e-02
-7.136495113372802734e-01 -5.922637134790420532e-02 3.801003098487854004e-02
3.143006265163421631e-01 -5.681204423308372498e-02 2.259534895420074463e-01
6.624798774719238281e-01 4.479618743062019348e-02 1.700734645128250122e-01
5.020215511322021484e-01 7.238411903381347656e-02 -2.217003889381885529e-02
-8.168653845787048340e-01 5.160364881157875061e-02 -5.320219323039054871e-03
5.047447085380554199e-01 7.274225354194641113e-02 -6.197252310812473297e-03
-2.621171772480010986e-01 -6.059878319501876831e-02 -2.148465067148208618e-01
3.511513769626617432e-01 7.414063811302185059e-02 -9.457835555076599121e-02
-8.930183053016662598e-01 -1.204465888440608978e-02 1.173917278647422791e-01
-2.226968854665756226e-01 -8.680179715156555176e-02 -8.527241647243499756e-03
6.081327199935913086e-01 -4.002895951271057129e-02 2.149586379528045654e-01
-1.150662899017333984e-01 5.622182972729206085e-03 3.078646659851074219e-01
1.910776942968368530e-01 -8.293995261192321777e-02 1.077389493584632874e-01
4.854912757873535156e-01 1.521890703588724136e-02 -2.486217468976974487e-01
-5.694575905799865723e-01 6.156128272414207458e-02 -1.370975226163864136e-01
1.673980653285980225e-01 -8.862558007240295410e-02 -1.759080961346626282e-02
-5.199851393699645996e-01 6.785900890827178955e-02 1.170937269926071167e-01
-1.332653909921646118e-01 8.398189395666122437e-02 8.302495628595352173e-02
1.400512009859085083e-01 6.610916554927825928e-02 -1.828340291976928711e-01
3.179200589656829834e-01 -8.346926420927047729e-02 -6.416381895542144775e-02
-7.072087526321411133e-01 3.823172301054000854e-02 -1.776351928710937500e-01
-7.492145299911499023e-01 -5.419452674686908722e-03 -2.091457992792129517e-01
2.820509374141693115e-01 -6.737989932298660278e-02 1.914412677288055420e-01
-5.618548393249511719e-02 -1.876470074057579041e-02 3.034094870090484619e-01
1.299961358308792114e-01 6.111858785152435303e-02 -2.036135345697402954e-01
-1.492574810981750488e-01 1.480729971081018448e-02 -2.975233197212219238e-01
4.404187798500061035e-01 -7.655286043882369995e-02 1.014689207077026367e-01
8.164260536432266235e-02 6.486164033412933350e-02 -1.929563581943511963e-01
-1.057302057743072510e-01 -7.723916321992874146e-02 1.500531286001205444e-01
8.057107925415039062e-01 -3.960806876420974731e-02 -1.114555746316909790e-01
9.066424369812011719e-01 2.591175213456153870e-02 -4.095829278230667114e-02
2.110524326562881470e-01 -2.661894448101520538e-02 2.934178113937377930e-01
4.436293840408325195e-01 7.104447484016418457e-02 1.121341362595558167e-01
-8.482233881950378418e-01 -2.917220070958137512e-02 1.108691468834877014e-01
5.825878977775573730e-01 6.302404403686523438e-02 1.081725955009460449e-01
1.964484155178070068e-01 -5.079725012183189392e-02 2.524579465389251709e-01
7.067710757255554199e-01 3.170130774378776550e-02 -1.599337309598922729e-01
2.080218493938446045e-01 -8.789605647325515747e-02 2.635092101991176605e-02
8.954352736473083496e-01 -3.515385463833808899e-02 8.154734224081039429e-02
-3.248568475246429443e-01 -5.620805919170379639e-02 -2.211403548717498779e-01
-7.605399936437606812e-02 -6.739783287048339844e-02 -2.036686092615127563e-01
-7.504403591156005859e-01 4.536746069788932800e-03 -2.089718431234359741e-01
-3.516576290130615234e-01 -2.135903760790824890e-02 2.764707803726196289e-01
-4.369535148143768311e-01 5.616023018956184387e-02 -1.955514103174209595e-01
8.771428465843200684e-01 -4.383363574743270874e-02 2.239312231540679932e-02
8.240466117858886719e-01 -4.982460290193557739e-02 -3.674372285604476929e-02
-3.243452403694391251e-03 4.479828104376792908e-02 -2.566967308521270752e-01
-2.189681828022003174e-01 3.093327954411506653e-02 2.824686169624328613e-01
-1.480015814304351807e-01 -8.826939761638641357e-02 -5.164641886949539185e-03
4.499139189720153809e-01 -7.951352745294570923e-02 -4.894342273473739624e-02
6.470580697059631348e-01 -5.243019759654998779e-02 -1.457049846649169922e-01
-1.121227070689201355e-01 8.602758496999740601e-02 5.069605633616447449e-02
5.154389739036560059e-01 -4.090523347258567810e-02 -2.171577960252761841e-01
7.129338979721069336e-01 -4.472112283110618591e-02 1.670537590980529785e-01
1.962397694587707520e-01 6.609455496072769165e-02 -1.763913184404373169e-01
1.149622276425361633e-01 -8.036060631275177002e-02 -1.340995430946350098e-01
-9.578894376754760742e-01 2.294043824076652527e-02 -4.396696761250495911e-02
7.330613136291503906e-01 2.625905536115169525e-02 1.932383030652999878e-01
-3.301730155944824219e-01 -8.369894325733184814e-02 3.543231403455138206e-03
-6.507094949483871460e-04 -8.892156183719635010e-02 3.766709566116333008e-02
5.392208099365234375e-01 -4.375758580863475800e-03 2.687104344367980957e-01
-7.248675823211669922e-02 -3.089084289968013763e-02 -2.884604334831237793e-01
4.885932803153991699e-01 5.526011064648628235e-02 -1.605305969715118408e-01
-4.918820858001708984e-01 6.710027903318405151e-02 1.328698843717575073e-01
4.733201265335083008e-01 -6.828836351633071899e-02 1.495478749275207520e-01
-7.190520763397216797e-01 6.088030338287353516e-02 3.743726760149002075e-02
4.847554862499237061e-01 5.047095566987991333e-02 -1.795039325952529907e-01
3.053490817546844482e-01 -3.124783001840114594e-02 -2.682142257690429688e-01
-5.814493298530578613e-01 -6.200470402836799622e-02 1.151831671595573425e-01
-1.859804242849349976e-01 -8.737144619226455688e-02 1.757245883345603943e-02
5.630566477775573730e-01 6.545915454626083374e-02 9.832656383514404297e-02
-7.201101183891296387e-01 4.270190000534057617e-02 1.508271247148513794e-01
6.692881584167480469e-01 -5.783715471625328064e-02 1.310890465974807739e-01
3.181541562080383301e-01 7.963748276233673096e-02 7.138578593730926514e-02
9.601544588804244995e-02 8.196081966161727905e-02 1.058167070150375366e-01
-2.992805838584899902e-01 6.567463278770446777e-02 1.863263100385665894e-01
1.710392683744430542e-01 1.348543632775545120e-02 -2.915745973587036133e-01
9.720742106437683105e-01 -5.071142222732305527e-03 -3.111953102052211761e-02
5.007160902023315430e-01 -7.870139926671981812e-02 1.173932291567325592e-02
8.791397213935852051e-01 -4.095585644245147705e-02 6.341310590505599976e-02
-1.109464690089225769e-01 -7.392922043800354004e-02 1.683699339628219604e-01
-6.982082724571228027e-01 -4.067393392324447632e-02 1.567267030477523804e-01
-9.589733481407165527e-01 2.074458450078964233e-02 3.715715184807777405e-02
7.418257594108581543e-01 -4.310628771781921387e-02 -1.356090754270553589e-01
-1.631181836128234863e-01 -4.907037690281867981e-02 -2.548790574073791504e-01
-4.186308383941650391e-01 2.196045406162738800e-02 2.682156860828399658e-01
4.911113157868385315e-02 -8.789308369159698486e-02 -6.190897524356842041e-02
2.661786042153835297e-02 -8.034469187259674072e-02 1.372096836566925049e-01
2.249069809913635254e-01 7.889714837074279785e-02 -9.036072343587875366e-02
5.226300954818725586e-01 -7.736620306968688965e-02 2.664085291326045990e-02
8.852657675743103027e-01 2.172489464282989502e-02 -8.278656005859375000e-02
-6.936878561973571777e-01 -2.715116553008556366e-02 1.906500011682510376e-01
4.443481266498565674e-01 -8.047838509082794189e-02 4.562738910317420959e-02
-2.391585856676101685e-01 -5.009686946868896484e-02 2.419010698795318604e-01
2.932998239994049072e-01 -5.659549310803413391e-02 2.289469540119171143e-01
2.176964730024337769e-01 -8.795126527547836304e-02 -1.047752983868122101e-02
7.120070606470108032e-02 8.615028858184814453e-02 -2.236910164356231689e-02
-4.585688412189483643e-01 -7.801521569490432739e-02 -3.571274131536483765e-02
2.689717710018157959e-01 -7.943776994943618774e-02 1.250518411397933960e-01
-8.765869140625000000e-01 -1.419429760426282883e-02 1.253830492496490479e-01
1.655657216906547546e-02 6.595522910356521606e-02 2.076675295829772949e-01
6.450062394142150879e-01 3.569612279534339905e-02 2.040102183818817139e-01
-5.569766834378242493e-02 3.781099244952201843e-02 2.814589142799377441e-01
8.955210447311401367e-01 -1.574649102985858917e-02 1.367485970258712769e-01
-4.304354488849639893e-01 -6.887198984622955322e-02 -1.468803435564041138e-01
4.194746613502502441e-01 -6.718409806489944458e-02 -1.573734581470489502e-01
2.845297753810882568e-01 -1.543135475367307663e-02 -2.840897142887115479e-01
3.627538084983825684e-01 4.162946343421936035e-02 -2.301338464021682739e-01
-2.397770583629608154e-01 -7.956773042678833008e-02 1.126332655549049377e-01
2.938944101333618164e-01 7.286432385444641113e-02 1.461970657110214233e-01
3.281541168689727783e-02 -6.936197727918624878e-02 -1.963753104209899902e-01
4.027542844414710999e-02 7.060747593641281128e-02 -1.696945279836654663e-01
4.837621450424194336e-01 -4.206927865743637085e-02 -2.218861728906631470e-01
-5.547957420349121094e-01 -5.996932834386825562e-02 1.382222026586532593e-01
3.054755926132202148e-01 8.119728416204452515e-02 4.645237699151039124e-02
-7.241842746734619141e-01 3.944630175828933716e-02 -1.676522195339202881e-01
-8.107751607894897461e-01 4.961425811052322388e-02 5.263600498437881470e-02
-4.220637381076812744e-01 7.652692496776580811e-02 -8.041813224554061890e-02
-2.655310332775115967e-01 5.424883961677551270e-02 -2.248308211565017700e-01
-2.709637284278869629e-01 -4.025959223508834839e-02 2.598543465137481689e-01
-7.464207410812377930e-01 3.174056112766265869e-02 -1.785400807857513428e-01
8.425734043121337891e-01 3.242855891585350037e-02 -7.897186279296875000e-02
5.878048539161682129e-01 5.633940920233726501e-02 -1.188600510358810425e-01
-8.645512461662292480e-01 -2.170873247087001801e-02 1.195204332470893860e-01
-6.669521331787109375e-01 -6.429179012775421143e-02 -4.183914512395858765e-02
7.245317101478576660e-01 -5.944516882300376892e-02 -6.122995913028717041e-02
3.246137499809265137e-01 3.163373097777366638e-02 2.758981883525848389e-01
5.082042217254638672e-01 6.074069812893867493e-02 1.575335115194320679e-01
-5.639548301696777344e-01 -7.249387353658676147e-02 -9.022000245749950409e-03
-3.585945665836334229e-01 -5.015374720096588135e-02 -2.335121482610702515e-01
4.213341698050498962e-02 5.154519900679588318e-02 -2.389589250087738037e-01
6.291723847389221191e-01 -6.391946971416473389e-02 -9.596855193376541138e-02
7.813367992639541626e-02 3.792647644877433777e-02 2.817708849906921387e-01
3.905286192893981934e-01 4.266285151243209839e-02 -2.228168398141860962e-01
-6.061198562383651733e-02 8.704561740159988403e-02 -6.638911552727222443e-03
5.693004131317138672e-01 6.816735118627548218e-02 -2.261475473642349243e-02
6.676679253578186035e-01 -3.926188498735427856e-02 -1.768422573804855347e-01
-8.143683075904846191e-01 -4.198582097887992859e-02 8.292267471551895142e-02
-2.015364915132522583e-02 -4.881838709115982056e-02 2.602047026157379150e-01
1.888402923941612244e-02 7.230384647846221924e-02 1.786175370216369629e-01
-9.351068735122680664e-01 -2.260036952793598175e-02 -7.355140894651412964e-02
-7.610894739627838135e-02 -6.004687026143074036e-02 -2.292574495077133179e-01
-3.539521992206573486e-02 -7.583920657634735107e-02 -1.657679378986358643e-01
-8.519835472106933594e-01 -3.700415417551994324e-02 -9.739244729280471802e-02
6.629524379968643188e-02 4.993919655680656433e-02 2.574106752872467041e-01
4.490162134170532227e-01 -7.403318583965301514e-02 -1.078440696001052856e-01
-8.221421837806701660e-01 -4.225178062915802002e-02 7.420124113559722900e-02
3.842899203300476074e-01 -4.455837979912757874e-02 -2.355669736862182617e-01
1.121834218502044678e-01 -3.095180913805961609e-02 -2.848689258098602295e-01
-3.521226942539215088e-01 -5.314248427748680115e-02 2.173721045255661011e-01
-3.493862450122833252e-01 -5.105105787515640259e-02 -2.324651032686233521e-01
-6.527651101350784302e-02 8.708929270505905151e-02 1.785727404057979584e-02
4.558935463428497314e-01 -5.356435850262641907e-02 -1.997444629669189453e-01
7.552676200866699219e-01 -5.431028828024864197e-02 -7.527248561382293701e-02
-6.579630970954895020e-01 -1.458108797669410706e-02 -2.318846434354782104e-01
-5.403478145599365234e-01 5.864431709051132202e-02 -1.611829400062561035e-01
-3.604236841201782227e-01 4.622576385736465454e-02 -2.364244014024734497e-01
-5.231003165245056152e-01 -7.492092996835708618e-02 2.699669916182756424e-03
-2.597152888774871826e-01 6.364921480417251587e-02 -1.927983462810516357e-01
-3.522634804248809814e-01 3.903067484498023987e-02 -2.530628740787506104e-01
-1.859693080186843872e-01 7.989443838596343994e-02 -1.072123944759368896e-01
8.290922641754150391e-01 3.949847072362899780e-02 -5.111372470855712891e-02
2.095604538917541504e-01 1.566693931818008423e-02 3.023309409618377686e-01
-8.465382456779479980e-01 -1.683072187006473541e-02 -1.585949659347534180e-01
5.318902730941772461e-01 -7.565907388925552368e-02 5.747998878359794617e-02
-8.623520284891128540e-02 8.664759993553161621e-02 -2.214227989315986633e-02
1.445408314466476440e-01 -8.867926150560379028e-02 -2.767152525484561920e-02
3.031092695891857147e-02 6.086203083395957947e-02 2.264072597026824951e-01
-2.563219070434570312e-01 5.872077494859695435e-02 2.184073328971862793e-01
6.154519915580749512e-01 1.908391900360584259e-02 -2.135353088378906250e-01
-2.542099356651306152e-01 -7.830908149480819702e-02 -1.284000277519226074e-01
-8.539025783538818359e-01 4.366140067577362061e-02 -6.190454959869384766e-02
1.861914545297622681e-01 -8.838925510644912720e-02 1.849311403930187225e-02
5.098460987210273743e-02 -2.931431308388710022e-02 -2.891733348369598389e-01
-4.536102116107940674e-01 -7.434751838445663452e-02 8.259065449237823486e-02
-8.057219982147216797e-01 3.512705862522125244e-02 1.306801438331604004e-01
-8.431173563003540039e-01 3.289537131786346436e-02 1.141409203410148621e-01
-2.379146069288253784e-01 5.739295110106468201e-02 2.247466742992401123e-01
-7.666829228401184082e-01 2.846553549170494080e-02 1.659593731164932251e-01
8.784542083740234375e-01 -4.171111434698104858e-02 -2.910028211772441864e-02
5.575656890869140625e-01 4.952432587742805481e-02 -1.609018296003341675e-01
-8.452398777008056641e-01 3.404302522540092468e-02 -1.218843981623649597e-01
-5.279524326324462891e-01 7.290843874216079712e-02 6.585849821567535400e-02
-6.073592901229858398e-01 -4.875297471880912781e-02 1.658480316400527954e-01
7.222498059272766113e-01 -5.391930788755416870e-02 -1.014577522873878479e-01
-2.513834238052368164e-01 -8.609442412853240967e-02 -9.661076590418815613e-03
-9.082298278808593750e-01 3.696099668741226196e-02 -2.676355466246604919e-02
4.574416577816009521e-01 -8.198898285627365112e-03 2.817285656929016113e-01
7.894430160522460938e-01 4.599379003047943115e-02 -4.418959841132164001e-02
4.383611679077148438e-01 -1.266245637089014053e-02 -2.639479041099548340e-01
-1.275025159120559692e-01 8.503670990467071533e-02 -5.411268025636672974e-02
5.909795165061950684e-01 3.881203383207321167e-02 -1.835556626319885254e-01
-2.864274382591247559e-01 -7.806391268968582153e-02 1.131600439548492432e-01
4.914011657238006592e-01 3.253754228353500366e-02 2.494176775217056274e-01
-1.687481701374053955e-01 6.970957666635513306e-02 1.842269152402877808e-01
3.385990262031555176e-01 -8.019220829010009766e-02 -9.454081952571868896e-02
3.323145210742950439e-01 -8.236730843782424927e-02 -7.306639850139617920e-02
2.834259271621704102e-01 -7.692443579435348511e-02 1.406147330999374390e-01
2.106876373291015625e-01 7.440640777349472046e-02 1.515247523784637451e-01
-5.717311501502990723e-01 -5.738278105854988098e-02 -1.600231826305389404e-01
5.541110038757324219e-01 3.407981991767883301e-02 2.329978197813034058e-01
-6.932436227798461914e-01 5.092678964138031006e-02 1.323302537202835083e-01
-3.292142748832702637e-01 5.201391130685806274e-02 2.289837300777435303e-01
7.878546714782714844e-01 -2.785366773605346680e-02 1.774387061595916748e-01
-9.200031757354736328e-01 2.931457944214344025e-02 -7.285764813423156738e-02
8.831751346588134766e-02 -7.131100632250308990e-03 3.108488023281097412e-01
4.322922229766845703e-01 -6.857632845640182495e-02 1.590331643819808960e-01
-9.925492405891418457e-01 1.956295454874634743e-03 -2.674396708607673645e-02
-5.907166600227355957e-01 -6.939836591482162476e-02 3.867375850677490234e-02
5.929902791976928711e-01 -7.295209169387817383e-02 3.693106025457382202e-02
6.697061061859130859e-01 5.570247024297714233e-02 1.093653738498687744e-01
-8.408645391464233398e-01 -3.838830441236495972e-02 -1.003608033061027527e-01
2.772032655775547028e-02 -8.619334548711776733e-02 8.471370488405227661e-02
1.056089997291564941e-02 2.394182980060577393e-02 3.006685376167297363e-01
-5.625367760658264160e-01 6.441879272460937500e-02 -1.227929070591926575e-01
3.894767463207244873e-01 6.647443026304244995e-02 1.622722297906875610e-01
-9.449347853660583496e-01 -4.832264967262744904e-03 8.296896517276763916e-02
-5.202501267194747925e-02 -6.772235035896301270e-02 2.010288983583450317e-01
-5.725643038749694824e-01 -4.235547780990600586e-02 -2.105799913406372070e-01
-6.273401975631713867e-01 -6.682362407445907593e-02 -5.493624880909919739e-02
-2.493456453084945679e-01 8.224937319755554199e-02 -7.141456753015518188e-02
-6.423719525337219238e-01 6.804074347019195557e-02 -1.750591397285461426e-02
7.854284048080444336e-01 -2.421350590884685516e-02 1.846547722816467285e-01
-1.723690330982208252e-01 7.165391743183135986e-02 1.742852479219436646e-01
8.503525853157043457e-01 -3.802165389060974121e-02 1.126575618982315063e-01
5.856699123978614807e-02 5.125729739665985107e-02 2.542753517627716064e-01
5.877363085746765137e-01 6.655770540237426758e-02 6.167793273925781250e-02
-5.113759636878967285e-01 7.540012896060943604e-02 -3.626967966556549072e-02
-3.947913348674774170e-01 4.609962552785873413e-02 2.337063848972320557e-01
-3.685774654150009155e-02 9.793365374207496643e-03 3.094820082187652588e-01
7.363343238830566406e-01 5.480255186557769775e-02 3.824391588568687439e-02
6.836361289024353027e-01 -2.119253948330879211e-02 -1.999578326940536499e-01
4.905894696712493896e-01 4.365447536110877991e-02 -1.987500190734863281e-01
4.915231466293334961e-02 -7.523631304502487183e-02 -1.685616672039031982e-01
7.490087151527404785e-01 -2.991752512753009796e-02 -1.642111241817474365e-01
8.057591915130615234e-01 1.264256797730922699e-02 1.835365295410156250e-01
-1.711002737283706665e-01 -8.738499879837036133e-02 2.830664440989494324e-02
2.606954574584960938e-01 -8.022789657115936279e-02 1.202581375837326050e-01
-7.496534585952758789e-01 5.729451403021812439e-02 4.636594280600547791e-02
7.584873437881469727e-01 -4.030502960085868835e-02 -1.359071135520935059e-01
-3.810038864612579346e-01 4.143081977963447571e-02 -2.447367608547210693e-01
-5.130349397659301758e-01 7.357191294431686401e-02 -6.657321751117706299e-02
-1.423737108707427979e-01 2.307324856519699097e-02 2.966552972793579102e-01
-2.791875004768371582e-01 8.233541250228881836e-02 7.045156508684158325e-02
-4.331923425197601318e-01 7.815039157867431641e-02 5.606383457779884338e-02
-2.652619481086730957e-01 -2.901349775493144989e-02 -2.819840013980865479e-01
-2.586312964558601379e-02 -7.531032711267471313e-02 -1.687775850296020508e-01
-4.291414916515350342e-01 -6.923609226942062378e-02 1.320025920867919922e-01
5.876598358154296875e-01 4.922586679458618164e-02 1.817760765552520752e-01
-7.483206987380981445e-01 2.624106034636497498e-02 -1.886604875326156616e-01
2.993027567863464355e-01 8.179535716772079468e-02 -4.632366821169853210e-03
-5.669813156127929688e-01 -5.200434476137161255e-02 1.682215332984924316e-01
-9.426556229591369629e-01 -2.395095862448215485e-02 2.990981377661228180e-02
2.053311914205551147e-01 -8.128496259450912476e-02 -1.164258047938346863e-01
-4.566287994384765625e-01 7.727975398302078247e-02 5.352548137307167053e-02
-2.738817334175109863e-01 4.382959008216857910e-02 2.555725872516632080e-01
1.135348826646804810e-01 8.250191807746887207e-02 -7.691059261560440063e-02
9.187690168619155884e-02 -8.486378937959671021e-02 -9.809283912181854248e-02
5.830597281455993652e-01 6.807170063257217407e-02 1.013302989304065704e-02
-7.995910644531250000e-01 -4.100498929619789124e-02 9.973136335611343384e-02
-6.858250498771667480e-01 -3.731203824281692505e-02 1.714140772819519043e-01
-4.651237726211547852e-01 -7.142620533704757690e-02 -1.175264865159988403e-01
6.730901598930358887e-01 1.462479960173368454e-02 2.300474792718887329e-01
-1.657574623823165894e-01 -4.541800916194915771e-02 2.599023580551147461e-01
-2.664304673671722412e-01 8.467160165309906006e-02 1.734752021729946136e-02
4.967676103115081787e-01 2.493584901094436646e-02 2.599667310714721680e-01
9.007012248039245605e-01 2.452579140663146973e-02 9.290076047182083130e-02
9.748346209526062012e-01 5.471639335155487061e-03 4.521731659770011902e-02
-2.766215801239013672e-01 -4.370289668440818787e-02 -2.579006254673004150e-01
-8.628938198089599609e-01 -4.186766594648361206e-02 -4.034656286239624023e-02
4.249047115445137024e-02 -6.758318841457366943e-02 2.040777206420898438e-01
3.407554924488067627e-01 -8.374734222888946533e-02 5.545693635940551758e-02
-4.086010158061981201e-01 -7.052675634622573853e-02 -1.432832777500152588e-01
7.472988218069076538e-02 -8.954409509897232056e-02 -8.753802627325057983e-03
-7.841079831123352051e-01 3.132473304867744446e-02 -1.634850502014160156e-01
4.407497942447662354e-01 -4.472427442669868469e-02 2.401499301195144653e-01
-4.754002392292022705e-01 -4.769309237599372864e-02 -2.196247726678848267e-01
-1.461112052202224731e-01 8.193597942590713501e-02 -9.213441610336303711e-02
-2.682129442691802979e-01 -7.724804431200027466e-02 1.239962354302406311e-01
3.575302362442016602e-01 -5.747859179973602295e-02 2.182913571596145630e-01
2.774019539356231689e-01 -7.752673327922821045e-02 -1.311354935169219971e-01
-8.797234892845153809e-01 4.255315661430358887e-02 -8.419540710747241974e-03
-1.315270960330963135e-01 6.873879581689834595e-02 1.916164308786392212e-01
1.286779940128326416e-01 -7.479039579629898071e-02 1.691287904977798462e-01
1.736167073249816895e-01 -8.203990012407302856e-02 -1.150015294551849365e-01
6.331960558891296387e-01 5.630064755678176880e-02 1.281626671552658081e-01
3.832370936870574951e-01 -8.362675458192825317e-02 1.603271067142486572e-02
-5.899834632873535156e-01 -5.924992263317108154e-02 -1.437467634677886963e-01
4.787321090698242188e-01 -7.296539843082427979e-02 -1.041800230741500854e-01
-1.850389689207077026e-01 8.959476836025714874e-03 -2.995588183403015137e-01
5.808220505714416504e-01 -4.897580295801162720e-02 -1.804175823926925659e-01
6.323612928390502930e-01 -6.055315956473350525e-02 -1.151518449187278748e-01
-6.291460394859313965e-01 -5.063652247190475464e-02 -1.671516895294189453e-01
7.025255560874938965e-01 -2.393309026956558228e-02 2.157259881496429443e-01
-2.027378976345062256e-01 7.508816570043563843e-02 -1.409845501184463501e-01
8.516688644886016846e-02 4.280365630984306335e-02 -2.576561570167541504e-01
-1.894501969218254089e-03 -7.106342166662216187e-02 -1.894876956939697266e-01
-2.791461050510406494e-01 4.638284444808959961e-02 -2.445650845766067505e-01
2.236329950392246246e-03 8.611694723367691040e-02 -3.694513812661170959e-02
8.879550695419311523e-01 3.326509147882461548e-02 4.776052385568618774e-02
-3.719502091407775879e-01 -8.199824392795562744e-02 -2.770446799695491791e-02
-3.299763202667236328e-01 7.980420440435409546e-02 -7.813453674316406250e-02
-7.906915545463562012e-01 2.637126483023166656e-02 -1.711874008178710938e-01
4.848104119300842285e-01 6.969819962978363037e-02 -7.443222403526306152e-02
1.777531951665878296e-01 -4.667133837938308716e-02 -2.557768523693084717e-01
-2.230566591024398804e-01 5.888606607913970947e-02 2.215285450220108032e-01
1.618318408727645874e-01 -7.176434993743896484e-02 -1.788814514875411987e-01
-7.675964832305908203e-01 -4.624262452125549316e-02 -1.166073903441429138e-01
-1.450064629316329956e-01 -4.318409040570259094e-02 2.660823762416839600e-01
-6.308854818344116211e-01 5.298029631376266479e-02 -1.557455956935882568e-01
2.519805431365966797e-01 -8.213893324136734009e-02 -9.994053095579147339e-02
5.174537897109985352e-01 6.949865072965621948e-02 8.576288819313049316e-02
-7.551447153091430664e-01 5.786888673901557922e-02 2.693882770836353302e-02
1.439383998513221741e-02 8.441892266273498535e-02 -6.567192822694778442e-02
