-2.426555454730987549e-01 -2.246681004762649536e-01 -6.439489126205444336e-02
3.859851360321044922e-01 2.777084112167358398e-01 -3.821491077542304993e-02
-6.145765185356140137e-01 -1.277614235877990723e-01 -4.096708074212074280e-02
6.881167888641357422e-01 -1.001706793904304504e-01 -4.891721159219741821e-02
5.426262617111206055e-01 -2.326831966638565063e-01 3.014075197279453278e-02
-6.364828944206237793e-01 -1.190048977732658386e-01 4.790461435914039612e-02
4.630402922630310059e-01 -9.387357160449028015e-03 7.090292125940322876e-02
1.309624463319778442e-01 -6.457187980413436890e-02 8.898465335369110107e-02
3.404312729835510254e-01 -2.034219205379486084e-01 6.371380388736724854e-02
-4.748693853616714478e-02 1.411357820034027100e-01 -8.741042762994766235e-02
-6.258257627487182617e-01 -1.231789123266935349e-02 -5.142493173480033875e-02
1.563177406787872314e-01 -4.083925392478704453e-03 8.927415311336517334e-02
-6.917737722396850586e-01 -1.073664948344230652e-01 3.659379109740257263e-02
4.532133787870407104e-02 2.126251906156539917e-01 7.095290720462799072e-02
2.744662761688232422e-02 -3.194941878318786621e-01 -4.230178892612457275e-02
-4.935078024864196777e-01 2.588074207305908203e-01 2.623467519879341125e-02
1.333785206079483032e-01 -1.271423399448394775e-01 8.472155034542083740e-02
-1.993849575519561768e-01 -9.055431932210922241e-02 8.818829804658889771e-02
-9.386527538299560547e-02 -6.108446419239044189e-02 -9.230922162532806396e-02
-3.260264545679092407e-02 -3.052952587604522705e-01 4.856911674141883850e-02
-3.368659615516662598e-01 7.303554564714431763e-02 -8.112186193466186523e-02
-4.659259915351867676e-01 -1.496648937463760376e-01 6.674687564373016357e-02
-6.249698996543884277e-01 1.651610732078552246e-01 3.945114463567733765e-02
-1.729056388139724731e-01 -2.868781983852386475e-01 5.232131853699684143e-02
-2.014392316341400146e-01 3.391784429550170898e-01 -2.317779464647173882e-03
-4.553920626640319824e-01 -2.471698373556137085e-01 -3.319909423589706421e-02
4.043169319629669189e-01 7.690909504890441895e-02 -8.375765383243560791e-02
2.213327884674072266e-01 3.327736556529998779e-01 -1.109440065920352936e-02
-3.315822407603263855e-02 -3.521268069744110107e-01 1.366596482694149017e-02
-6.813498139381408691e-01 1.015529185533523560e-01 4.185052588582038879e-02
1.101467832922935486e-01 -1.207237392663955688e-01 -8.998282998800277710e-02
3.252673149108886719e-01 1.070669889450073242e-01 7.528163492679595947e-02
3.234865665435791016e-01 1.899219304323196411e-01 6.265493482351303101e-02
-1.717511713504791260e-01 -6.133431568741798401e-03 9.152253717184066772e-02
4.910376667976379395e-01 -2.569758147001266479e-02 6.813220679759979248e-02
6.776669025421142578e-01 8.661222457885742188e-02 -5.046006664633750916e-02
-3.194206655025482178e-01 2.630063295364379883e-01 -4.913613572716712952e-02
-5.518791079521179199e-01 -1.853490173816680908e-01 -3.858916461467742920e-02
6.582605838775634766e-02 3.146795332431793213e-01 3.579606860876083374e-02
1.513806879520416260e-01 -1.531750261783599854e-01 8.138892799615859985e-02
2.874553501605987549e-01 -3.086341619491577148e-01 3.305234014987945557e-02
-1.943954974412918091e-01 -6.281684618443250656e-04 9.103915095329284668e-02
5.816593170166015625e-01 -1.493952125310897827e-01 -5.917673557996749878e-02
-5.085998177528381348e-01 1.432608366012573242e-01 -5.792095884680747986e-02
-2.201938629150390625e-01 2.590232193470001221e-01 5.663660913705825806e-02
2.411802262067794800e-01 -2.963338494300842285e-01 -4.829943180084228516e-02
6.365499496459960938e-01 -1.137969940900802612e-01 4.285009950399398804e-02
-9.550057351589202881e-02 3.889440745115280151e-02 -9.343609958887100220e-02
-1.056297216564416885e-02 2.375970035791397095e-01 6.592709571123123169e-02
-4.599736630916595459e-01 7.109967619180679321e-02 -7.105093449354171753e-02
-1.862950623035430908e-01 -1.425971975550055504e-03 9.121910482645034790e-02
3.544732034206390381e-01 -2.307311743497848511e-01 -6.385359913110733032e-02
1.352173388004302979e-01 9.338269010186195374e-04 -9.561615437269210815e-02
-2.079680860042572021e-01 -4.486880451440811157e-02 9.018186479806900024e-02
-2.600244879722595215e-01 -2.921678423881530762e-01 -3.982787951827049255e-02
-2.320640981197357178e-01 -2.947057783603668213e-01 -4.137481376528739929e-02
-1.649310588836669922e-01 -3.279345333576202393e-01 3.076372481882572174e-02
6.721656322479248047e-01 1.734959334135055542e-01 2.627136884257197380e-03
5.186436176300048828e-01 2.090204060077667236e-01 3.408499062061309814e-02
2.949341759085655212e-02 -5.448964983224868774e-02 9.137706458568572998e-02
-2.066241055727005005e-01 1.161066144704818726e-01 8.462384343147277832e-02
-1.646625250577926636e-01 2.484925985336303711e-01 -6.438072025775909424e-02
7.819650769233703613e-01 3.747447580099105835e-02 -2.097117900848388672e-02
-3.694590553641319275e-02 9.845677763223648071e-02 -9.160789102315902710e-02
2.099436074495315552e-01 1.105199083685874939e-01 8.126622438430786133e-02
6.867323815822601318e-02 1.005793288350105286e-01 8.669491112232208252e-02
6.234562993049621582e-01 -2.034728080034255981e-01 -3.532394394278526306e-02
-6.043087840080261230e-01 -2.095632255077362061e-01 2.147752791643142700e-02
7.016415596008300781e-01 -1.393682062625885010e-01 -3.669065237045288086e-02
6.176007390022277832e-01 1.689948514103889465e-02 -6.659247726202011108e-02
4.433932900428771973e-01 -5.380506813526153564e-02 7.200076431035995483e-02
5.797571539878845215e-01 -9.874361753463745117e-02 5.385015159845352173e-02
-1.030272468924522400e-01 -2.381251007318496704e-02 9.234391897916793823e-02
3.743102252483367920e-01 -1.942565441131591797e-01 -7.101930677890777588e-02
4.969958364963531494e-01 -1.047531068325042725e-01 6.356646865606307983e-02
6.232449412345886230e-01 2.092916071414947510e-01 -1.064052619040012360e-02
-4.162631034851074219e-01 4.918477684259414673e-02 -7.617100328207015991e-02
-3.769773244857788086e-01 3.079074025154113770e-01 7.614504545927047729e-03
4.688172042369842529e-01 1.841736137866973877e-01 4.932884126901626587e-02
-5.062480568885803223e-01 -2.476375848054885864e-01 2.939121052622795105e-02
4.716843664646148682e-01 -1.492086797952651978e-01 6.105456873774528503e-02
2.339353561401367188e-01 -1.733356565237045288e-01 -8.125026524066925049e-02
-3.568354547023773193e-01 -6.775013357400894165e-02 8.333224058151245117e-02
-3.342921435832977295e-01 -2.941454052925109863e-01 3.470164164900779724e-02
1.630310863256454468e-01 -2.513711452484130859e-01 6.301952898502349854e-02
-5.970703959465026855e-01 1.854021102190017700e-01 3.896568343043327332e-02
-9.271803498268127441e-02 -2.589231729507446289e-01 6.398133933544158936e-02
3.213087618350982666e-01 1.976625472307205200e-01 6.114804372191429138e-02
-3.520584404468536377e-01 -1.014457046985626221e-01 8.122055977582931519e-02
-5.013205409049987793e-01 -2.666138410568237305e-01 2.869242103770375252e-03
-2.250194698572158813e-01 -2.728881835937500000e-01 5.485944822430610657e-02
4.191634654998779297e-01 1.902203559875488281e-01 5.374608561396598816e-02
6.033537983894348145e-01 2.032389640808105469e-01 -3.149960190057754517e-02
-5.970227345824241638e-02 -3.484483361244201660e-01 1.795221120119094849e-02
-3.995752632617950439e-01 -3.003110289573669434e-01 7.550883106887340546e-03
-5.187672972679138184e-01 2.041621059179306030e-01 4.709995165467262268e-02
5.236959457397460938e-01 1.710217595100402832e-01 4.491936415433883667e-02
4.473254084587097168e-01 1.503414288163185120e-02 7.195014506578445435e-02
-2.109133303165435791e-01 2.671270072460174561e-01 -5.626192688941955566e-02
-6.403433084487915039e-01 -1.263676434755325317e-01 4.552925005555152893e-02
-1.310640126466751099e-01 -3.417814970016479492e-01 -1.788405887782573700e-02
4.255438745021820068e-01 8.989612013101577759e-02 -8.128871023654937744e-02
1.869698613882064819e-01 -1.355880796909332275e-01 8.210901170969009399e-02
6.580369919538497925e-02 -2.094625979661941528e-01 -7.736387848854064941e-02
9.833621978759765625e-02 1.099250391125679016e-01 8.516266196966171265e-02
5.552427172660827637e-01 -1.478939950466156006e-01 5.091011151671409607e-02
-2.001572400331497192e-01 -1.411338895559310913e-01 8.358068764209747314e-02
-5.658594369888305664e-01 -5.278855562210083008e-02 -5.874440073966979980e-02
3.404048681259155273e-01 2.106353044509887695e-01 5.647154897451400757e-02
-2.073201239109039307e-01 2.541922628879547119e-01 -6.058561056852340698e-02
-3.518637418746948242e-01 -1.103080883622169495e-01 8.042305707931518555e-02
3.086458146572113037e-01 -1.154428347945213318e-01 7.809703052043914795e-02
-1.816729307174682617e-01 -2.561462223529815674e-01 -5.960284546017646790e-02
-1.566025018692016602e-01 3.699515480548143387e-03 9.173474460840225220e-02
-3.732897043228149414e-01 1.049106493592262268e-01 7.881335169076919556e-02
6.994242668151855469e-01 1.125949099659919739e-01 2.193361520767211914e-02
3.567964956164360046e-02 3.245484232902526855e-01 -3.772961720824241638e-02
5.948259830474853516e-01 -1.908497810363769531e-01 3.442925214767456055e-02
-3.826528489589691162e-01 9.190806746482849121e-02 -7.648175954818725586e-02
2.538169324398040771e-01 3.033106923103332520e-01 -3.952734917402267456e-02
5.312383770942687988e-01 -1.693205237388610840e-01 5.042925104498863220e-02
2.115415334701538086e-01 1.102557852864265442e-01 -8.947254717350006104e-02
-5.920153260231018066e-01 -4.844699054956436157e-02 6.348145753145217896e-02
5.669385194778442383e-01 1.269320696592330933e-01 4.775213822722434998e-02
3.586210012435913086e-01 1.459338068962097168e-01 -7.920356839895248413e-02
1.044046357274055481e-01 -5.452571809291839600e-02 -9.465155005455017090e-02
6.149346232414245605e-01 -2.269517183303833008e-01 1.121679134666919708e-02
-3.788964748382568359e-01 -1.548605859279632568e-01 7.325124740600585938e-02
5.297236889600753784e-02 -5.265106260776519775e-02 9.111128747463226318e-02
-7.341656088829040527e-01 -6.399047374725341797e-02 3.122247569262981415e-02
-4.481066167354583740e-01 -2.156975418329238892e-01 -4.650287330150604248e-02
5.054581761360168457e-01 -7.331915199756622314e-02 -7.689622044563293457e-02
9.334725886583328247e-02 -2.524907290935516357e-01 6.495548784732818604e-02
7.802788615226745605e-01 -6.207391619682312012e-02 5.355725064873695374e-03
4.797503948211669922e-01 2.272039353847503662e-01 -4.840932413935661316e-02
9.135949611663818359e-02 -3.189854025840759277e-01 4.075563326478004456e-02
6.314181536436080933e-02 3.290780782699584961e-01 2.627380378544330597e-02
3.882937729358673096e-01 1.031973883509635925e-01 7.105766236782073975e-02
-7.732404023408889771e-02 -1.266269981861114502e-01 8.714911341667175293e-02
-3.299821317195892334e-01 -9.760355949401855469e-02 -7.883406430482864380e-02
6.830344796180725098e-01 -1.753741502761840820e-02 4.070249199867248535e-02
-4.740985929965972900e-01 -1.727352887392044067e-01 6.158800050616264343e-02
4.021954536437988281e-01 3.030852787196636200e-02 7.524888962507247925e-02
-5.159618705511093140e-02 6.005112081766128540e-02 -9.363333135843276978e-02
-2.478017508983612061e-01 -3.289593160152435303e-01 -1.352189946919679642e-02
2.765021622180938721e-01 3.118400275707244873e-01 1.876601204276084900e-02
3.068137466907501221e-01 -2.238046675920486450e-01 -6.850583106279373169e-02
-3.670407235622406006e-01 2.498744726181030273e-01 -4.885344207286834717e-02
-4.852997362613677979e-01 -2.683202177286148071e-02 7.592846453189849854e-02
-4.368622899055480957e-01 2.816223539412021637e-02 7.958557456731796265e-02
-3.904028236865997314e-02 -3.257859647274017334e-01 3.804014623165130615e-02
-5.387859940528869629e-01 1.413163244724273682e-01 -5.412715300917625427e-02
7.382804900407791138e-02 -2.536023557186126709e-01 6.509783864021301270e-02
-2.180858403444290161e-01 2.697488665580749512e-02 -8.944458514451980591e-02
2.531315386295318604e-01 -2.176423370838165283e-01 6.660312414169311523e-02
5.374865531921386719e-01 -2.432855516672134399e-01 2.627900801599025726e-02
-6.706716418266296387e-01 -2.575337141752243042e-02 -4.234744980931282043e-02
1.551828831434249878e-01 5.414990335702896118e-02 -9.428479522466659546e-02
-5.599722266197204590e-01 1.704117655754089355e-01 -4.488977417349815369e-02
-6.518907546997070312e-01 8.388903737068176270e-02 5.090510845184326172e-02
-4.334345459938049316e-01 -3.473451361060142517e-02 7.985011488199234009e-02
-5.364424586296081543e-01 8.778210729360580444e-02 -6.117219850420951843e-02
8.950859308242797852e-02 -3.183163702487945557e-01 -4.286621883511543274e-02
-1.746451482176780701e-02 1.250145770609378815e-02 9.233817458152770996e-02
2.406921088695526123e-01 -7.065059244632720947e-02 8.468101173639297485e-02
-7.138888537883758545e-02 2.385424822568893433e-01 6.581979244947433472e-02
5.742883086204528809e-01 -1.418041884899139404e-01 4.909178614616394043e-02
4.343413412570953369e-01 1.319558322429656982e-01 -7.590357214212417603e-02
3.059569895267486572e-01 -1.667478382587432861e-01 -7.960288226604461670e-02
1.101992875337600708e-01 -3.388019502162933350e-01 2.703623846173286438e-02
-2.754872664809226990e-02 -3.558261990547180176e-01 5.196121055632829666e-04
-3.274846374988555908e-01 -1.811996698379516602e-01 -6.759537011384963989e-02
-4.238551110029220581e-02 -3.903248161077499390e-02 -9.432362020015716553e-02
-5.586068630218505859e-01 -1.657448559999465942e-01 5.174552649259567261e-02
-5.170031189918518066e-01 -2.512837052345275879e-01 2.271828800439834595e-02
-5.152592658996582031e-01 -2.364571439102292061e-03 7.347314059734344482e-02
7.256889939308166504e-01 -5.853801500052213669e-03 3.058655373752117157e-02
4.321990907192230225e-01 1.522805690765380859e-01 -7.298098504543304443e-02
1.304849982261657715e-01 8.904805034399032593e-02 8.612959831953048706e-02
-4.630461633205413818e-01 -1.409144401550292969e-01 6.841102242469787598e-02
4.159517884254455566e-01 -1.022386029362678528e-01 -8.146076649427413940e-02
2.028044313192367554e-01 2.754967659711837769e-02 8.700762689113616943e-02
-2.719650268554687500e-01 -2.363668978214263916e-01 6.344594061374664307e-02
3.990033268928527832e-01 -5.019880086183547974e-02 7.580476999282836914e-02
-3.323100507259368896e-01 -2.271749973297119141e-01 6.184954568743705750e-02
2.232907414436340332e-01 6.633771955966949463e-02 -9.234140813350677490e-02
2.324831783771514893e-01 2.741957604885101318e-01 4.518473893404006958e-02
-6.023210659623146057e-02 1.954937279224395752e-01 -7.934411615133285522e-02
2.207116484642028809e-01 -2.914552986621856689e-01 -5.147429183125495911e-02
-5.030533075332641602e-01 -1.258217990398406982e-01 -5.913728103041648865e-02
-6.987364590167999268e-02 2.166791558265686035e-01 -7.507705688476562500e-02
-5.003807544708251953e-01 2.466464340686798096e-01 -2.881234511733055115e-02
5.238666534423828125e-01 2.360871136188507080e-01 -3.514993935823440552e-02
2.866291701793670654e-01 -1.421577632427215576e-01 7.668506354093551636e-02
3.828960284590721130e-02 2.195756882429122925e-01 6.956822425127029419e-02
4.960209429264068604e-01 1.140069589018821716e-02 -7.989805191755294800e-02
1.241298764944076538e-01 -1.250574439764022827e-01 8.517289906740188599e-02
-3.473239541053771973e-01 1.853706985712051392e-01 6.868017464876174927e-02
-2.392462491989135742e-01 2.400866299867630005e-01 -6.268249452114105225e-02
7.391996979713439941e-01 -7.569827884435653687e-02 -3.907429054379463196e-02
-4.614369273185729980e-01 -1.953420788049697876e-01 -5.049873515963554382e-02
2.092877030372619629e-01 3.458005934953689575e-02 8.650307357311248779e-02
-2.028270810842514038e-01 2.469551265239715576e-01 -6.292220205068588257e-02
1.088495180010795593e-01 2.568219900131225586e-01 5.799503624439239502e-02
-2.282322049140930176e-01 1.423855572938919067e-01 -8.135899901390075684e-02
-4.397413134574890137e-01 -1.685417741537094116e-01 6.595451384782791138e-02
-4.486662447452545166e-01 1.991388052701950073e-01 5.736881494522094727e-02
-2.382252365350723267e-01 -4.667977988719940186e-02 8.927699923515319824e-02
1.026046574115753174e-01 -1.405866742134094238e-01 8.416964113712310791e-02
-4.888141453266143799e-01 6.421787291765213013e-02 7.371257245540618896e-02
5.735253691673278809e-01 7.378198951482772827e-02 -6.883253157138824463e-02
-6.363311409950256348e-01 -7.173448055982589722e-02 -4.553293436765670776e-02
7.774350792169570923e-02 -7.599119842052459717e-02 -9.362067282199859619e-02
6.974722743034362793e-01 -3.783997148275375366e-02 3.721058368682861328e-02
-2.170414030551910400e-01 2.055705487728118896e-01 -7.196833938360214233e-02
7.458000630140304565e-02 -3.106527328491210938e-01 -4.685056582093238831e-02
6.195588707923889160e-01 9.487182646989822388e-02 -6.001796573400497437e-02
2.010723054409027100e-01 -1.720366179943084717e-01 -8.232096582651138306e-02
5.883489251136779785e-01 -1.806154102087020874e-01 -5.099678039550781250e-02
6.179202198982238770e-01 -1.459495872259140015e-01 -5.421544983983039856e-02
6.085554361343383789e-01 -1.404230594635009766e-01 -5.683607235550880432e-02
-6.270797252655029297e-01 7.024912536144256592e-02 5.670128390192985535e-02
-2.763682231307029724e-02 -2.951883375644683838e-01 5.276785790920257568e-02
3.756578266620635986e-01 2.292481362819671631e-01 4.773743078112602234e-02
-5.475094914436340332e-01 -1.668162941932678223e-01 5.325345322489738464e-02
-2.058446556329727173e-01 -3.249812424182891846e-01 2.913573943078517914e-02
1.909529417753219604e-01 -2.132418006658554077e-01 -7.520645111799240112e-02
4.835247993469238281e-01 -2.392574250698089600e-01 -4.830950498580932617e-02
6.358891129493713379e-01 1.877340376377105713e-01 1.200373936444520950e-02
3.654322624206542969e-01 -1.207501739263534546e-01 7.383384555578231812e-02
-3.204746842384338379e-01 -3.186206519603729248e-01 1.195570640265941620e-02
-2.727193832397460938e-01 3.095824122428894043e-01 -3.076824732124805450e-02
-3.323660790920257568e-01 3.132713139057159424e-01 1.581164821982383728e-02
-5.187897086143493652e-01 -2.538972496986389160e-01 -1.004960481077432632e-02
-1.973442733287811279e-02 -1.524509787559509277e-01 -8.578686416149139404e-02
-4.809250831604003906e-01 2.591236829757690430e-01 -2.603731863200664520e-02
3.203179538249969482e-01 2.567984759807586670e-01 -5.579573661088943481e-02
2.403448820114135742e-01 2.271950989961624146e-01 5.977255478501319885e-02
5.993058085441589355e-01 -3.953724354505538940e-02 -6.871385127305984497e-02
6.407501101493835449e-01 1.987435817718505859e-01 -1.173892803490161896e-02
5.692088603973388672e-01 -1.331541985273361206e-01 -6.365991383790969849e-02
-6.513671875000000000e-01 1.912381350994110107e-01 1.696736365556716919e-02
-7.683991640806198120e-02 2.664042450487613678e-02 -9.414189308881759644e-02
5.175698995590209961e-01 2.270352095365524292e-01 -4.161987453699111938e-02
4.634227156639099121e-01 1.548661738634109497e-01 -6.974507868289947510e-02
-7.217397093772888184e-01 -1.588005200028419495e-02 -2.989576011896133423e-02
6.967821717262268066e-01 -1.008048281073570251e-01 3.165359795093536377e-02
7.175107598304748535e-01 -1.584530472755432129e-01 5.695745348930358887e-03
-3.413096368312835693e-01 -2.935577630996704102e-01 -2.793029695749282837e-02
2.971213757991790771e-01 3.061152994632720947e-03 -9.179254621267318726e-02
-5.085496976971626282e-02 2.830328345298767090e-01 5.209054052829742432e-02
-2.027995437383651733e-01 1.677027046680450439e-01 7.807028293609619141e-02
3.128362894058227539e-01 -2.493892312049865723e-01 5.474075302481651306e-02
-3.671470656991004944e-02 8.586411923170089722e-02 -9.249054640531539917e-02
3.852258920669555664e-01 -2.527675032615661621e-01 4.685413837432861328e-02
-3.976612389087677002e-01 -2.855564281344413757e-02 -7.795280963182449341e-02
-3.873785138130187988e-01 2.944360114634037018e-02 8.280831575393676758e-02
2.643593549728393555e-01 -2.101534456014633179e-01 6.749073415994644165e-02
-6.097120046615600586e-01 -6.772983074188232422e-02 5.956877395510673523e-02
1.722836643457412720e-01 1.637112349271774292e-01 7.606906443834304810e-02
-1.031214743852615356e-01 -6.992958486080169678e-02 -9.158755838871002197e-02
6.429898738861083984e-02 1.787108480930328369e-01 7.697845250368118286e-02
3.299492895603179932e-01 1.766553968191146851e-01 -7.593116909265518188e-02
-7.749304771423339844e-01 1.167025603353977203e-02 1.636265218257904053e-02
9.710345417261123657e-02 -2.177499383687973022e-01 7.277734577655792236e-02
-3.813799917697906494e-01 1.129982471466064453e-01 7.747583091259002686e-02
-4.650161415338516235e-02 1.384222805500030518e-01 8.400314301252365112e-02
-5.221332311630249023e-01 -2.574942819774150848e-02 7.251036167144775391e-02
2.862860262393951416e-01 -1.856490597128868103e-02 -9.207265824079513550e-02
4.571648240089416504e-01 1.844567805528640747e-01 5.072715878486633301e-02
-5.149582624435424805e-01 -4.357489198446273804e-02 -6.582529097795486450e-02
2.506678998470306396e-01 -1.151291579008102417e-01 -8.800925314426422119e-02
1.697857826948165894e-01 2.706313133239746094e-01 5.067172273993492126e-02
5.782088264822959900e-02 2.980213463306427002e-01 -5.177542567253112793e-02
3.589249849319458008e-01 -1.021587401628494263e-01 7.592507451772689819e-02
-4.382144287228584290e-02 -1.147947907447814941e-01 8.831118047237396240e-02
6.022484302520751953e-01 1.230362579226493835e-01 4.259935393929481506e-02
-1.336811631917953491e-01 2.022759318351745605e-01 7.340487837791442871e-02
-4.953102394938468933e-02 -1.286684125661849976e-01 8.705257624387741089e-02
7.202686369419097900e-02 1.837839782238006592e-01 7.594340294599533081e-02
-8.557803928852081299e-02 2.522448301315307617e-01 6.201611831784248352e-02
-2.274936735630035400e-01 -2.460097372531890869e-01 6.320853531360626221e-02
4.542915821075439453e-01 9.617903828620910645e-02 6.591829657554626465e-02
-1.250538975000381470e-01 -1.660384386777877808e-01 -8.130989223718643188e-02
5.210047364234924316e-01 1.656511984765529633e-02 -7.757163792848587036e-02
-2.572380900382995605e-01 -2.735520601272583008e-01 5.255610123276710510e-02
-3.070499598979949951e-01 3.103321790695190430e-01 2.428152970969676971e-02
1.820086389780044556e-01 2.633496224880218506e-01 5.253034457564353943e-02
2.251521199941635132e-01 3.313965201377868652e-01 3.230884904041886330e-03
2.902817353606224060e-02 -2.303845584392547607e-01 -7.278071343898773193e-02
3.644702732563018799e-01 8.495480567216873169e-02 7.467512041330337524e-02
-7.135370373725891113e-02 3.077048063278198242e-01 4.125112667679786682e-02
-1.915747374296188354e-01 -2.721916139125823975e-01 5.684087797999382019e-02
6.075304746627807617e-01 -1.940896660089492798e-01 -4.311690479516983032e-02
-2.273936271667480469e-01 -4.801668971776962280e-02 8.955660462379455566e-02
1.971478909254074097e-01 1.629007905721664429e-01 -8.364262431859970093e-02
1.286920309066772461e-01 1.435669213533401489e-01 -8.753567934036254883e-02
5.983405709266662598e-01 1.464243233203887939e-01 3.819999098777770996e-02
3.848626613616943359e-01 2.412644922733306885e-01 -5.535759031772613525e-02
-5.393601208925247192e-02 2.070148438215255737e-01 -7.733500003814697266e-02
3.708168119192123413e-02 1.711715906858444214e-01 -8.432462811470031738e-02
5.724023282527923584e-02 3.251524269580841064e-01 -3.698000311851501465e-02
-5.538984015583992004e-02 2.935574650764465332e-01 4.789089411497116089e-02
-2.063242718577384949e-02 3.299626111984252930e-01 2.768734842538833618e-02
1.953097619116306305e-02 1.971358358860015869e-01 7.448337972164154053e-02
-7.069998383522033691e-01 -2.630308270454406738e-02 4.376541823148727417e-02
1.982929706573486328e-01 2.739378213882446289e-01 -5.736438557505607605e-02
7.093382477760314941e-01 -7.133543491363525391e-02 -4.786553978919982910e-02
-4.923636317253112793e-01 -1.702279299497604370e-01 -5.235758051276206970e-02
-5.833040475845336914e-01 2.023161947727203369e-01 3.545176237821578979e-02
5.008120834827423096e-02 -1.062266379594802856e-01 -9.138143807649612427e-02
3.128270506858825684e-01 6.340312957763671875e-02 -8.944196999073028564e-02
-1.755476742982864380e-01 -1.266651898622512817e-01 8.575478196144104004e-02
4.121335148811340332e-01 9.493676573038101196e-02 6.993324309587478638e-02
-5.949439406394958496e-01 -1.455302685499191284e-01 -4.097906872630119324e-02
3.894650340080261230e-01 -1.099635288119316101e-01 -8.237972855567932129e-02
-3.052658736705780029e-01 3.124669492244720459e-01 -2.324057370424270630e-02
-5.440966412425041199e-02 -2.873009443283081055e-01 5.549365654587745667e-02
4.248552620410919189e-01 8.090997487306594849e-02 7.016055285930633545e-02
-2.129699736833572388e-01 2.795396149158477783e-01 4.959018900990486145e-02
5.522736907005310059e-01 9.758071601390838623e-02 -6.886468827724456787e-02
-5.413175225257873535e-01 -2.203167080879211426e-01 3.616367280483245850e-02
-5.532268062233924866e-02 1.028583124279975891e-01 -9.095844626426696777e-02
-4.219132959842681885e-01 1.345450282096862793e-01 7.203035056591033936e-02
-4.420799389481544495e-02 2.727222144603729248e-01 5.577938631176948547e-02
2.852486073970794678e-01 6.616795808076858521e-02 8.121088147163391113e-02
5.763624235987663269e-02 -3.181154131889343262e-01 -4.316702485084533691e-02
-4.328246414661407471e-01 -1.399725973606109619e-01 7.126765698194503784e-02
2.255799621343612671e-01 2.053028047084808350e-01 -7.532910257577896118e-02
-2.542916238307952881e-01 2.557298243045806885e-01 5.607848986983299255e-02
2.716366648674011230e-01 -1.251662150025367737e-03 -9.270088374614715576e-02
-3.122788071632385254e-01 -2.669557034969329834e-01 -4.542020708322525024e-02
4.605264365673065186e-01 1.312504708766937256e-01 -7.381004840135574341e-02
-6.863316297531127930e-01 1.500248461961746216e-01 2.612590789794921875e-02
7.115152478218078613e-02 1.445512101054191589e-02 9.121282398700714111e-02
4.268657565116882324e-01 -1.274245828390121460e-01 6.818044185638427734e-02
2.369426637887954712e-01 5.947232246398925781e-02 -9.231932461261749268e-02
2.523548901081085205e-04 2.115053534507751465e-01 -7.718120515346527100e-02
-3.859843313694000244e-01 -7.679130136966705322e-02 8.107142150402069092e-02
-7.325794696807861328e-01 1.001093313097953796e-01 2.477627061307430267e-02
2.599023878574371338e-01 2.219200134277343750e-02 -9.286960214376449585e-02
-6.050378084182739258e-01 -1.107962131500244141e-01 5.513215810060501099e-02
4.909124374389648438e-01 -2.694061696529388428e-01 2.237441018223762512e-02
1.216532364487648010e-01 -1.600089818239212036e-01 -8.530265092849731445e-02
-2.405500262975692749e-01 3.304651975631713867e-01 1.254911534488201141e-02
2.076489925384521484e-01 -3.409601449966430664e-01 -1.974143460392951965e-02
-3.397778868675231934e-01 2.050638794898986816e-01 -6.389968097209930420e-02
8.692173659801483154e-02 -4.502647370100021362e-02 -9.509080648422241211e-02
2.884202823042869568e-02 -8.291447907686233521e-02 9.011217951774597168e-02
1.431926339864730835e-01 5.397140234708786011e-02 8.803466707468032837e-02
-5.102801322937011719e-01 -3.755468130111694336e-02 7.331850379705429077e-02
-1.132139936089515686e-01 -1.259844303131103516e-01 8.689367771148681641e-02
-4.242546558380126953e-01 -2.915480732917785645e-01 1.260329782962799072e-02
-4.122898876667022705e-01 -4.249735921621322632e-02 8.107876032590866089e-02
-2.798817157745361328e-01 -1.430155485868453979e-01 -7.706899940967559814e-02
6.194930076599121094e-01 2.995011396706104279e-02 -6.584756076335906982e-02
-4.302847683429718018e-01 2.427290976047515869e-01 4.574806988239288330e-02
-1.061033159494400024e-01 -3.172416090965270996e-01 4.112160578370094299e-02
-4.033797681331634521e-01 -1.211964786052703857e-01 7.596340775489807129e-02
-2.888093516230583191e-02 -1.156153380870819092e-01 8.822593837976455688e-02
-1.768284142017364502e-01 1.752036511898040771e-01 -7.917525619268417358e-02
4.409634321928024292e-02 -3.089167773723602295e-01 -4.767994210124015808e-02
5.323293209075927734e-01 -1.359754800796508789e-01 -6.759192794561386108e-02
-7.130601406097412109e-01 1.392936110496520996e-01 1.734833419322967529e-02
-3.436966612935066223e-02 1.320551931858062744e-01 8.472582697868347168e-02
4.167110323905944824e-01 2.768440544605255127e-01 1.914732716977596283e-02
1.941275745630264282e-01 -2.918722629547119141e-01 -5.243016406893730164e-02
-1.404796838760375977e-01 1.464425623416900635e-01 8.240287005901336670e-02
-4.851275384426116943e-01 -8.259613066911697388e-02 7.305018603801727295e-02
-5.676503181457519531e-01 -2.291747182607650757e-01 2.162497676908969879e-02
2.077895253896713257e-01 -1.099922806024551392e-01 8.363202959299087524e-02
-9.988941252231597900e-02 2.372907102108001709e-01 6.593532860279083252e-02
-5.292089581489562988e-01 -1.054861396551132202e-01 -5.856906995177268982e-02
-1.341150850057601929e-01 6.341323256492614746e-02 -9.147203713655471802e-02
-2.946473956108093262e-01 -2.073834687471389771e-01 -6.474951654672622681e-02
1.980432122945785522e-02 2.199630290269851685e-01 -7.555820792913436890e-02
-5.913835763931274414e-01 -2.254000902175903320e-01 5.094479769468307495e-03
-5.121130347251892090e-01 2.207465767860412598e-01 -3.819088265299797058e-02
7.456310093402862549e-02 -4.959854483604431152e-02 9.083014726638793945e-02
3.227184414863586426e-01 -2.827043831348419189e-01 4.220806807279586792e-02
-5.384592413902282715e-01 -6.713926047086715698e-02 -6.135897338390350342e-02
2.005024552345275879e-01 -2.770840190351009369e-02 8.763451129198074341e-02
5.818474888801574707e-01 -1.729258745908737183e-01 -5.405497923493385315e-02
-6.622923165559768677e-02 -6.863228976726531982e-02 -9.255945682525634766e-02
6.805098801851272583e-02 -1.923233717679977417e-01 -8.052386343479156494e-02
-1.901002228260040283e-01 -3.427377939224243164e-01 3.796751378104090691e-03
1.949220299720764160e-01 2.874907553195953369e-01 -5.207406356930732727e-02
1.487090885639190674e-01 -2.529706619679927826e-02 8.946921676397323608e-02
4.695289209485054016e-02 -2.919846177101135254e-01 5.362000316381454468e-02
7.359594106674194336e-01 4.935374110937118530e-02 -4.083734750747680664e-02
5.755416154861450195e-01 -3.192278742790222168e-02 5.821872130036354065e-02
-6.687454581260681152e-01 -1.489962190389633179e-01 -2.004893310368061066e-02
-7.162991762161254883e-01 5.462721735239028931e-02 -2.990715578198432922e-02
6.105147600173950195e-01 -2.389328479766845703e-01 -5.309117026627063751e-03
-7.547062635421752930e-01 8.506298996508121490e-03 -1.835921034216880798e-02
3.952986896038055420e-01 1.291619390249252319e-01 6.728319078683853149e-02
6.316148042678833008e-01 1.025884449481964111e-01 -5.685855075716972351e-02
5.507019907236099243e-02 1.656015366315841675e-01 7.925279438495635986e-02
-4.329900443553924561e-02 -2.660968713462352753e-02 9.250763058662414551e-02
5.633768439292907715e-01 2.340730875730514526e-01 -2.241723053157329559e-02
-1.739568859338760376e-01 1.234637573361396790e-01 8.458322286605834961e-02
2.549993991851806641e-01 2.691954076290130615e-01 -5.599720403552055359e-02
-4.732163250446319580e-01 -2.365766763687133789e-01 4.261785373091697693e-02
6.003702878952026367e-01 1.544544696807861328e-01 3.570567071437835693e-02
-1.414453089237213135e-01 1.540615856647491455e-01 -8.348089456558227539e-02
3.463882803916931152e-01 -2.206926643848419189e-01 -6.695467233657836914e-02
-4.778766632080078125e-01 2.645571529865264893e-01 2.607826329767704010e-02
-3.716734945774078369e-01 2.255009114742279053e-02 -8.042713254690170288e-02
4.979767203330993652e-01 -4.005237016826868057e-03 6.741683185100555420e-02
-8.315642923116683960e-02 -1.621390879154205322e-01 8.309778571128845215e-02
-4.759273529052734375e-01 -2.134146243333816528e-01 5.080825090408325195e-02
4.079684615135192871e-01 -9.665311127901077271e-02 -8.246734738349914551e-02
1.515732109546661377e-01 2.748354375362396240e-01 -5.888675153255462646e-02
1.130852382630109787e-02 -2.746086381375789642e-02 -9.535134583711624146e-02
-4.016936719417572021e-01 8.711507171392440796e-02 -7.528863847255706787e-02
4.850852116942405701e-02 6.063185632228851318e-02 -9.462705999612808228e-02
-4.300085604190826416e-01 -1.972456425428390503e-01 6.078934296965599060e-02
-3.089875578880310059e-01 2.653542757034301758e-01 4.915861412882804871e-02
-2.997815608978271484e-02 1.157799642533063889e-02 -9.518322348594665527e-02
6.740719676017761230e-01 1.038971915841102600e-01 3.135101869702339172e-02
-4.012571871280670166e-01 -2.134401798248291016e-01 -5.318009480834007263e-02
1.051464229822158813e-01 2.579078674316406250e-01 -6.554032117128372192e-02
3.969002366065979004e-01 -3.043343722820281982e-01 1.817854307591915131e-02
4.273218810558319092e-01 2.144140303134918213e-01 -5.956971272826194763e-02
-5.132349729537963867e-01 -8.843283355236053467e-02 -6.257280707359313965e-02
3.302869796752929688e-01 -1.030616611242294312e-01 -8.610817790031433105e-02
-3.586623072624206543e-01 2.715046405792236328e-01 -4.121198132634162903e-02
7.848130911588668823e-02 -3.009511530399322510e-01 -5.117642506957054138e-02
6.500937044620513916e-02 2.118624746799468994e-01 7.070305198431015015e-02
5.631370544433593750e-01 -1.573507189750671387e-01 4.807348549365997314e-02
-3.314771056175231934e-01 -2.751104906201362610e-02 8.610511571168899536e-02
3.545826971530914307e-01 -9.525550156831741333e-02 -8.560180664062500000e-02
5.932351574301719666e-02 2.271614968776702881e-01 -7.398334890604019165e-02
-2.171411812305450439e-01 -3.298086524009704590e-01 2.302525937557220459e-02
4.514953792095184326e-01 -1.663821563124656677e-02 -8.342228084802627563e-02
-2.475357055664062500e-01 3.040319681167602539e-01 3.563679382205009460e-02
3.478071391582489014e-01 9.820345789194107056e-03 7.979887723922729492e-02
2.462680190801620483e-01 -1.635126322507858276e-01 7.618844509124755859e-02
-6.963685750961303711e-01 -1.248411983251571655e-01 -1.863655261695384979e-02
3.760106563568115234e-01 -2.867725193500518799e-01 3.389456495642662048e-02
2.518406510353088379e-01 3.190317153930664062e-01 -2.710874192416667938e-02
7.101880908012390137e-01 -8.926738798618316650e-02 -4.534299299120903015e-02
-4.148232042789459229e-01 -1.745182722806930542e-01 -6.084366142749786377e-02
4.972973465919494629e-02 -1.811558306217193604e-01 8.000753819942474365e-02
4.258664250373840332e-01 2.727193236351013184e-01 -3.395650163292884827e-02
-1.569515466690063477e-01 2.743136286735534668e-01 5.368848145008087158e-02
3.695122003555297852e-01 2.921878695487976074e-01 -3.058459609746932983e-02
-4.369677007198333740e-01 1.997197866439819336e-01 5.840647593140602112e-02
-2.700080275535583496e-01 1.489661782979965210e-01 7.862447202205657959e-02
3.102616965770721436e-01 2.598616480827331543e-01 4.390668123960494995e-02
2.467766702175140381e-01 3.294682502746582031e-01 -1.949125435203313828e-03
-4.865766167640686035e-01 1.117518097162246704e-01 -6.479055434465408325e-02
-6.832839846611022949e-01 -1.062663868069648743e-01 -2.881419658660888672e-02
-5.162123441696166992e-01 8.507743477821350098e-03 -6.702049076557159424e-02
-4.292204380035400391e-01 -4.408018290996551514e-02 7.984663546085357666e-02
-1.822152175009250641e-03 1.043530777096748352e-01 8.737058192491531372e-02
5.193654447793960571e-03 -2.292848974466323853e-01 -7.278455048799514771e-02
2.967967987060546875e-01 -1.322357356548309326e-01 -8.459707349538803101e-02
8.471492677927017212e-02 1.851946562528610229e-01 7.539138942956924438e-02
-1.691882610321044922e-01 1.841280162334442139e-01 7.614868879318237305e-02
-3.765604496002197266e-01 2.195705100893974304e-02 8.363874256610870361e-02
-6.975491046905517578e-01 1.554070413112640381e-01 1.656924374401569366e-02
-5.092222690582275391e-01 -1.491023153066635132e-01 -5.438330769538879395e-02
7.181967049837112427e-02 3.460995387285947800e-03 -9.595149755477905273e-02
-2.837457060813903809e-01 -6.818843632936477661e-02 8.677577972412109375e-02
-7.009273767471313477e-01 9.243950247764587402e-02 -2.944115921854972839e-02
-6.045132875442504883e-01 1.332669407129287720e-01 -4.475653544068336487e-02
-2.718101739883422852e-01 -7.737481594085693359e-02 8.673316985368728638e-02
5.184675455093383789e-01 9.285768866539001465e-02 5.930555611848831177e-02
6.115785241127014160e-01 -1.523756384849548340e-01 4.086619988083839417e-02
-1.240190714597702026e-01 2.650161087512969971e-01 5.762780830264091492e-02
4.623904526233673096e-01 3.109985776245594025e-02 -8.212856203317642212e-02
-1.023540198802947998e-01 3.379021286964416504e-01 -2.363424003124237061e-02
-1.211160272359848022e-01 -1.519197523593902588e-01 8.396837860345840454e-02
3.350368142127990723e-01 6.733026355504989624e-02 -8.822057396173477173e-02
4.851342141628265381e-01 -1.824764460325241089e-01 5.380690842866897583e-02
1.086618527770042419e-01 -1.647198200225830078e-01 -8.474193513393402100e-02
-2.439625561237335205e-01 -2.155200242996215820e-01 6.995099782943725586e-02
3.610550463199615479e-01 -2.062505334615707397e-01 6.148489192128181458e-02
9.124623239040374756e-02 2.563010454177856445e-01 -6.622223556041717529e-02
-4.432362914085388184e-01 -1.829092949628829956e-01 6.271382421255111694e-02
5.055935978889465332e-01 -1.586288958787918091e-01 -6.674807518720626831e-02
1.577739566564559937e-01 -2.530652582645416260e-01 -6.639962643384933472e-02
-1.346856057643890381e-01 1.041904464364051819e-01 -8.888604491949081421e-02
-2.525796368718147278e-02 2.161007374525070190e-01 7.107397168874740601e-02
2.333789616823196411e-01 -2.576422095298767090e-01 5.784507468342781067e-02
-6.400421261787414551e-01 1.452788412570953369e-01 4.177946597337722778e-02
2.804870605468750000e-01 1.531258970499038696e-01 7.222099602222442627e-02
5.314642786979675293e-01 1.676255762577056885e-01 -5.934380367398262024e-02
2.204358130693435669e-01 2.224083095788955688e-01 6.219042465090751648e-02
5.423859953880310059e-01 -2.284089177846908569e-01 -4.301870986819267273e-02
4.290870130062103271e-01 -2.732934057712554932e-02 -8.478538691997528076e-02
-3.967552185058593750e-01 -2.786424160003662109e-01 3.419032692909240723e-02
9.176319092512130737e-02 -2.222359739243984222e-02 9.099415689706802368e-02
1.632214039564132690e-01 2.420555800199508667e-01 6.002837792038917542e-02
-1.250091642141342163e-01 -3.433003425598144531e-01 1.922664791345596313e-02
-6.145108342170715332e-01 -7.981408387422561646e-03 -5.341618880629539490e-02
-1.400580164045095444e-02 -2.985721528530120850e-01 -5.145336315035820007e-02
-1.233210116624832153e-01 1.740259528160095215e-01 7.861045747995376587e-02
2.898647189140319824e-01 -1.889635324478149414e-01 6.987687945365905762e-02
-2.052997499704360962e-01 1.789851933717727661e-01 7.614929974079132080e-02
4.269246459007263184e-01 -2.174004018306732178e-01 5.260157212615013123e-02
1.292107850313186646e-01 -3.532279133796691895e-01 -7.077677175402641296e-03
-3.075212240219116211e-01 2.348077446222305298e-01 -5.922309681773185730e-02
1.649467647075653076e-01 3.257385790348052979e-01 -3.118185885250568390e-02
-9.983098506927490234e-02 1.874525547027587891e-01 -7.980801165103912354e-02
-3.035804629325866699e-01 9.717022627592086792e-02 -8.164810389280319214e-02
-2.372418940067291260e-01 2.891095578670501709e-01 -4.585422948002815247e-02
-4.972032904624938965e-01 -1.834219545125961304e-01 5.637092515826225281e-02
-2.513890564441680908e-01 -1.207155436277389526e-01 -8.143560588359832764e-02
1.136395931243896484e-01 2.334578633308410645e-01 6.431593000888824463e-02
-2.897212505340576172e-01 -1.032477617263793945e-01 -8.095864951610565186e-02
3.614013791084289551e-01 -1.539596021175384521e-01 7.031272351741790771e-02
2.758192121982574463e-01 1.997438073158264160e-01 -7.433770596981048584e-02
-2.943145632743835449e-01 2.878367602825164795e-01 -4.108538106083869934e-02
-1.128881350159645081e-01 4.829166829586029053e-02 -9.269638359546661377e-02
-4.020520746707916260e-01 9.662656486034393311e-02 -7.450937479734420776e-02
-6.712049841880798340e-01 -1.263080537319183350e-02 -4.277125000953674316e-02
7.524641752243041992e-01 7.216192036867141724e-02 1.218157075345516205e-02
2.809498608112335205e-01 1.016088426113128662e-01 7.857159525156021118e-02
2.990309000015258789e-01 -2.788115441799163818e-01 -5.203610286116600037e-02
1.661500185728073120e-01 2.273280918598175049e-01 -7.233258336782455444e-02
6.169878244400024414e-01 -1.057760789990425110e-01 -6.097925081849098206e-02
-6.310028433799743652e-01 1.880484968423843384e-01 2.851050160825252533e-02
-1.331803202629089355e-01 -1.939154118299484253e-01 7.764506340026855469e-02
-1.848259568214416504e-01 7.506129890680313110e-02 -8.909758180379867554e-02
-2.012288123369216919e-01 2.675436437129974365e-01 -5.670125037431716919e-02
1.995864659547805786e-01 -2.330243587493896484e-01 -7.057095319032669067e-02
2.690408825874328613e-01 1.103311330080032349e-01 7.835583388805389404e-02
-5.360559821128845215e-01 -3.352400287985801697e-02 -6.375766545534133911e-02
-4.835474304854869843e-03 1.985944360494613647e-01 7.448530942201614380e-02
3.527501225471496582e-02 -9.902638942003250122e-02 8.902223408222198486e-02
-3.359642624855041504e-01 2.658526301383972168e-01 4.669529572129249573e-02
-3.113506436347961426e-01 -2.476579397916793823e-01 5.750539526343345642e-02
6.647148132324218750e-01 1.749135255813598633e-01 6.625475361943244934e-03
8.119795471429824829e-02 1.312453299760818481e-01 8.329479396343231201e-02
1.917357593774795532e-01 -1.702273488044738770e-01 -8.280317485332489014e-02
6.695098876953125000e-01 1.576928496360778809e-01 1.541363447904586792e-02
2.587463259696960449e-01 1.281081326305866241e-02 -9.304086118936538696e-02
-4.050997197628021240e-01 1.662536710500717163e-01 -6.561577320098876953e-02
-6.577948927879333496e-01 -9.382892400026321411e-02 -3.795890510082244873e-02
5.826551318168640137e-01 6.974164396524429321e-02 5.331401526927947998e-02
-4.958441257476806641e-01 -5.507840216159820557e-02 -6.734585762023925781e-02
-2.311425656080245972e-01 3.326592743396759033e-01 -1.296817604452371597e-02
-5.546146631240844727e-01 3.463189303874969482e-02 6.867624819278717041e-02
-5.654824376106262207e-01 -1.186392083764076233e-01 -5.143139138817787170e-02
1.203308105468750000e-01 2.431470602750778198e-01 -6.940619647502899170e-02
-3.525007665157318115e-01 2.400655001401901245e-01 -5.362768843770027161e-02
-2.482669055461883545e-01 -2.581518590450286865e-01 -5.449938774108886719e-02
3.135344013571739197e-02 3.537304699420928955e-02 -9.543842822313308716e-02
5.024231076240539551e-01 1.755283027887344360e-01 4.692900553345680237e-02
-4.199468791484832764e-01 -2.171529829502105713e-01 5.661691725254058838e-02
-2.536381781101226807e-01 3.066368103027343750e-01 -3.505290672183036804e-02
3.555332720279693604e-01 -3.040485680103302002e-01 -3.348240256309509277e-02
4.823478162288665771e-01 -1.901708990335464478e-01 -6.282252818346023560e-02
3.002410233020782471e-01 -2.886832319200038910e-02 8.285852521657943726e-02
-5.054224729537963867e-01 4.696895182132720947e-02 7.319368422031402588e-02
1.811398863792419434e-01 -1.474288403987884521e-01 8.103434741497039795e-02
5.728358626365661621e-01 8.611127734184265137e-02 -6.767784804105758667e-02
6.674220561981201172e-01 -4.021973907947540283e-02 4.338435456156730652e-02
-1.935251653194427490e-01 1.312954723834991455e-01 8.327475190162658691e-02
-3.968586325645446777e-01 1.183456182479858398e-01 7.587602734565734863e-02
5.692540407180786133e-01 2.363845407962799072e-01 -2.514389343559741974e-03
3.913814425468444824e-01 -3.134308755397796631e-01 8.655901998281478882e-03
-1.373976375907659531e-02 6.485191732645034790e-02 9.037554264068603516e-02
-1.116625592112541199e-01 -1.220549419522285461e-01 -8.720047026872634888e-02
-1.810334324836730957e-01 -3.008772730827331543e-01 -4.271390661597251892e-02
-6.069446206092834473e-01 6.257683783769607544e-02 6.041759997606277466e-02
4.187942668795585632e-02 2.250921279191970825e-01 -7.448492199182510376e-02
-8.715617656707763672e-02 3.242350816726684570e-01 -3.610760346055030823e-02
8.827750384807586670e-02 -3.500201106071472168e-01 -1.759112067520618439e-02
-1.037320941686630249e-01 1.080865934491157532e-01 -8.945614844560623169e-02
-3.422208130359649658e-01 2.347479909658432007e-01 5.701649188995361328e-02
-1.441964060068130493e-01 -2.266707569360733032e-01 7.099112868309020996e-02
-2.235481441020965576e-01 6.676347553730010986e-02 -8.788112550973892212e-02
3.412745594978332520e-01 -1.090958938002586365e-01 -8.504649996757507324e-02
2.038064002990722656e-01 2.195222824811935425e-01 6.380813568830490112e-02
-3.443781733512878418e-01 -9.425384551286697388e-02 8.224205672740936279e-02
-3.080807998776435852e-02 -1.521072387695312500e-01 8.452693372964859009e-02
3.102318346500396729e-01 -2.016978561878204346e-01 6.624163687229156494e-02
-5.520820617675781250e-01 1.401863545179367065e-01 5.801235511898994446e-02
-2.884984612464904785e-01 2.427345663309097290e-01 5.822752788662910461e-02
4.765219688415527344e-01 1.755927801132202148e-01 5.041107535362243652e-02
-3.082967400550842285e-01 -2.745827138423919678e-01 4.794776812195777893e-02
-6.698257923126220703e-01 1.610187888145446777e-01 2.771513350307941437e-02
1.720905750989913940e-01 -1.405320614576339722e-01 -8.714431524276733398e-02
1.330391317605972290e-01 -3.134662508964538574e-01 4.202879592776298523e-02
-5.250685811042785645e-01 2.304358780384063721e-01 3.566484525799751282e-02
6.287329196929931641e-01 -9.619142860174179077e-02 -6.037855520844459534e-02
9.430617839097976685e-02 2.759375572204589844e-01 5.218720436096191406e-02
-5.376935005187988281e-01 1.896710693836212158e-01 4.862684011459350586e-02
6.861279010772705078e-01 9.282155334949493408e-02 3.054330684244632721e-02
4.787321686744689941e-01 -2.585664391517639160e-01 -4.069307446479797363e-02
-5.755508542060852051e-01 -1.596905589103698730e-01 -4.129065573215484619e-02
-4.461475014686584473e-01 -2.864273190498352051e-01 2.687806496396660805e-03
3.896967172622680664e-01 2.637833356857299805e-01 3.231014683842658997e-02
-1.268651932477951050e-01 -1.746674180030822754e-01 -7.993282377719879150e-02
2.486268058419227600e-02 3.463346362113952637e-01 -1.506725419312715530e-02
1.823804527521133423e-02 3.350503444671630859e-01 -2.972125820815563202e-02
6.451784968376159668e-01 -2.099128365516662598e-01 -2.328794822096824646e-02
3.204201161861419678e-01 2.376600950956344604e-01 5.064811557531356812e-02
6.267769634723663330e-02 -3.342462480068206787e-01 3.226403146982192993e-02
-5.042559653520584106e-02 -1.408506929874420166e-01 -8.667141199111938477e-02
1.001958921551704407e-02 8.414296805858612061e-02 -9.315220266580581665e-02
5.645154714584350586e-01 5.337914824485778809e-02 5.725555866956710815e-02
-3.410058021545410156e-01 -1.991581618785858154e-01 6.789951026439666748e-02
-5.324201583862304688e-01 -1.797121018171310425e-01 5.232301354408264160e-02
-4.625391364097595215e-01 2.307020872831344604e-01 -4.298785701394081116e-02
4.310047924518585205e-01 -4.530077427625656128e-02 -8.412743359804153442e-02
-1.504884939640760422e-02 1.423153579235076904e-01 8.338512480258941650e-02
-6.543887257575988770e-01 -8.540835976600646973e-02 -4.005124419927597046e-02
-2.581905424594879150e-01 -1.674630790948867798e-01 7.808639109134674072e-02
-1.823899149894714355e-01 -2.951079308986663818e-01 4.843019694089889526e-02
-4.383848011493682861e-01 2.819189131259918213e-01 2.204284071922302246e-02
-6.066130995750427246e-01 1.552297174930572510e-02 6.272474676370620728e-02
-3.920768797397613525e-01 2.321707457304000854e-01 5.359356477856636047e-02
2.967079281806945801e-01 3.196668028831481934e-01 -1.435341872274875641e-02
-6.399181485176086426e-01 1.809229254722595215e-01 2.905773371458053589e-02
1.062455102801322937e-01 -2.994498908519744873e-01 -5.155143886804580688e-02
-4.950600266456604004e-01 2.215332835912704468e-01 -4.096538946032524109e-02
-6.445109844207763672e-02 -1.638995558023452759e-01 -8.336457610130310059e-02
-3.450212478637695312e-01 -1.699335575103759766e-01 -6.823076307773590088e-02
2.731532156467437744e-01 -3.325245082378387451e-01 -2.042007818818092346e-02
-2.930974960327148438e-01 -8.219199627637863159e-02 8.557848632335662842e-02
1.661107391119003296e-01 -3.495211601257324219e-01 -1.113321632146835327e-02
-2.275695279240608215e-02 3.207775056362152100e-01 -4.005251824855804443e-02
-6.871305108070373535e-01 1.624080389738082886e-01 1.836790889501571655e-02
