1.147844314575195312e+00 8.472558856010437012e-02 -2.122784107923507690e-01
5.263592600822448730e-01 9.118156135082244873e-02 -3.959013819694519043e-01
6.522701978683471680e-01 1.541028022766113281e-01 2.017494291067123413e-01
2.380061149597167969e-01 1.515669375658035278e-01 -2.164508700370788574e-01
6.732097864151000977e-01 -8.659198135137557983e-02 3.800352215766906738e-01
1.118573665618896484e+00 5.345109105110168457e-02 2.670462429523468018e-01
-3.973508477210998535e-01 -8.887466043233871460e-02 6.570201367139816284e-02
-2.224585413932800293e-01 -1.324602365493774414e-01 6.145912408828735352e-02
2.901540994644165039e-01 1.603162437677383423e-01 -1.841470897197723389e-01
-2.125647068023681641e-01 -1.222049891948699951e-01 -1.227007508277893066e-01
-5.409577488899230957e-02 -1.334157139062881470e-01 -1.853162646293640137e-01
3.449541330337524414e-01 -1.754654049873352051e-01 6.069668568670749664e-03
-2.875807881355285645e-01 -9.180834889411926270e-02 -1.751191467046737671e-01
5.217102169990539551e-01 1.710963547229766846e-01 1.158894523978233337e-01
4.051743447780609131e-01 1.401602923870086670e-01 -2.874485254287719727e-01
1.144857883453369141e+00 1.018787398934364319e-01 -1.617296189069747925e-01
4.691198170185089111e-01 1.578123271465301514e-01 2.053522914648056030e-01
1.154498338699340820e+00 -1.149806380271911621e-02 -2.727203667163848877e-01
-3.574075102806091309e-01 8.680883795022964478e-02 1.223092805594205856e-02
9.113814234733581543e-01 9.345167875289916992e-02 -3.240808844566345215e-01
6.164561510086059570e-01 -1.095159947872161865e-01 3.483280241489410400e-01
9.970215559005737305e-01 7.871325314044952393e-02 2.975872457027435303e-01
6.836189031600952148e-01 -1.544167101383209229e-01 -1.355938911437988281e-01
4.895996451377868652e-01 -1.886200904846191406e-02 4.592463076114654541e-01
7.927268743515014648e-02 -1.669104099273681641e-01 1.184022519737482071e-02
6.555075645446777344e-01 1.281523257493972778e-01 2.961625456809997559e-01
-4.012612104415893555e-01 -6.467574089765548706e-02 1.706796139478683472e-01
1.291322469711303711e+00 -4.166779294610023499e-02 3.876177221536636353e-02
-6.420919299125671387e-02 4.535342752933502197e-02 3.758895099163055420e-01
4.009630978107452393e-01 1.704747974872589111e-01 1.199712231755256653e-01
2.873647212982177734e-02 -1.273465305566787720e-01 2.824775576591491699e-01
1.289823293685913086e+00 2.182887401431798935e-04 -1.504832208156585693e-01
1.236281633377075195e+00 8.227285742759704590e-02 -1.125446110963821411e-01
-1.973246335983276367e-01 1.059407964348793030e-01 -1.717162728309631348e-01
5.923381447792053223e-01 -1.510557234287261963e-01 -1.896460503339767456e-01
1.030164480209350586e+00 -1.095726639032363892e-01 1.566116958856582642e-01
-2.391154170036315918e-01 -1.285512596368789673e-01 -3.109513781964778900e-02
6.219215393066406250e-01 -1.542433351278305054e-01 -1.628887504339218140e-01
1.064437389373779297e+00 -1.069843247532844543e-01 -1.197286471724510193e-01
5.701253414154052734e-01 1.536537855863571167e-01 2.181920409202575684e-01
1.845270395278930664e-02 2.617754228413105011e-02 -3.972887992858886719e-01
-2.114242315292358398e-01 1.183850765228271484e-01 -7.750762999057769775e-02
3.953093588352203369e-01 -1.613249182701110840e-01 1.971938014030456543e-01
8.837005496025085449e-02 1.014700829982757568e-01 -3.297168314456939697e-01
-3.641262650489807129e-02 -1.487290561199188232e-01 1.569063812494277954e-01
3.059246540069580078e-01 1.696080118417739868e-01 1.057087853550910950e-01
-2.205734252929687500e-01 1.135228797793388367e-01 1.124693155288696289e-01
3.889585435390472412e-01 1.689589470624923706e-01 -1.462910026311874390e-01
3.224076628684997559e-01 1.776071079075336456e-02 -4.485208988189697266e-01
6.468728184700012207e-01 -8.951304852962493896e-02 -3.625241518020629883e-01
8.939859867095947266e-01 -7.295231521129608154e-02 -3.282114565372467041e-01
7.455885410308837891e-02 1.605800688266754150e-01 1.631763949990272522e-02
7.297713160514831543e-01 1.658563911914825439e-01 9.600674360990524292e-02
-7.452934980392456055e-02 1.810729620046913624e-03 3.980000913143157959e-01
9.155281186103820801e-01 -1.368249058723449707e-01 1.016115397214889526e-01
4.530974030494689941e-01 -1.146896257996559143e-01 3.574523925781250000e-01
1.719051152467727661e-01 -1.136760413646697998e-01 3.493449091911315918e-01
8.693464994430541992e-01 1.565506309270858765e-01 -1.035701259970664978e-01
4.191652536392211914e-01 -1.384689956903457642e-01 2.954965531826019287e-01
2.291206717491149902e-01 1.670363694429397583e-01 9.750170260667800903e-02
3.504492938518524170e-01 1.511212885379791260e-01 -2.415819913148880005e-01
-4.815225601196289062e-01 -3.904914483428001404e-02 -4.078533127903938293e-02
8.511391878128051758e-01 -1.408959627151489258e-01 1.404166668653488159e-01
5.736528635025024414e-01 7.453998178243637085e-02 -4.144973158836364746e-01
9.458300471305847168e-01 -1.365617215633392334e-01 3.410827741026878357e-02
2.222259193658828735e-01 -3.956869617104530334e-02 4.471324086189270020e-01
8.128815889358520508e-02 1.189143881201744080e-01 -2.857654392719268799e-01
9.771579504013061523e-01 1.395881921052932739e-01 -1.391007006168365479e-01
1.902192831039428711e-01 -6.481944583356380463e-03 4.523212313652038574e-01
8.865582942962646484e-01 1.499466300010681152e-01 1.210587918758392334e-01
-1.490863561630249023e-01 -7.698124647140502930e-02 3.280627429485321045e-01
5.087039470672607422e-01 -5.351636931300163269e-02 4.403660595417022705e-01
-2.199467420578002930e-01 -1.283094286918640137e-01 -7.247641682624816895e-02
5.801851749420166016e-01 1.715843826532363892e-01 -1.211909204721450806e-01
5.006244778633117676e-02 -5.488561838865280151e-02 4.120577573776245117e-01
5.033928751945495605e-01 -1.462915837764739990e-01 -2.283701449632644653e-01
1.485565602779388428e-01 -2.754289656877517700e-02 -4.225135743618011475e-01
1.190067291259765625e+00 -5.675298348069190979e-02 1.775814592838287354e-01
-2.032243609428405762e-01 5.525539070367813110e-02 3.067002594470977783e-01
-4.813562035560607910e-01 2.772851474583148956e-02 1.964266784489154816e-02
9.244383573532104492e-01 -1.287789940834045410e-01 -1.376736015081405640e-01
7.895296812057495117e-02 1.545126885175704956e-01 1.174691915512084961e-01
1.311088800430297852e+00 -1.213578321039676666e-02 8.666679263114929199e-02
8.100427985191345215e-01 4.479433968663215637e-02 -4.056636095046997070e-01
3.026117086410522461e-01 1.275095641613006592e-01 -3.142292499542236328e-01
-1.262807250022888184e-01 1.368613243103027344e-01 6.233002524822950363e-03
4.820642471313476562e-01 1.374384164810180664e-01 -2.983514368534088135e-01
8.901449441909790039e-01 1.577553749084472656e-01 -5.279865115880966187e-02
5.226511955261230469e-01 1.385772526264190674e-01 -2.940070331096649170e-01
-3.211276531219482422e-01 -1.098944768309593201e-01 -4.235891997814178467e-02
3.584408760070800781e-02 -1.630976945161819458e-01 6.520229578018188477e-02
1.118772745132446289e+00 7.478731218725442886e-03 -3.017363548278808594e-01
8.632394671440124512e-02 1.411110758781433105e-01 -2.088209390640258789e-01
4.967464208602905273e-01 1.644769161939620972e-01 -1.842321604490280151e-01
2.663010358810424805e-02 -1.251980066299438477e-01 -2.490375041961669922e-01
1.140033304691314697e-01 -1.650540977716445923e-01 1.153565645217895508e-01
4.874294400215148926e-01 1.248093545436859131e-01 3.221799135208129883e-01
-4.834129214286804199e-01 -4.224916175007820129e-02 -1.858946308493614197e-02
9.364176392555236816e-01 -1.314317435026168823e-01 1.229521557688713074e-01
1.342266499996185303e-01 1.532329618930816650e-01 1.614168435335159302e-01
-5.167871713638305664e-03 -1.599473804235458374e-01 6.037642806768417358e-02
7.534598708152770996e-01 -1.506774723529815674e-01 -1.216969341039657593e-01
9.058015942573547363e-01 5.958606302738189697e-02 -3.698724210262298584e-01
6.376038789749145508e-01 -1.575112640857696533e-01 -1.349616646766662598e-01
9.009691476821899414e-01 1.566851288080215454e-01 2.512901462614536285e-02
-1.044353842735290527e-01 8.767350018024444580e-02 -2.851237356662750244e-01
2.734607458114624023e-01 6.092782318592071533e-02 4.257978200912475586e-01
9.978340268135070801e-01 1.375909298658370972e-01 1.058653295040130615e-01
4.207707941532135010e-01 1.421150267124176025e-01 2.703087031841278076e-01
2.688587903976440430e-01 -1.617919504642486572e-01 1.901758760213851929e-01
-2.632836699485778809e-01 8.571040816605091095e-03 3.185903728008270264e-01
1.087336301803588867e+00 -1.111208945512771606e-01 -2.714873664081096649e-02
-2.340105175971984863e-02 -1.578945219516754150e-01 7.039315253496170044e-02
8.765573501586914062e-01 1.577197760343551636e-01 -7.953664660453796387e-02
7.557594776153564453e-01 1.691974550485610962e-01 -3.996502608060836792e-02
1.268853783607482910e+00 7.658325135707855225e-02 3.615922853350639343e-02
-2.892880439758300781e-01 -1.112803146243095398e-01 -9.230423718690872192e-02
4.252420961856842041e-01 -1.460594087839126587e-01 -2.357809990644454956e-01
2.513916492462158203e-01 -1.737557798624038696e-01 -1.596862077713012695e-02
-8.646905422210693359e-02 -3.316660225391387939e-02 -3.621253371238708496e-01
8.013051748275756836e-02 -9.498526901006698608e-02 3.694914579391479492e-01
-6.610491871833801270e-02 1.077400147914886475e-01 -2.551140487194061279e-01
1.102987527847290039e+00 -9.644958376884460449e-02 -1.301918476819992065e-01
-5.909293889999389648e-02 -7.703582942485809326e-02 3.608388006687164307e-01
2.454912513494491577e-01 1.204109191894531250e-01 -3.234913945198059082e-01
2.113452553749084473e-02 -7.611807435750961304e-02 -3.521102368831634521e-01
8.870385885238647461e-01 -1.325501352548599243e-01 1.648088395595550537e-01
3.698087930679321289e-01 3.448341041803359985e-02 -4.460673928260803223e-01
-6.118014454841613770e-02 1.227404549717903137e-01 -2.071141749620437622e-01
-3.991993665695190430e-01 -7.317873835563659668e-02 1.494490355253219604e-01
1.144032955169677734e+00 -7.521420717239379883e-02 1.757121235132217407e-01
-1.563294529914855957e-01 1.147012040019035339e-01 1.777993440628051758e-01
-6.048101186752319336e-02 -1.414161324501037598e-01 -1.422903686761856079e-01
7.972682714462280273e-01 -1.458359509706497192e-01 1.496823132038116455e-01
1.050975322723388672e-01 1.631081700325012207e-01 -2.680486254394054413e-02
3.320417702198028564e-01 6.436248868703842163e-02 4.260216057300567627e-01
-4.890643954277038574e-01 -3.151664137840270996e-02 7.286560535430908203e-02
3.578764200210571289e-02 1.558150351047515869e-01 -5.416233465075492859e-02
3.547473847866058350e-01 -7.212586700916290283e-02 4.279000163078308105e-01
2.727151513099670410e-01 1.734805852174758911e-01 -2.933470718562602997e-02
-7.512122392654418945e-02 -1.410336941480636597e-01 -1.343652755022048950e-01
-1.856347322463989258e-01 -1.140187680721282959e-01 -1.813820749521255493e-01
-4.330039024353027344e-03 1.790721528232097626e-02 4.123291075229644775e-01
2.772253751754760742e-02 -1.142999157309532166e-01 -2.803101539611816406e-01
4.990064799785614014e-01 5.642594769597053528e-02 4.340204894542694092e-01
-2.920955419540405273e-01 9.625416249036788940e-02 -1.048373654484748840e-01
-2.713859677314758301e-01 -9.430163353681564331e-02 -1.813695579767227173e-01
5.422902703285217285e-01 1.436126083135604858e-01 -2.765433490276336670e-01
-4.186853170394897461e-01 6.419916450977325439e-02 -7.463814225047826767e-03
6.590504050254821777e-01 1.366076469421386719e-01 2.697564363479614258e-01
9.616389870643615723e-02 -7.133326679468154907e-02 -3.759121894836425781e-01
8.762629032135009766e-01 -1.438881754875183105e-01 -5.872571840882301331e-02
3.536645770072937012e-01 -1.416758149862289429e-01 2.863812744617462158e-01
4.740096330642700195e-01 -7.815604656934738159e-02 -3.970796763896942139e-01
2.892929315567016602e-02 1.190680935978889465e-01 -2.656922042369842529e-01
-2.140089273452758789e-01 -1.273130625486373901e-01 1.347335875034332275e-01
8.509973883628845215e-01 -1.486675739288330078e-01 -2.230842784047126770e-02
1.207429647445678711e+00 -3.795643150806427002e-02 -2.010578811168670654e-01
7.961485385894775391e-01 -1.094156429171562195e-01 -2.829015851020812988e-01
-3.667539358139038086e-02 -1.489746719598770142e-01 -1.103753820061683655e-01
8.325629234313964844e-01 1.602266877889633179e-01 7.531148195266723633e-02
1.087080478668212891e+00 -2.768234163522720337e-02 2.984002232551574707e-01
-1.306181550025939941e-01 -1.222442537546157837e-01 2.297704368829727173e-01
8.566170930862426758e-01 -1.253673881292343140e-01 2.209125608205795288e-01
8.336914777755737305e-01 1.636805981397628784e-01 -2.850806154310703278e-02
5.076633095741271973e-01 -5.631139129400253296e-02 -4.216870069503784180e-01
4.213321805000305176e-01 1.649735867977142334e-01 -1.787055581808090210e-01
3.201539218425750732e-01 1.660375446081161499e-01 -1.539651751518249512e-01
5.014832615852355957e-01 1.765400767326354980e-01 4.925582930445671082e-02
4.589689373970031738e-01 -9.295239299535751343e-02 3.978091180324554443e-01
-1.000428199768066406e-01 -1.485921144485473633e-01 9.065770357847213745e-02
2.619761526584625244e-01 1.037082150578498840e-01 3.604138195514678955e-01
5.121646523475646973e-01 -1.518454961478710175e-02 -4.485590159893035889e-01
3.866363763809204102e-01 -1.137738227844238281e-01 -3.338665068149566650e-01
3.872384428977966309e-01 1.374371498823165894e-01 2.847887873649597168e-01
7.251775264739990234e-01 1.311975270509719849e-01 -2.903972268104553223e-01
7.097894549369812012e-01 7.165227085351943970e-02 3.944060206413269043e-01
1.062931776046752930e+00 -4.506474360823631287e-02 2.955573499202728271e-01
-4.274424910545349121e-02 1.209281980991363525e-01 -2.250403910875320435e-01
-9.509038925170898438e-02 -1.230466291308403015e-01 2.464183568954467773e-01
1.592468321323394775e-01 -1.711914390325546265e-01 3.287969902157783508e-02
1.261744976043701172e+00 -5.462817847728729248e-02 -6.588933616876602173e-02
2.929080724716186523e-01 1.312631070613861084e-01 2.956830263137817383e-01
-4.325069785118103027e-01 5.103771388530731201e-02 9.113110601902008057e-02
8.565907478332519531e-01 3.543084859848022461e-02 -3.992204368114471436e-01
5.114281177520751953e-01 -1.730363816022872925e-01 3.387921303510665894e-02
4.783387184143066406e-01 1.701527684926986694e-01 -1.442083716392517090e-01
7.692006826400756836e-01 5.674683488905429840e-03 4.238188862800598145e-01
1.664733588695526123e-01 -1.710645556449890137e-01 5.501697584986686707e-02
-2.645283341407775879e-01 1.007748618721961975e-01 -1.204181164503097534e-01
1.882082223892211914e-01 -1.309986412525177002e-01 3.076976835727691650e-01
1.257921159267425537e-01 -9.031441295519471169e-04 -4.256375432014465332e-01
1.044828891754150391e-01 -1.546504795551300049e-01 1.931392699480056763e-01
6.415098905563354492e-02 -1.535170227289199829e-01 1.835416108369827271e-01
6.415205597877502441e-01 1.265576332807540894e-01 -3.177947700023651123e-01
5.490694642066955566e-01 1.775134503841400146e-01 -8.687913417816162109e-03
-6.361302733421325684e-02 1.131847798824310303e-01 2.451977580785751343e-01
-3.101839423179626465e-01 3.416250273585319519e-02 -2.465607225894927979e-01
9.949902296066284180e-01 7.785505056381225586e-02 -3.164106607437133789e-01
-2.050625085830688477e-01 -1.332408338785171509e-01 -4.889307171106338501e-02
4.873058795928955078e-01 1.770701110363006592e-01 3.890401870012283325e-02
1.073629140853881836e+00 -5.289966939017176628e-04 3.175445795059204102e-01
3.919494450092315674e-01 9.232982993125915527e-02 3.901639282703399658e-01
9.371188879013061523e-01 1.516105830669403076e-01 -7.153029739856719971e-02
-1.506970524787902832e-01 1.020022034645080566e-01 -2.224861383438110352e-01
5.138768553733825684e-01 1.285634636878967285e-01 3.109416365623474121e-01
-2.118142247200012207e-01 -1.341901123523712158e-01 -1.682510972023010254e-02
4.538775384426116943e-01 -1.060821115970611572e-01 3.751651644706726074e-01
7.381287217140197754e-01 -1.579836308956146240e-01 -5.847465619444847107e-02
2.589797377586364746e-01 -1.204895451664924622e-01 -3.107061684131622314e-01
1.130522966384887695e+00 -7.558719068765640259e-02 1.885853409767150879e-01
5.432769060134887695e-01 1.755383014678955078e-01 5.959457904100418091e-02
-1.746044158935546875e-01 -8.240569382905960083e-02 3.080524802207946777e-01
3.701417744159698486e-01 1.588953882455825806e-01 1.949726939201354980e-01
5.176337957382202148e-01 1.759931594133377075e-01 -7.642987370491027832e-02
1.154955387115478516e+00 -6.071639060974121094e-02 2.040664702653884888e-01
4.780821204185485840e-01 1.774571686983108521e-01 -4.715439677238464355e-02
-2.272437214851379395e-01 -1.145662143826484680e-01 1.901280134916305542e-01
2.676690220832824707e-01 4.339101165533065796e-02 -4.337461590766906738e-01
1.054543852806091309e+00 1.317175030708312988e-01 -1.034903973340988159e-01
1.023236274719238281e+00 1.332421451807022095e-01 1.080475151538848877e-01
6.044259667396545410e-01 -1.689189225435256958e-01 4.445113986730575562e-02
3.756522834300994873e-01 -1.633705943822860718e-02 4.625160694122314453e-01
5.508196353912353516e-01 1.641215085983276367e-01 -1.831551939249038696e-01
3.842498064041137695e-01 1.713828146457672119e-01 1.087919399142265320e-01
4.532320201396942139e-01 -1.023006737232208252e-01 -3.574095070362091064e-01
6.456398963928222656e-02 9.055653214454650879e-02 -3.435551822185516357e-01
8.824777603149414062e-01 -1.055173575878143311e-01 2.742351591587066650e-01
1.194412231445312500e+00 -3.703590855002403259e-02 -2.149324864149093628e-01
9.989848136901855469e-01 3.056951984763145447e-02 3.461797237396240234e-01
1.090590000152587891e+00 -5.061426013708114624e-02 2.716851234436035156e-01
3.452613949775695801e-02 -1.445048153400421143e-01 -1.772846281528472900e-01
1.048146605491638184e+00 9.019442647695541382e-02 -2.690635919570922852e-01
-2.296711802482604980e-01 -1.212465688586235046e-01 1.548330187797546387e-01
3.645281195640563965e-01 -1.706877201795578003e-01 -8.806179463863372803e-02
1.779417097568511963e-01 1.633863896131515503e-01 1.048097535967826843e-01
6.152573823928833008e-01 9.597969055175781250e-02 3.732707202434539795e-01
-2.593785524368286133e-01 9.465771913528442383e-02 -1.562154889106750488e-01
-2.143650054931640625e-01 5.030611157417297363e-02 -2.891626060009002686e-01
1.473550200462341309e-01 -1.229089498519897461e-01 3.234494924545288086e-01
3.572358489036560059e-01 1.737081557512283325e-01 -8.951982110738754272e-02
1.706358343362808228e-01 1.278434544801712036e-01 2.839795053005218506e-01
1.188467502593994141e+00 5.629524961113929749e-02 -2.303735166788101196e-01
3.314898610115051270e-01 -5.328346416354179382e-02 -4.243344366550445557e-01
3.953320682048797607e-01 1.711343377828598022e-01 -1.284224092960357666e-01
3.489590883255004883e-01 -1.636100262403488159e-01 -1.470216959714889526e-01
8.763434886932373047e-01 -1.457083225250244141e-01 4.204309359192848206e-02
7.921098470687866211e-01 5.559130012989044189e-02 3.943874835968017578e-01
5.310906767845153809e-01 7.089506089687347412e-02 -4.206226468086242676e-01
-3.178960084915161133e-01 4.579922556877136230e-02 2.485259324312210083e-01
3.039982914924621582e-01 6.327766180038452148e-02 4.255751967430114746e-01
-4.627879261970520020e-01 -2.131135016679763794e-02 -1.114702448248863220e-01
4.275299310684204102e-01 -1.591439247131347656e-01 -1.732092648744583130e-01
5.676557421684265137e-01 1.768262386322021484e-01 1.900872774422168732e-02
-1.326281428337097168e-01 1.025786027312278748e-01 2.410805970430374146e-01
5.669802427291870117e-03 -1.569610685110092163e-01 -7.570525258779525757e-02
8.349534273147583008e-01 -4.237816482782363892e-02 -3.855714499950408936e-01
3.159511387348175049e-01 1.657958030700683594e-01 1.421046406030654907e-01
7.768803834915161133e-01 1.657446771860122681e-01 6.021241843700408936e-02
3.634932339191436768e-01 -9.951414167881011963e-02 3.898080587387084961e-01
3.878818154335021973e-01 -1.064444407820701599e-01 -3.498600423336029053e-01
3.943712413311004639e-01 -1.465477496385574341e-01 2.678003907203674316e-01
7.830549478530883789e-01 -8.461029827594757080e-02 -3.424258530139923096e-01
5.415251851081848145e-01 -1.601286679506301880e-01 1.808966100215911865e-01
-3.606888651847839355e-01 -9.566589444875717163e-02 -6.811007112264633179e-02
1.609077453613281250e-01 1.141186356544494629e-01 -3.209958970546722412e-01
2.355568557977676392e-01 3.429890051484107971e-02 -4.349207878112792969e-01
2.950852215290069580e-01 1.006557866930961609e-01 3.698919415473937988e-01
6.029005050659179688e-01 -1.693539172410964966e-01 1.754157617688179016e-02
-1.606931686401367188e-01 1.287247836589813232e-01 7.231301069259643555e-02
2.781484127044677734e-01 1.511983722448348999e-01 2.189673930406570435e-01
9.511706829071044922e-01 -1.345142871141433716e-01 6.393492966890335083e-02
1.159655570983886719e+00 -8.969674259424209595e-02 -7.704044878482818604e-02
-1.569733619689941406e-01 -1.481699571013450623e-02 3.706496953964233398e-01
-4.447618722915649414e-01 -4.617531970143318176e-02 -1.080895736813545227e-01
-3.170416355133056641e-01 8.486818522214889526e-02 1.429683417081832886e-01
1.316048026084899902e+00 4.255979135632514954e-02 5.411243438720703125e-02
5.215562582015991211e-01 1.228716298937797546e-01 3.255378305912017822e-01
6.958740949630737305e-01 1.685831993818283081e-01 -1.095286011695861816e-01
4.655305147171020508e-01 -1.481833457946777344e-01 -2.243628650903701782e-01
-3.868799209594726562e-01 2.520444057881832123e-02 -1.907373964786529541e-01
1.018640398979187012e-02 9.586684405803680420e-02 -3.161328732967376709e-01
-2.772679924964904785e-02 1.062536239624023438e-01 -2.773911654949188232e-01
5.380605459213256836e-01 1.764953285455703735e-01 -6.248198077082633972e-02
1.086891412734985352e+00 -3.889061138033866882e-02 2.883934676647186279e-01
9.464328885078430176e-01 -1.065943166613578796e-01 2.361045181751251221e-01
1.084260702133178711e+00 -6.488211452960968018e-02 2.522395551204681396e-01
6.751641035079956055e-01 -1.239578723907470703e-01 -2.760388255119323730e-01
8.633121252059936523e-01 -1.353049278259277344e-01 -1.481260657310485840e-01
-1.087988615036010742e-01 -9.346909075975418091e-02 -2.787648141384124756e-01
6.167066693305969238e-01 1.390723288059234619e-01 -2.848603129386901855e-01
8.433518409729003906e-01 -1.112360581755638123e-01 2.760868668556213379e-01
-1.661832332611083984e-01 -9.283135831356048584e-02 -2.531550228595733643e-01
-3.335230350494384766e-01 7.895818352699279785e-02 -1.293269097805023193e-01
7.264112234115600586e-01 6.684655696153640747e-02 -4.048466682434082031e-01
-4.357248544692993164e-03 1.516074091196060181e-01 5.004829168319702148e-02
-4.276195764541625977e-01 -7.559850066900253296e-02 7.572568207979202271e-02
1.018051147460937500e+00 -7.414180040359497070e-02 -2.702437043190002441e-01
8.230196237564086914e-01 1.563351005315780640e-01 1.198027580976486206e-01
9.866294264793395996e-01 -1.267399191856384277e-01 9.185351431369781494e-02
1.086313962936401367e+00 1.304951906204223633e-01 9.915824979543685913e-03
-1.546989083290100098e-01 7.147920131683349609e-02 3.043732941150665283e-01
2.495174705982208252e-01 -1.742764264345169067e-01 2.366940677165985107e-02
-3.978663682937622070e-01 -5.108535289764404297e-02 2.008299380540847778e-01
1.086354732513427734e+00 -9.965848177671432495e-02 1.424453854560852051e-01
4.365941286087036133e-01 1.488952785730361938e-01 -2.582029104232788086e-01
1.280449509620666504e+00 -4.963320121169090271e-02 1.614235341548919678e-02
4.779211282730102539e-01 -1.683815419673919678e-01 1.327770352363586426e-01
-1.549404859542846680e-01 -7.846739143133163452e-02 -2.864929139614105225e-01
4.338298439979553223e-01 -1.310198158025741577e-01 -2.877867221832275391e-01
1.278068900108337402e+00 -3.508759662508964539e-02 1.062783747911453247e-01
-2.993381619453430176e-01 4.672015085816383362e-03 2.992939352989196777e-01
1.132086038589477539e+00 -5.520391836762428284e-02 2.348218262195587158e-01
-1.986728906631469727e-01 1.107841059565544128e-01 1.570430696010589600e-01
5.513464808464050293e-01 1.231907606124877930e-01 3.225976228713989258e-01
8.115229010581970215e-01 1.629105806350708008e-01 -8.821216970682144165e-02
2.927109003067016602e-01 1.627576202154159546e-01 -1.694662570953369141e-01
9.663557410240173340e-01 -1.318946629762649536e-01 -5.216655135154724121e-02
-2.091231942176818848e-02 -7.719573378562927246e-02 -3.386809229850769043e-01
4.834366738796234131e-01 9.314742684364318848e-02 3.882753551006317139e-01
3.699648380279541016e-02 1.543247997760772705e-01 -8.040565252304077148e-02
4.642354547977447510e-01 -1.541416198015213013e-01 2.294152528047561646e-01
8.136281371116638184e-02 3.384750336408615112e-02 -4.088918268680572510e-01
4.299670457839965820e-01 -1.665594577789306641e-01 1.580438911914825439e-01
2.261019647121429443e-01 -1.733899563550949097e-01 4.631552100181579590e-02
3.378746509552001953e-01 -1.284443736076354980e-01 -2.950124442577362061e-01
7.621422410011291504e-01 9.063324332237243652e-02 3.567670881748199463e-01
4.599919915199279785e-01 9.447381645441055298e-02 3.867083787918090820e-01
1.236937761306762695e+00 -6.375306844711303711e-02 7.661170512437820435e-02
-9.874337911605834961e-02 1.350118964910507202e-01 1.083071306347846985e-01
8.145595788955688477e-01 -1.511148512363433838e-01 7.764416188001632690e-02
7.249510884284973145e-01 1.455375552177429199e-01 -2.412360161542892456e-01
7.491028308868408203e-02 1.604028642177581787e-01 -3.147224336862564087e-02
1.264334201812744141e+00 -2.003344148397445679e-02 1.565939486026763916e-01
3.154847025871276855e-01 1.550013422966003418e-01 2.074885964393615723e-01
1.237403869628906250e+00 9.145057201385498047e-02 -3.170317783951759338e-02
1.245212793350219727e+00 -1.378393266350030899e-02 -1.949293166399002075e-01
1.992181837558746338e-01 1.353615820407867432e-01 2.657410800457000732e-01
-1.997588276863098145e-01 6.596022844314575195e-02 -2.751620411872863770e-01
2.375827282667160034e-01 -1.666292995214462280e-01 1.497450470924377441e-01
2.194233685731887817e-01 -1.695126295089721680e-01 1.159696504473686218e-01
7.030801773071289062e-01 -1.523290127515792847e-01 1.663775146007537842e-01
5.404819250106811523e-01 1.775191426277160645e-01 6.687958259135484695e-03
6.156383752822875977e-01 -1.158095821738243103e-01 -3.112181723117828369e-01
8.019970059394836426e-01 1.081874519586563110e-01 3.128654360771179199e-01
7.019028663635253906e-01 -6.122931372374296188e-04 -4.342673420906066895e-01
1.547532677650451660e-01 -1.650702208280563354e-01 1.367950439453125000e-01
1.277263522148132324e+00 -4.581797868013381958e-02 -7.163237035274505615e-02
1.275472879409790039e+00 7.605296373367309570e-02 -7.384686265140771866e-03
1.241463422775268555e-01 2.626716531813144684e-02 4.347159862518310547e-01
-9.622937440872192383e-02 -1.349810957908630371e-01 1.967995315790176392e-01
-1.608347296714782715e-01 8.872090280055999756e-02 -2.523973584175109863e-01
5.284579992294311523e-01 -1.666826009750366211e-01 1.334897726774215698e-01
5.161138176918029785e-01 -1.526905447244644165e-01 2.283162325620651245e-01
1.096256971359252930e-01 1.514085382223129272e-01 -1.655866503715515137e-01
1.070847511291503906e+00 -6.312639266252517700e-02 2.645062506198883057e-01
5.278294682502746582e-01 -1.724825054407119751e-01 3.393723815679550171e-02
-4.796596765518188477e-01 -1.316560991108417511e-02 1.185008287429809570e-01
-3.849968314170837402e-02 -6.715045869350433350e-02 3.790011703968048096e-01
9.509229660034179688e-01 -5.337125435471534729e-02 -3.360283672809600830e-01
-3.113192319869995117e-02 7.460590451955795288e-02 3.487302362918853760e-01
5.725394487380981445e-01 -1.600228250026702881e-01 -1.413559615612030029e-01
-2.962847352027893066e-01 1.018290445208549500e-01 6.039695814251899719e-02
6.432231664657592773e-01 1.716239452362060547e-01 7.830306887626647949e-02
8.246532082557678223e-01 5.166491866111755371e-02 3.898325562477111816e-01
1.061640501022338867e+00 6.500129401683807373e-02 -3.020189404487609863e-01
8.517386913299560547e-01 1.459639668464660645e-01 1.682674586772918701e-01
-3.140227198600769043e-01 -7.690931111574172974e-02 2.321549206972122192e-01
1.114735722541809082e+00 6.741198897361755371e-02 -2.685965299606323242e-01
1.156103372573852539e+00 9.441501647233963013e-02 1.538080871105194092e-01
8.323404192924499512e-01 4.008758440613746643e-02 -4.030749201774597168e-01
-3.158964514732360840e-01 -9.897086024284362793e-02 -1.205623596906661987e-01
-1.978707909584045410e-01 3.182402253150939941e-02 -3.152956068515777588e-01
-4.237493872642517090e-01 -7.991068810224533081e-02 -3.705709241330623627e-04
7.757610082626342773e-01 1.656892448663711548e-01 -8.649108558893203735e-02
4.598982930183410645e-01 -1.728284657001495361e-01 8.086041361093521118e-02
9.829447865486145020e-01 5.433969572186470032e-02 -3.477845191955566406e-01
-1.793249249458312988e-01 8.415567874908447266e-02 -2.518452703952789307e-01
8.931727409362792969e-01 1.106763929128646851e-01 2.763910889625549316e-01
1.953667253255844116e-01 -1.563518345355987549e-01 2.094032168388366699e-01
4.633218646049499512e-01 6.533490493893623352e-03 4.615721106529235840e-01
1.105654001235961914e+00 -1.843952387571334839e-02 2.936362922191619873e-01
7.671265602111816406e-01 1.686671972274780273e-01 5.512683652341365814e-03
7.269229888916015625e-01 1.485234498977661133e-01 2.077695578336715698e-01
6.651660799980163574e-01 1.616009883582592010e-02 -4.397213757038116455e-01
1.121216773986816406e+00 -1.311424933373928070e-02 2.868964970111846924e-01
9.804725050926208496e-01 -1.255111098289489746e-01 1.133249402046203613e-01
1.095511198043823242e+00 -8.660740405321121216e-02 1.873813420534133911e-01
1.006103992462158203e+00 1.022171229124069214e-01 -2.653346955776214600e-01
1.118052244186401367e+00 -1.020003631711006165e-01 -6.182863935828208923e-02
1.028040647506713867e+00 1.231011599302291870e-01 1.599450856447219849e-01
3.064296543598175049e-01 -1.601976305246353149e-01 2.033301740884780884e-01
-3.787043094635009766e-01 3.902962803840637207e-02 2.057542204856872559e-01
1.298526525497436523e-01 -4.091234877705574036e-02 -4.115993976593017578e-01
1.438462138175964355e-01 7.192395627498626709e-02 -3.898315429687500000e-01
2.218564301729202271e-01 -1.649092882871627808e-01 1.601304709911346436e-01
6.400892734527587891e-01 -1.278962343931198120e-01 2.957903742790222168e-01
4.369514584541320801e-01 -8.349017798900604248e-02 -3.903266191482543945e-01
4.877309799194335938e-01 8.184751123189926147e-02 -4.093988537788391113e-01
7.974635362625122070e-01 8.662185817956924438e-02 -3.675258159637451172e-01
-2.608679533004760742e-01 1.118968576192855835e-01 2.265594527125358582e-02
2.101046293973922729e-01 1.473012715578079224e-01 2.208871990442276001e-01
6.692143082618713379e-01 -7.634544372558593750e-02 -3.802718520164489746e-01
5.456753969192504883e-01 -1.691387444734573364e-01 -6.463401019573211670e-02
6.462572813034057617e-01 -1.669126152992248535e-01 1.549853011965751648e-02
-2.065932750701904297e-02 -8.828719705343246460e-02 -3.209536075592041016e-01
6.675652861595153809e-01 1.450935602188110352e-01 2.376073449850082397e-01
6.271499395370483398e-01 -1.817678287625312805e-02 4.464475214481353760e-01
3.879910707473754883e-01 -1.357494145631790161e-01 3.054431974887847900e-01
3.218526840209960938e-01 -1.033423319458961487e-01 3.824230432510375977e-01
1.358018219470977783e-01 1.640441417694091797e-01 5.803984776139259338e-02
1.226048469543457031e+00 5.259488150477409363e-02 1.823284327983856201e-01
6.247699260711669922e-01 1.460215896368026733e-01 2.422300577163696289e-01
4.829965233802795410e-01 -1.500205546617507935e-01 2.459333688020706177e-01
1.840216815471649170e-01 1.688908189535140991e-01 1.336232014000415802e-02
2.341364473104476929e-01 1.718541830778121948e-01 3.331580199301242828e-03
7.285143136978149414e-01 1.694743633270263672e-01 4.978029429912567139e-02
8.913288116455078125e-01 -5.736518278717994690e-02 -3.523755073547363281e-01
3.638423383235931396e-01 -1.754298955202102661e-01 3.680110722780227661e-02
6.361576318740844727e-01 -7.674808055162429810e-02 -3.847397565841674805e-01
1.029827117919921875e+00 -1.226424276828765869e-01 -2.340228296816349030e-02
4.448978602886199951e-01 -1.744015663862228394e-01 -1.281760632991790771e-02
3.798063397407531738e-01 -1.612917184829711914e-01 1.980913579463958740e-01
7.805176377296447754e-01 -1.528887003660202026e-01 -7.665645331144332886e-02
-2.751278877258300781e-02 1.491159349679946899e-01 4.665203392505645752e-02
7.188668251037597656e-01 -1.599135100841522217e-01 7.922226190567016602e-02
4.233109951019287109e-02 -1.490952968597412109e-01 1.994113326072692871e-01
4.940804541110992432e-01 1.089516207575798035e-01 -3.671064078807830811e-01
9.588051438331604004e-01 9.249886870384216309e-02 -3.077218234539031982e-01
1.186312675476074219e+00 3.891826421022415161e-02 -2.494689822196960449e-01
-3.116700649261474609e-01 8.140674978494644165e-02 -1.482449173927307129e-01
7.282925844192504883e-01 1.420854926109313965e-01 2.342296242713928223e-01
8.507262468338012695e-01 1.042086333036422729e-01 3.067476749420166016e-01
-2.927390336990356445e-01 -2.670174092054367065e-02 3.030728101730346680e-01
2.757030725479125977e-01 -1.393788754940032959e-01 2.911864519119262695e-01
4.394266009330749512e-02 1.529873758554458618e-01 1.006271913647651672e-01
5.898056030273437500e-01 -1.326228231191635132e-01 -2.663024961948394775e-01
1.149620413780212402e+00 -5.862098187208175659e-04 2.726558446884155273e-01
1.353269815444946289e-02 5.470376461744308472e-02 3.887607157230377197e-01
9.413093924522399902e-01 -1.281322687864303589e-01 -1.254418194293975830e-01
5.830185413360595703e-01 7.559224218130111694e-02 4.070883393287658691e-01
-2.295682430267333984e-01 -1.294404268264770508e-01 -4.298602417111396790e-02
4.043041765689849854e-01 -1.702413409948348999e-01 1.277586072683334351e-01
3.709969222545623779e-01 -1.526129394769668579e-01 -2.084496468305587769e-01
8.554716110229492188e-01 -1.485065519809722900e-01 2.976950630545616150e-02
1.796235442161560059e-01 -1.029360294342041016e-01 -3.400171101093292236e-01
-3.195913434028625488e-01 2.613950753584504128e-03 2.871192991733551025e-01
8.141241073608398438e-01 4.367106407880783081e-02 3.987406492233276367e-01
2.842483818531036377e-01 -1.306492984294891357e-01 3.186360895633697510e-01
-3.713698983192443848e-01 2.586034871637821198e-02 2.314428985118865967e-01
1.197931528091430664e+00 1.045905202627182007e-01 -7.858593016862869263e-03
8.479478955268859863e-02 -7.917992025613784790e-02 3.937590122222900391e-01
1.204029083251953125e+00 1.026600673794746399e-01 -2.586320415139198303e-02
1.263558030128479004e+00 8.106981217861175537e-02 -3.160454705357551575e-02
1.522940993309020996e-01 1.638780832290649414e-01 7.899773865938186646e-02
3.036348223686218262e-01 1.684866845607757568e-01 -1.285395324230194092e-01
3.709274530410766602e-01 8.891299366950988770e-02 3.950668573379516602e-01
5.066783428192138672e-01 1.775411069393157959e-01 -4.148356243968009949e-02
9.485739469528198242e-01 -1.319880485534667969e-01 -8.449294418096542358e-02
7.692487239837646484e-01 -1.455965191125869751e-01 1.710488498210906982e-01
2.771620154380798340e-01 1.560251414775848389e-01 -2.047264575958251953e-01
1.692426353693008423e-01 1.639632284641265869e-01 9.233738481998443604e-02
6.809774041175842285e-02 -1.090237423777580261e-01 -3.044053018093109131e-01
8.176338076591491699e-01 1.651136428117752075e-01 -8.851310238242149353e-03
-3.037869930267333984e-01 -1.169810444116592407e-01 3.472553193569183350e-02
5.818474292755126953e-01 -1.621803045272827148e-01 -1.216720342636108398e-01
2.777323126792907715e-01 -8.653110265731811523e-02 -3.804325759410858154e-01
-2.798601388931274414e-01 -1.218922212719917297e-01 4.955997318029403687e-02
6.854430437088012695e-01 -7.547356653958559036e-03 -4.351952075958251953e-01
1.021905541419982910e+00 1.352309137582778931e-01 -1.207512319087982178e-01
8.514516353607177734e-01 1.589234322309494019e-01 -9.570235013961791992e-02
1.261068344116210938e+00 6.834360212087631226e-02 -1.215703487396240234e-01
6.234960556030273438e-01 -1.393741071224212646e-01 2.608366012573242188e-01
1.053039789199829102e+00 -1.187720224261283875e-01 6.593936588615179062e-03
4.006223976612091064e-01 2.328787371516227722e-02 4.580695629119873047e-01
8.876734972000122070e-01 8.319605141878128052e-02 3.336591720581054688e-01
1.046407341957092285e+00 -8.358413726091384888e-02 -2.300195991992950439e-01
1.203726649284362793e+00 8.592232316732406616e-02 1.267367303371429443e-01
8.443598747253417969e-01 1.035367771983146667e-01 -3.268122971057891846e-01
3.630211949348449707e-02 1.270258724689483643e-01 2.433798313140869141e-01
7.330037355422973633e-01 1.709210872650146484e-01 -1.210227422416210175e-02
8.474562168121337891e-01 -1.473910808563232422e-01 -5.706669762730598450e-02
-1.524572968482971191e-01 5.847793817520141602e-02 3.265478909015655518e-01
-7.143658399581909180e-02 8.082314580678939819e-02 3.233544230461120605e-01
4.819265902042388916e-01 1.552642732858657837e-01 -2.326000481843948364e-01
-5.888292193412780762e-02 -1.543276757001876831e-01 7.175047695636749268e-02
9.098135232925415039e-01 1.563210189342498779e-01 -2.971985004842281342e-02
3.484361767768859863e-01 -1.528688222169876099e-01 2.420682013034820557e-01
5.080830454826354980e-01 -1.732603609561920166e-01 1.679531298577785492e-02
8.567548990249633789e-01 -1.209851652383804321e-01 -2.205072939395904541e-01
1.136727571487426758e+00 1.203320622444152832e-01 -6.489795166999101639e-03
-8.956921100616455078e-02 1.214998513460159302e-01 1.979037523269653320e-01
1.243339419364929199e+00 8.036866039037704468e-02 8.418448269367218018e-02
9.686307311058044434e-01 -1.330328732728958130e-01 -2.021506428718566895e-02
9.933600425720214844e-01 -4.001721739768981934e-02 3.358928561210632324e-01
3.409288525581359863e-01 -9.253847599029541016e-02 -3.746781647205352783e-01
9.083091020584106445e-01 -1.419133245944976807e-01 -1.091673038899898529e-02
7.963939905166625977e-01 -1.101410910487174988e-01 2.980965673923492432e-01
7.202295064926147461e-01 1.230267211794853210e-01 2.973870933055877686e-01
7.676475048065185547e-01 8.339222520589828491e-02 -3.784106969833374023e-01
5.980867147445678711e-01 -1.370159685611724854e-01 -2.492740750312805176e-01
-4.143963456153869629e-01 6.633641570806503296e-02 1.559205166995525360e-02
-1.223998069763183594e-01 -1.448902487754821777e-01 1.023935750126838684e-01
-3.631782531738281250e-01 8.220576494932174683e-02 6.765814125537872314e-02
1.232631921768188477e+00 9.309393912553787231e-02 8.617004379630088806e-03
-1.519668102264404297e-02 -1.157366409897804260e-01 3.011488020420074463e-01
6.602494120597839355e-01 -7.276512915268540382e-04 -4.399381577968597412e-01
8.417633175849914551e-01 -1.459858119487762451e-01 -8.333467692136764526e-02
6.791206598281860352e-01 1.606616079807281494e-01 1.584155112504959106e-01
2.534146308898925781e-01 1.607238501310348511e-01 -1.705469787120819092e-01
-6.076216697692871094e-03 -1.029485240578651428e-01 -2.967374026775360107e-01
2.266042381525039673e-01 -1.380808204412460327e-01 2.907444536685943604e-01
1.136967897415161133e+00 1.121974140405654907e-01 9.511194378137588501e-02
9.963526129722595215e-01 -5.043036490678787231e-02 -3.208271563053131104e-01
6.155369877815246582e-01 -1.669473499059677124e-01 7.873568683862686157e-02
3.642277121543884277e-01 1.598033010959625244e-01 -2.021622508764266968e-01
3.990423679351806641e-02 -8.074565231800079346e-02 3.824075758457183838e-01
8.606042265892028809e-01 1.559682935476303101e-01 9.315670281648635864e-02
2.369038909673690796e-01 -9.532572329044342041e-02 -3.619116842746734619e-01
1.092100739479064941e-01 -1.373691856861114502e-01 -2.329122126102447510e-01
-1.442270874977111816e-01 -9.583074599504470825e-02 -2.574534118175506592e-01
5.173908472061157227e-01 -1.601430028676986694e-01 1.870013326406478882e-01
7.333927750587463379e-01 -1.431724876165390015e-01 2.045707851648330688e-01
5.859256386756896973e-01 -1.089886203408241272e-02 4.528653919696807861e-01
3.245290815830230713e-01 -1.724218279123306274e-01 1.035377308726310730e-01
-2.394208908081054688e-01 1.890843175351619720e-02 -3.016235828399658203e-01
-2.128927111625671387e-01 -9.021037071943283081e-02 -2.329925596714019775e-01
4.920619726181030273e-01 -1.708007007837295532e-01 -6.586075574159622192e-02
-5.836871266365051270e-02 1.269129067659378052e-01 -1.911363303661346436e-01
7.199338674545288086e-01 -1.355265974998474121e-01 2.447228729724884033e-01
-4.213380813598632812e-02 -1.411588340997695923e-01 1.987414807081222534e-01
-2.213894724845886230e-01 1.123381480574607849e-01 -1.104911640286445618e-01
2.956984937191009521e-01 1.475172191858291626e-01 2.383358925580978394e-01
-3.421404957771301270e-02 1.188456863164901733e-01 -2.370084226131439209e-01
1.590254604816436768e-01 -1.529049128293991089e-01 2.190985977649688721e-01
3.386922776699066162e-01 1.754268854856491089e-01 -4.636760056018829346e-02
4.332494735717773438e-02 1.467177271842956543e-01 1.513890177011489868e-01
-2.614197731018066406e-01 -8.173847198486328125e-02 2.607773542404174805e-01
9.614983797073364258e-01 -1.036453619599342346e-02 3.658318817615509033e-01
5.396494269371032715e-02 7.611645013093948364e-02 3.709621131420135498e-01
1.196127653121948242e+00 7.469918578863143921e-02 1.696879714727401733e-01
4.494409859180450439e-01 -1.703536361455917358e-01 1.189660951495170593e-01
9.132249355316162109e-01 1.307427883148193359e-01 -2.269499599933624268e-01
1.561632752418518066e-01 -1.703311353921890259e-01 -2.072042226791381836e-02
7.461696863174438477e-02 1.311916112899780273e-01 -2.442207783460617065e-01
8.448447585105895996e-01 6.186134368181228638e-02 -3.848756551742553711e-01
5.433954596519470215e-01 6.058280915021896362e-02 4.273443222045898438e-01
-3.689259290695190430e-03 1.073080003261566162e-01 -2.848881483078002930e-01
1.209435224533081055e+00 6.711696833372116089e-02 1.731231361627578735e-01
4.353668689727783203e-01 1.544611454010009766e-01 2.212117761373519897e-01
1.014838457107543945e+00 1.411833018064498901e-01 -6.953833252191543579e-02
5.772253870964050293e-02 -1.471788883209228516e-01 -1.737888157367706299e-01
1.013246774673461914e+00 9.169777482748031616e-02 2.654697299003601074e-01
3.590620756149291992e-01 -5.443422123789787292e-02 2.385313659906387329e-01
1.050785183906555176e-01 -1.179248690605163574e-01 -2.764967978000640869e-01
8.205893635749816895e-02 8.561491966247558594e-02 -2.874776721000671387e-01
-5.706831812858581543e-01 -1.129269972443580627e-01 -1.712514609098434448e-01
7.016628980636596680e-03 1.007166057825088501e-01 -2.881073951721191406e-01
-4.040841460227966309e-01 1.742861866950988770e-01 -1.369987130165100098e-01
-1.768593341112136841e-01 -1.153839752078056335e-01 -3.016698062419891357e-01
-3.809860348701477051e-01 -1.346158087253570557e-01 -2.136914879083633423e-01
-6.334589719772338867e-01 -1.153011769056320190e-01 1.167175918817520142e-01
-2.390002608299255371e-01 1.815522015094757080e-01 -6.951949745416641235e-02
-7.360814213752746582e-01 -9.033524245023727417e-02 7.613854110240936279e-02
-3.833978176116943359e-01 1.745208948850631714e-01 1.422716528177261353e-01
1.576125621795654297e-02 -1.213384121656417847e-01 2.998021841049194336e-01
-4.899874925613403320e-01 1.702548265457153320e-01 1.435074508190155029e-01
-1.342813968658447266e-01 1.542787253856658936e-01 1.943300813436508179e-01
-7.013688087463378906e-01 6.010603159666061401e-02 2.839340269565582275e-01
-3.000776171684265137e-01 1.850920915603637695e-01 -4.603039473295211792e-02
1.162667572498321533e-01 -1.371112652122974396e-02 -3.502458333969116211e-01
-8.648406863212585449e-01 1.038432493805885315e-01 -3.515892475843429565e-02
-5.884764790534973145e-01 1.584513932466506958e-01 -1.475739926099777222e-01
2.063027024269104004e-01 1.248819157481193542e-01 -5.208992213010787964e-02
6.164941191673278809e-02 -1.660240292549133301e-01 -1.600471884012222290e-01
-5.435875654220581055e-01 -1.345959156751632690e-01 1.235539019107818604e-01
-3.322564661502838135e-01 1.727928817272186279e-01 1.524613499641418457e-01
-8.272043466567993164e-01 1.182952970266342163e-01 7.780048996210098267e-02
-2.460660338401794434e-01 1.744860708713531494e-01 1.311587691307067871e-01
6.374898552894592285e-02 -1.470340490341186523e-01 -2.231895178556442261e-01
-7.321952581405639648e-01 1.493035405874252319e-01 6.627710163593292236e-02
-3.861019611358642578e-01 1.297540813684463501e-01 2.845580875873565674e-01
-3.293796479701995850e-01 1.867884397506713867e-01 -9.264468215405941010e-03
1.026820838451385498e-01 -3.601649031043052673e-02 -3.509972691535949707e-01
3.841909766197204590e-01 -6.976952403783798218e-02 -2.065934091806411743e-01
2.425177395343780518e-01 9.572772681713104248e-02 -1.658084541559219360e-01
-4.491494596004486084e-02 1.244432851672172546e-01 -2.551373839378356934e-01
-2.189770042896270752e-01 -1.712567657232284546e-01 1.471322029829025269e-01
3.062744438648223877e-02 -1.835992038249969482e-01 7.058008015155792236e-02
-1.006503477692604065e-01 -1.859801560640335083e-01 5.367730930447578430e-02
2.343237102031707764e-01 1.126100644469261169e-01 9.525839239358901978e-02
-4.392091035842895508e-01 1.838886439800262451e-01 -5.020650476217269897e-02
2.717151939868927002e-01 5.903865024447441101e-02 -2.298119366168975830e-01
-4.091721773147583008e-01 3.924416378140449524e-02 -3.680737018585205078e-01
-1.595509499311447144e-01 -1.601585070602595806e-03 3.994111716747283936e-01
-2.271115630865097046e-01 -9.392022341489791870e-02 3.460668921470642090e-01
1.569945216178894043e-01 1.259884834289550781e-01 1.264220327138900757e-01
-4.882571697235107422e-01 1.386078894138336182e-01 2.508901655673980713e-01
-6.178253889083862305e-02 -1.850705891847610474e-01 -5.473163351416587830e-02
-3.389037251472473145e-01 -1.710464060306549072e-01 -4.371092095971107483e-02
-4.515981078147888184e-01 -9.389243274927139282e-02 -2.803228199481964111e-01
-1.494124531745910645e-03 8.502688258886337280e-02 -3.154465854167938232e-01
1.720084249973297119e-01 8.541084080934524536e-02 -2.452343702316284180e-01
1.040203273296356201e-01 -2.428001537919044495e-02 3.590278029441833496e-01
-7.431393861770629883e-02 -1.599914282560348511e-01 2.148035913705825806e-01
-7.610468864440917969e-01 -4.967709630727767944e-02 1.912303268909454346e-01
3.303307294845581055e-01 -5.831964313983917236e-02 -2.521942853927612305e-01
4.971196651458740234e-01 -7.176034897565841675e-02 -7.371248677372932434e-03
-2.300634980201721191e-01 -6.718862801790237427e-02 3.739713728427886963e-01
-5.590253472328186035e-01 1.640332341194152832e-01 1.462058275938034058e-01
6.659448146820068359e-02 -1.831208765506744385e-01 -3.883060440421104431e-02
2.780778110027313232e-01 -1.343488991260528564e-01 1.798903197050094604e-01
2.796436250209808350e-01 8.013893663883209229e-02 1.738670170307159424e-01
-3.877298533916473389e-01 -3.170157968997955322e-02 3.795609176158905029e-01
2.038103342056274414e-01 1.268655359745025635e-01 2.178390324115753174e-02
-2.908837199211120605e-01 1.070602461695671082e-01 3.270613849163055420e-01
-4.496958851814270020e-02 -2.721741562709212303e-03 -3.812130093574523926e-01
-1.221910789608955383e-01 1.567850559949874878e-01 -1.797296702861785889e-01
-3.163123130798339844e-02 1.198193803429603577e-01 2.623290419578552246e-01
-4.544729590415954590e-01 2.735108509659767151e-02 -3.627130985260009766e-01
-7.271822690963745117e-01 3.406403213739395142e-02 -2.610785961151123047e-01
-2.668383419513702393e-01 1.350582689046859741e-01 -2.699329555034637451e-01
-4.873572587966918945e-01 -1.529726088047027588e-01 -1.910394057631492615e-03
-1.400028169155120850e-01 -1.819154620170593262e-01 -7.520179450511932373e-02
-2.406759262084960938e-01 1.515840590000152588e-01 -2.247574329376220703e-01
-2.186839729547500610e-01 1.409465074539184570e-01 2.548612654209136963e-01
-7.173042297363281250e-01 1.336326301097869873e-01 -1.488403081893920898e-01
-8.364859819412231445e-01 3.485532477498054504e-02 1.961321234703063965e-01
-6.970661878585815430e-01 -1.059395968914031982e-01 3.320632874965667725e-02
