1.019221171736717224e-01 5.127778649330139160e-01 -3.078489601612091064e-01
-1.569919884204864502e-01 5.468090772628784180e-01 1.396346986293792725e-01
-1.064254641532897949e-01 -1.886649578809738159e-01 -5.223981738090515137e-01
6.119448542594909668e-01 9.771567583084106445e-02 -1.513976305723190308e-01
2.276758290827274323e-02 3.354281485080718994e-01 -4.778182208538055420e-01
5.765613913536071777e-01 1.762968152761459351e-01 1.921376585960388184e-01
4.352656304836273193e-01 7.536091655492782593e-02 4.051117599010467529e-01
3.073200285434722900e-01 -9.490757435560226440e-02 4.879154264926910400e-01
-2.534701824188232422e-01 -1.044822409749031067e-01 -5.073367357254028320e-01
5.883539915084838867e-01 1.860585510730743408e-01 1.561042666435241699e-01
4.918977618217468262e-01 1.004004925489425659e-01 -3.542872965335845947e-01
2.120980918407440186e-01 -5.162004008889198303e-02 5.314732193946838379e-01
-1.399897485971450806e-01 2.937574088573455811e-01 -4.795583188533782959e-01
-4.134292900562286377e-01 -1.165748015046119690e-01 4.382074177265167236e-01
-8.062742650508880615e-03 -6.834848970174789429e-02 5.660187005996704102e-01
-1.079758331179618835e-01 5.685595870018005371e-01 1.095124855637550354e-01
-4.474375844001770020e-01 -1.802213340997695923e-01 4.000730514526367188e-01
5.896810293197631836e-01 2.262539118528366089e-01 -1.262969970703125000e-01
5.749834775924682617e-01 -2.243544161319732666e-01 -5.289951711893081665e-02
4.490340948104858398e-01 -3.376513421535491943e-01 -2.058531939983367920e-01
-2.711585164070129395e-01 2.474058419466018677e-01 4.378686547279357910e-01
-3.903742432594299316e-01 -1.621141880750656128e-01 -4.258379042148590088e-01
-3.252319991588592529e-01 -5.363986492156982422e-01 1.750610172748565674e-01
4.410219490528106689e-01 6.807372719049453735e-02 -4.054939448833465576e-01
-1.482149064540863037e-01 2.223045676946640015e-01 -5.090766549110412598e-01
-6.226280927658081055e-01 1.087340805679559708e-02 -1.456165462732315063e-01
6.024486422538757324e-01 -1.599386334419250488e-01 -4.553121328353881836e-02
-2.414016276597976685e-01 4.885142743587493896e-01 -2.404861003160476685e-01
-3.114958703517913818e-01 2.949619889259338379e-01 -4.038799107074737549e-01
-5.418966412544250488e-01 2.900609076023101807e-01 1.074152812361717224e-02
-1.327631622552871704e-02 1.917080879211425781e-01 5.254145264625549316e-01
1.580735594034194946e-01 5.338628292083740234e-01 -2.572448253631591797e-01
1.708620190620422363e-01 -5.624843835830688477e-01 -1.203505024313926697e-01
5.249779224395751953e-01 -1.591655164957046509e-01 2.766806781291961670e-01
3.670009672641754150e-01 4.739373326301574707e-01 -1.996467858552932739e-01
-3.658039867877960205e-01 4.361642599105834961e-01 -1.867347955703735352e-01
-2.651205062866210938e-01 1.044552773237228394e-01 -5.024966597557067871e-01
-4.418692588806152344e-01 -2.647972106933593750e-01 -3.430759906768798828e-01
1.781885474920272827e-01 -3.130272626876831055e-01 -4.388549923896789551e-01
-4.496263563632965088e-01 3.542919158935546875e-01 -1.954602599143981934e-01
-3.343089222908020020e-01 -4.775214493274688721e-01 -2.319933772087097168e-01
-7.233894616365432739e-02 4.027933776378631592e-01 -4.223964214324951172e-01
-2.201546281576156616e-01 -4.598012268543243408e-01 3.703304231166839600e-01
1.329870969057083130e-01 5.876358151435852051e-01 6.707488000392913818e-02
6.062353253364562988e-01 2.190152853727340698e-01 -4.197719693183898926e-02
-3.187152743339538574e-01 -4.929483532905578613e-01 2.709379196166992188e-01
2.220977246761322021e-01 5.429875254631042480e-01 -2.011658996343612671e-01
-6.453788876533508301e-01 -7.897906005382537842e-03 -3.959102928638458252e-02
3.293628692626953125e-01 5.325989127159118652e-01 -6.425765156745910645e-02
4.202247560024261475e-01 4.398978352546691895e-01 -1.858507543802261353e-01
-1.898834854364395142e-01 5.238605141639709473e-01 -2.128681987524032593e-01
1.350288242101669312e-01 3.446844816207885742e-01 -4.616838693618774414e-01
4.568260014057159424e-01 -3.952567875385284424e-01 9.025588631629943848e-02
2.908289134502410889e-01 -5.104516744613647461e-01 1.604037880897521973e-01
-2.528515160083770752e-01 -4.220062792301177979e-01 3.921292722225189209e-01
-5.988894104957580566e-01 -2.607135474681854248e-01 1.154269799590110779e-01
-3.959650099277496338e-01 2.126281410455703735e-01 3.782863616943359375e-01
-3.302894532680511475e-01 4.617284238338470459e-01 -1.869026869535446167e-01
-1.376095563173294067e-01 4.030925631523132324e-01 3.752036094665527344e-01
-6.910812854766845703e-02 -5.968239307403564453e-01 1.863768696784973145e-01
2.699820995330810547e-01 -2.107859402894973755e-01 -4.561428129673004150e-01
3.762564808130264282e-02 -7.854462414979934692e-02 5.637435317039489746e-01
-5.197414755821228027e-01 -1.222421675920486450e-01 3.403557240962982178e-01
1.186522096395492554e-01 -5.995401740074157715e-01 4.853964596986770630e-02
-4.527597427368164062e-01 -4.786606431007385254e-01 2.070764545351266861e-03
-2.154510468244552612e-01 3.734044730663299561e-01 3.723412752151489258e-01
-3.621141612529754639e-02 -1.135624572634696960e-01 -5.474848151206970215e-01
1.739566326141357422e-01 -4.699474275112152100e-01 3.423412740230560303e-01
-4.441965520381927490e-01 2.804962992668151855e-01 2.783618569374084473e-01
-4.964220821857452393e-01 -2.975747287273406982e-01 2.955650389194488525e-01
2.405488938093185425e-01 -3.727735951542854309e-02 5.221287012100219727e-01
6.354636698961257935e-02 -5.730309057980775833e-03 -5.578116774559020996e-01
-1.588376313447952271e-01 5.116380453109741211e-01 2.216358184814453125e-01
3.191501796245574951e-01 -2.110007107257843018e-01 4.510595798492431641e-01
-4.754752516746520996e-01 -4.029451906681060791e-01 2.141379117965698242e-01
2.520962059497833252e-01 -4.583958685398101807e-01 -2.631548941135406494e-01
-3.635956048965454102e-01 -2.432246655225753784e-01 -4.125750660896301270e-01
6.642826646566390991e-02 4.399686753749847412e-01 3.633345961570739746e-01
-5.380300283432006836e-01 2.892601788043975830e-01 5.558922886848449707e-02
3.048192262649536133e-01 5.349624752998352051e-01 7.928331196308135986e-02
1.591022759675979614e-01 -2.087137848138809204e-01 -4.978700876235961914e-01
3.329658880829811096e-02 7.353152334690093994e-02 5.562940835952758789e-01
2.177277505397796631e-01 3.783804550766944885e-02 -5.276330709457397461e-01
5.330134034156799316e-01 -2.736116051673889160e-01 -1.215410158038139343e-01
-3.998098075389862061e-01 -4.104444682598114014e-01 3.030731081962585449e-01
-4.000181555747985840e-01 1.533550117164850235e-02 -4.398136138916015625e-01
-5.562528371810913086e-01 -3.410218656063079834e-01 1.267431378364562988e-01
-9.850096702575683594e-02 -6.132662296295166016e-01 1.121960133314132690e-01
-5.860618352890014648e-01 2.078529894351959229e-01 -5.703276395797729492e-02
-6.446849554777145386e-02 -3.386903703212738037e-01 -4.567221403121948242e-01
-6.085804104804992676e-01 -1.123679354786872864e-01 -1.796844303607940674e-01
2.363401930779218674e-03 5.310680866241455078e-01 2.408828884363174438e-01
-5.795900896191596985e-02 -5.859443545341491699e-01 2.174234092235565186e-01
-2.180504947900772095e-01 1.728520244359970093e-01 4.948865473270416260e-01
4.768099188804626465e-01 1.467485874891281128e-01 3.497229516506195068e-01
4.028312563896179199e-01 4.901725351810455322e-01 -2.723863720893859863e-02
-2.226341217756271362e-01 -5.930576324462890625e-01 1.058397665619850159e-01
5.562390089035034180e-01 -2.637572288513183594e-01 -3.908613324165344238e-02
2.411098629236221313e-01 -5.028691887855529785e-01 2.450150549411773682e-01
5.163103342056274414e-01 1.850088834762573242e-01 2.881275713443756104e-01
-4.573869705200195312e-01 -1.929930597543716431e-01 -3.637273907661437988e-01
-5.318467020988464355e-01 1.828146725893020630e-01 2.418270409107208252e-01
8.526092767715454102e-02 -1.352590173482894897e-01 -5.363535284996032715e-01
2.801360487937927246e-01 5.387064814567565918e-01 -1.514768004417419434e-01
6.122073531150817871e-01 6.779248826205730438e-03 -1.564591228961944580e-01
3.067298531532287598e-01 7.625351846218109131e-02 4.870338439941406250e-01
6.051410436630249023e-01 1.623098403215408325e-01 -1.384733170270919800e-01
-5.885726213455200195e-02 -5.720951557159423828e-01 -1.941079348325729370e-01
3.633870780467987061e-01 4.757471978664398193e-01 1.614083945751190186e-01
1.519906222820281982e-01 -5.466899648308753967e-02 5.479964613914489746e-01
6.158170104026794434e-01 -6.160977482795715332e-02 1.216512769460678101e-01
2.996745109558105469e-01 4.084867537021636963e-01 3.175087273120880127e-01
-1.769624948501586914e-01 3.885737955570220947e-01 3.749554157257080078e-01
-3.093515336513519287e-01 3.865426778793334961e-01 2.997520565986633301e-01
-4.610466063022613525e-01 2.613697946071624756e-01 2.757352590560913086e-01
-5.076771378517150879e-01 1.064044907689094543e-01 3.228183686733245850e-01
-5.000903010368347168e-01 -1.521341204643249512e-01 -3.359999656677246094e-01
-4.570372998714447021e-01 -6.442791968584060669e-02 4.072689712047576904e-01
4.855163395404815674e-01 3.832556903362274170e-01 -1.670801192522048950e-01
2.365259528160095215e-01 5.421876311302185059e-01 -1.909512728452682495e-01
2.527054846286773682e-01 1.577778458595275879e-01 4.917663633823394775e-01
-2.323478758335113525e-01 -5.499140620231628418e-01 2.354649603366851807e-01
1.138792708516120911e-01 -3.034164309501647949e-01 4.935414791107177734e-01
1.937956362962722778e-01 -3.300849199295043945e-01 -4.217603504657745361e-01
2.554767765104770660e-02 -5.953884124755859375e-01 1.772100627422332764e-01
-3.480082154273986816e-01 5.861051380634307861e-02 -4.687272012233734131e-01
6.201243996620178223e-01 8.434013277292251587e-02 -1.272119581699371338e-01
-4.848596751689910889e-01 2.211131155490875244e-01 2.803434431552886963e-01
2.146140038967132568e-01 -5.447939038276672363e-01 -1.234941706061363220e-01
4.152694344520568848e-01 4.504847228527069092e-01 -1.715787947177886963e-01
-4.102698564529418945e-01 -5.108603835105895996e-01 5.682778358459472656e-02
3.975878059864044189e-01 2.917828261852264404e-01 -3.710564970970153809e-01
-1.677006036043167114e-01 1.605436950922012329e-01 -5.231862068176269531e-01
5.872210860252380371e-01 -9.183439612388610840e-02 -1.835420131683349609e-01
-2.811615727841854095e-02 1.663752049207687378e-01 -5.436285734176635742e-01
1.442105919122695923e-01 5.202234387397766113e-01 2.437891960144042969e-01
3.628990799188613892e-02 -4.713613074272871017e-03 5.644975304603576660e-01
-2.760670185089111328e-01 -5.794996619224548340e-01 7.743337750434875488e-02
-2.178547233343124390e-01 -2.128245979547500610e-01 -4.903037846088409424e-01
2.825255692005157471e-01 -1.030388399958610535e-01 4.988105893135070801e-01
3.893006443977355957e-01 1.710996180772781372e-01 -4.281948208808898926e-01
7.809562981128692627e-02 -5.363081693649291992e-01 -2.398763000965118408e-01
1.767437160015106201e-01 -5.711165070533752441e-01 1.325907409191131592e-01
3.245744705200195312e-01 -1.661176830530166626e-01 -4.458904862403869629e-01
-4.002472460269927979e-01 -5.113536715507507324e-01 -5.245620757341384888e-02
6.030650138854980469e-01 2.052632570266723633e-01 -9.903071820735931396e-02
-1.661460697650909424e-01 4.910559654235839844e-01 2.538678646087646484e-01
-4.181604385375976562e-01 -6.421806663274765015e-02 4.379338324069976807e-01
-4.285753369331359863e-01 -4.176846444606781006e-01 2.625336647033691406e-01
1.096907444298267365e-02 1.397818624973297119e-01 -5.502372384071350098e-01
6.092966794967651367e-01 -4.182535409927368164e-02 1.543989926576614380e-01
-6.109877824783325195e-01 -1.707252860069274902e-01 -1.446792036294937134e-01
-4.480378329753875732e-01 -3.114916980266571045e-01 -3.061952888965606689e-01
-1.451269835233688354e-01 3.352820575237274170e-01 -4.540559947490692139e-01
7.919212803244590759e-03 4.873872995376586914e-01 3.085998594760894775e-01
8.674632757902145386e-02 -6.052583456039428711e-01 -1.716314628720283508e-02
-3.613862395286560059e-01 4.340094625949859619e-01 1.673772782087326050e-01
-4.202773272991180420e-01 -3.305459618568420410e-01 -3.178150057792663574e-01
-6.325125694274902344e-01 -1.267538070678710938e-01 -9.787820279598236084e-02
9.707816690206527710e-02 -6.049807667732238770e-01 3.905775398015975952e-02
-1.518583297729492188e-01 1.567006409168243408e-01 -5.280968546867370605e-01
-3.172269761562347412e-01 -2.544648945331573486e-02 -4.885909259319305420e-01
6.205762028694152832e-01 1.678043156862258911e-01 -4.883345216512680054e-02
-3.120144605636596680e-01 4.542974829673767090e-01 -2.287746071815490723e-01
2.767393290996551514e-01 -5.348148941993713379e-01 8.532676100730895996e-02
5.203925967216491699e-01 3.192259669303894043e-01 -1.937215924263000488e-01
-5.572766661643981934e-01 2.454452365636825562e-01 -1.115820035338401794e-01
5.550613403320312500e-01 2.655244991183280945e-02 -2.774560153484344482e-01
-5.031337141990661621e-01 -3.512180745601654053e-01 2.364172041416168213e-01
3.032827675342559814e-01 5.383455157279968262e-01 -1.112674549221992493e-01
-4.476783275604248047e-01 3.597151935100555420e-01 1.648038327693939209e-01
-6.356943249702453613e-01 -3.053655102849006653e-02 1.181770339608192444e-01
-3.642632663249969482e-01 -3.235446512699127197e-01 4.015995562076568604e-01
-4.541186392307281494e-01 -3.269682526588439941e-01 3.233791887760162354e-01
3.796959817409515381e-01 -1.352990046143531799e-03 4.522387981414794922e-01
3.255760371685028076e-01 3.922337889671325684e-01 -3.490712344646453857e-01
-3.331918120384216309e-01 -3.789508938789367676e-01 3.841131925582885742e-01
-1.903690695762634277e-01 -4.574268758296966553e-01 3.833606243133544922e-01
7.977417111396789551e-02 -6.028611063957214355e-01 1.059298664331436157e-01
-4.361919760704040527e-01 4.116275310516357422e-01 -5.925899744033813477e-02
3.601879775524139404e-01 -3.821604549884796143e-01 -2.651544511318206787e-01
-2.862028181552886963e-01 -5.527378916740417480e-01 -1.251362562179565430e-01
1.096802577376365662e-01 5.985456109046936035e-01 -1.185290608555078506e-02
-5.090707540512084961e-01 2.879613637924194336e-01 -1.793481111526489258e-01
-3.123087584972381592e-01 8.169700950384140015e-02 4.837619960308074951e-01
5.785145759582519531e-01 1.623615324497222900e-01 -2.098586857318878174e-01
-1.352973878383636475e-01 -2.085745185613632202e-01 -5.113742947578430176e-01
3.705161511898040771e-01 6.963656097650527954e-02 -4.564904868602752686e-01
2.406426817178726196e-01 3.391400277614593506e-01 -4.342585802078247070e-01
-3.040831387042999268e-01 1.788171678781509399e-01 4.554921388626098633e-01
2.136875689029693604e-01 1.079485639929771423e-01 5.180302858352661133e-01
-7.484747469425201416e-02 -3.996776044368743896e-01 -4.126540422439575195e-01
-5.081405639648437500e-01 3.289509117603302002e-01 -8.246159553527832031e-02
2.583878338336944580e-01 3.984013199806213379e-01 3.506790101528167725e-01
1.340620517730712891e-01 4.963914155960083008e-01 -3.240515589714050293e-01
3.433625772595405579e-02 -4.518215358257293701e-01 -3.620239198207855225e-01
4.561030268669128418e-01 7.875038683414459229e-02 3.865896165370941162e-01
-1.814227849245071411e-01 -3.194416463375091553e-01 4.838910102844238281e-01
6.097558140754699707e-01 -8.669508993625640869e-02 -1.193220838904380798e-01
-3.409514427185058594e-01 4.856665730476379395e-01 2.812825329601764679e-02
-3.953776955604553223e-01 -3.080724775791168213e-01 3.885336518287658691e-01
2.984769940376281738e-01 -4.433183670043945312e-01 2.864213287830352783e-01
-9.961638599634170532e-02 -5.095717310905456543e-01 -2.961691319942474365e-01
4.676326364278793335e-02 1.317939013242721558e-01 -5.505971908569335938e-01
-5.906642079353332520e-01 9.664629399776458740e-02 -1.920473277568817139e-01
-5.894601941108703613e-01 -3.072793036699295044e-02 2.415795922279357910e-01
3.989622741937637329e-02 -3.696109056472778320e-01 4.694573283195495605e-01
3.619561493396759033e-01 4.540444016456604004e-01 -2.427943944931030273e-01
3.458056598901748657e-02 1.705513000488281250e-01 -5.432547926902770996e-01
2.844822108745574951e-01 -3.830308020114898682e-01 -3.297697305679321289e-01
-1.242196112871170044e-01 2.767634391784667969e-02 5.534617304801940918e-01
3.520607650279998779e-01 6.962907314300537109e-02 4.638727903366088867e-01
3.854255676269531250e-01 -4.557524919509887695e-01 1.195124536752700806e-01
-5.038580298423767090e-01 2.558769285678863525e-01 2.171397507190704346e-01
-2.380570769309997559e-01 -4.454675912857055664e-01 3.771740794181823730e-01
-5.070492029190063477e-01 3.356183171272277832e-01 -5.287267267704010010e-02
2.399547398090362549e-01 -4.122107103466987610e-02 -5.155200958251953125e-01
-6.614933907985687256e-02 2.875328958034515381e-01 4.767472147941589355e-01
4.968785941600799561e-01 3.786910176277160645e-01 1.160843148827552795e-01
4.859132468700408936e-01 -3.327156901359558105e-01 1.699764281511306763e-01
1.424687951803207397e-01 7.565418630838394165e-02 -5.453835129737854004e-01
1.805884018540382385e-02 -9.329373389482498169e-02 5.637366771697998047e-01
3.033314347267150879e-01 -2.776331007480621338e-01 4.295515120029449463e-01
7.759621739387512207e-02 4.730699062347412109e-01 -3.626102507114410400e-01
-5.717313289642333984e-01 -3.315315544605255127e-01 -4.138013720512390137e-02
-5.096858143806457520e-01 1.760314106941223145e-01 -2.890913784503936768e-01
-4.985860586166381836e-01 3.251807391643524170e-01 1.127341687679290771e-01
-6.321307420730590820e-01 4.706548154354095459e-02 9.186732769012451172e-02
-6.481799483299255371e-01 -5.926870927214622498e-02 -2.414209209382534027e-02
-2.441484928131103516e-01 -3.919660151004791260e-01 4.197826087474822998e-01
1.361753046512603760e-01 4.367631077766418457e-01 -3.909082412719726562e-01
1.347891986370086670e-01 5.157909393310546875e-01 -2.958118319511413574e-01
-1.573953181505203247e-01 -5.178509950637817383e-01 3.231306374073028564e-01
-4.569854438304901123e-01 -2.318111062049865723e-02 4.057649075984954834e-01
-2.455555349588394165e-01 -5.834463238716125488e-01 -6.418502330780029297e-02
1.840907782316207886e-01 -4.479607939720153809e-01 -3.195341527462005615e-01
-2.074010297656059265e-02 -6.020424962043762207e-01 1.674662828445434570e-01
-9.485394507646560669e-02 5.882946848869323730e-01 -7.041640579700469971e-03
-4.596065878868103027e-01 3.471690416336059570e-01 1.644924879074096680e-01
6.209198236465454102e-01 -1.006542742252349854e-01 -3.359580785036087036e-02
-8.494285866618156433e-03 -9.198822826147079468e-02 -5.519267320632934570e-01
-1.308946311473846436e-01 -3.571944534778594971e-01 4.738067686557769775e-01
6.196220591664314270e-02 5.767396092414855957e-01 -1.829932034015655518e-01
-5.590840578079223633e-01 -3.049144148826599121e-01 -1.448424011468887329e-01
-4.758061766624450684e-01 -1.235295087099075317e-03 3.864266872406005859e-01
1.250023096799850464e-01 -1.987742781639099121e-01 5.310900807380676270e-01
2.794132530689239502e-01 8.703173696994781494e-02 -5.025450587272644043e-01
3.437792062759399414e-01 4.970079660415649414e-01 -1.801692843437194824e-01
-8.391158282756805420e-02 4.481995403766632080e-01 -3.775164783000946045e-01
-8.898515999317169189e-02 -5.292814373970031738e-01 3.207741975784301758e-01
-2.175680994987487793e-01 5.268840789794921875e-01 1.347995996475219727e-01
2.189968377351760864e-01 -5.393823385238647461e-01 -1.343582570552825928e-01
-5.586344599723815918e-01 2.641991078853607178e-01 -1.654088869690895081e-02
3.684395253658294678e-01 2.617805600166320801e-01 -4.088938534259796143e-01
5.682246685028076172e-01 2.979957461357116699e-01 5.051249265670776367e-02
7.803146541118621826e-02 9.017496556043624878e-02 5.498347282409667969e-01
4.193832278251647949e-01 -4.337813854217529297e-01 8.294565230607986450e-02
9.405504167079925537e-02 4.660562872886657715e-01 3.313703835010528564e-01
3.608533740043640137e-02 -5.953349471092224121e-01 -1.162146553397178650e-01
4.469888508319854736e-01 4.280013144016265869e-01 1.225655302405357361e-01
-3.909586369991302490e-01 3.302618265151977539e-01 2.873347997665405273e-01
-1.219887137413024902e-01 -1.400939971208572388e-01 5.511562824249267578e-01
6.000382304191589355e-01 1.271558403968811035e-01 1.646110862493515015e-01
5.392424464225769043e-01 -1.175420731306076050e-01 -2.626067698001861572e-01
2.753506302833557129e-01 3.168834745883941650e-01 4.076440632343292236e-01
2.550012767314910889e-01 -3.313389793038368225e-02 5.166980624198913574e-01
-5.311211347579956055e-01 3.479974344372749329e-02 3.187574148178100586e-01
-1.871082559227943420e-02 -4.736086428165435791e-01 -3.436652421951293945e-01
1.170030906796455383e-01 4.700430035591125488e-01 3.226956725120544434e-01
-3.017471432685852051e-01 -2.874295115470886230e-01 4.558634459972381592e-01
5.248116254806518555e-01 3.557897806167602539e-01 -1.137437298893928528e-01
-4.325626790523529053e-01 2.560281753540039062e-01 -3.294400572776794434e-01
-2.306402288377285004e-02 -4.987978339195251465e-01 -3.137828409671783447e-01
4.740280807018280029e-01 3.492344915866851807e-01 -2.397889792919158936e-01
9.150293469429016113e-02 -5.227447152137756348e-01 -2.578002512454986572e-01
8.872549235820770264e-02 -1.755965650081634521e-01 -5.243766903877258301e-01
2.690951228141784668e-01 -3.914141952991485596e-01 -3.317883014678955078e-01
2.026428282260894775e-01 2.144482433795928955e-01 -5.044772028923034668e-01
-3.643554449081420898e-01 -4.494850337505340576e-01 -2.450479865074157715e-01
-4.966757446527481079e-02 -3.440928459167480469e-01 4.890055656433105469e-01
-2.874391898512840271e-02 -1.804890111088752747e-02 5.660604834556579590e-01
5.513288974761962891e-01 -2.692459523677825928e-01 -5.268783867359161377e-02
5.717135667800903320e-01 2.044174447655677795e-02 2.488680332899093628e-01
2.805694341659545898e-01 4.848652780055999756e-01 -2.700584530830383301e-01
1.235774084925651550e-01 4.169786572456359863e-01 -4.113266468048095703e-01
4.056257009506225586e-01 3.903106451034545898e-01 2.488235235214233398e-01
-5.875273346900939941e-01 1.863754689693450928e-01 9.754581004381179810e-02
4.031246602535247803e-01 -2.562868893146514893e-01 -3.414175212383270264e-01
-4.460789635777473450e-02 5.859533548355102539e-01 -1.290670335292816162e-01
-4.454038441181182861e-01 -4.565580785274505615e-01 -1.221185699105262756e-01
-5.804475545883178711e-01 2.002966403961181641e-01 -1.101998686790466309e-01
2.397048622369766235e-01 -2.860478460788726807e-01 4.591405391693115234e-01
4.402321577072143555e-01 4.612618982791900635e-01 -2.613297104835510254e-02
6.176728010177612305e-01 3.313476964831352234e-02 -1.421358436346054077e-01
5.301322937011718750e-01 -2.916456460952758789e-01 1.183250099420547485e-01
5.117341876029968262e-01 -2.931318879127502441e-01 -1.466482132673263550e-01
6.090864539146423340e-01 1.534332782030105591e-01 1.187192872166633606e-01
-5.265206694602966309e-01 -2.573706209659576416e-01 2.818847000598907471e-01
5.103680491447448730e-01 -6.073972955346107483e-02 3.307639062404632568e-01
5.182989239692687988e-01 1.699399948120117188e-02 3.273165822029113770e-01
4.088153243064880371e-01 -9.001620858907699585e-02 4.242865443229675293e-01
-6.124790310859680176e-01 1.491342037916183472e-01 -3.195070475339889526e-02
-2.978928387165069580e-01 -5.615563988685607910e-01 -7.670799642801284790e-02
-1.490894258022308350e-01 2.460704892873764038e-01 4.832031130790710449e-01
9.301396459341049194e-02 -1.468325108289718628e-01 -5.322077274322509766e-01
-1.021090596914291382e-01 -4.822998940944671631e-01 3.775770366191864014e-01
-4.505655467510223389e-01 1.014777198433876038e-01 3.844182193279266357e-01
1.762842237949371338e-01 -3.149500489234924316e-01 4.694578647613525391e-01
-6.272866725921630859e-01 -1.429771631956100464e-01 -1.089755445718765259e-01
-1.208805590867996216e-01 2.554787993431091309e-01 4.849097430706024170e-01
-3.103919327259063721e-01 4.905250668525695801e-01 -1.396915316581726074e-01
3.426190614700317383e-01 5.115739703178405762e-01 9.635345637798309326e-02
5.501528978347778320e-01 1.584809571504592896e-01 -2.642256319522857666e-01
-9.850100614130496979e-04 4.339877068996429443e-01 -4.040052294731140137e-01
3.935633301734924316e-01 -4.457347393035888672e-01 -9.015338122844696045e-02
5.396348834037780762e-01 -2.613037526607513428e-01 -1.238208040595054626e-01
3.782493472099304199e-01 4.414903521537780762e-01 2.072090357542037964e-01
-4.613542556762695312e-01 2.528926357626914978e-02 3.954289853572845459e-01
5.471592545509338379e-01 -8.618068695068359375e-02 -2.643296122550964355e-01
-5.648450851440429688e-01 1.463317032903432846e-02 2.758753895759582520e-01
-1.040277332067489624e-01 5.844164490699768066e-01 2.455472201108932495e-02
-5.150938034057617188e-01 -1.606574952602386475e-01 -3.163189888000488281e-01
-1.002164371311664581e-02 -5.622032880783081055e-01 2.667899429798126221e-01
-3.395355343818664551e-01 4.276901185512542725e-01 2.108861058950424194e-01
-1.962893083691596985e-02 -1.172659248113632202e-01 5.620016455650329590e-01
6.183336377143859863e-01 1.353954076766967773e-01 9.646783024072647095e-02
-2.599871754646301270e-01 -5.601153969764709473e-01 1.880835443735122681e-01
-4.470415413379669189e-02 5.815632939338684082e-01 -1.481652706861495972e-01
-3.636904656887054443e-01 1.303109973669052124e-01 4.402463734149932861e-01
-1.206653937697410583e-01 4.737982451915740967e-01 3.002254962921142578e-01
-2.535484433174133301e-01 7.736667990684509277e-02 5.104348063468933105e-01
-3.418255448341369629e-01 -5.472066402435302734e-01 9.979040175676345825e-02
3.083440363407135010e-01 5.245176553726196289e-01 1.125887483358383179e-01
5.546691417694091797e-01 -2.331852763891220093e-01 -1.250795423984527588e-01
2.010625451803207397e-01 4.937185645103454590e-01 2.641576528549194336e-01
-3.142499029636383057e-01 4.448034465312957764e-01 2.104751914739608765e-01
4.053817987442016602e-01 -4.314981698989868164e-01 1.441968530416488647e-01
-7.734753191471099854e-02 5.815854072570800781e-01 -1.257464736700057983e-01
-5.549631118774414062e-01 -3.632866740226745605e-01 -1.370820030570030212e-02
6.553940474987030029e-02 3.869007229804992676e-01 4.125363230705261230e-01
-5.631040334701538086e-01 -3.130990862846374512e-01 1.566968113183975220e-01
-3.358902335166931152e-01 4.119010269641876221e-02 -4.772984981536865234e-01
2.238786220550537109e-01 1.906784325838088989e-01 -5.048611164093017578e-01
-4.755522906780242920e-01 2.546658217906951904e-01 -2.779940664768218994e-01
-6.220668554306030273e-01 -1.986869126558303833e-01 1.014179587364196777e-01
5.931264162063598633e-01 1.188684180378913879e-01 1.860502958297729492e-01
-5.590298175811767578e-01 -2.436621487140655518e-01 -2.089689522981643677e-01
-5.199198126792907715e-01 -2.987897992134094238e-01 2.614438235759735107e-01
-3.493579803034663200e-03 3.966206014156341553e-01 -4.357063174247741699e-01
3.009891211986541748e-01 5.449602007865905762e-01 -7.619173824787139893e-02
6.079807281494140625e-01 1.313362270593643188e-01 1.388644725084304810e-01
5.788636803627014160e-01 -9.839326143264770508e-02 -1.991674304008483887e-01
7.049117702990770340e-03 -1.981407403945922852e-01 5.463777780532836914e-01
-3.732700347900390625e-01 3.604484200477600098e-01 -2.963141500949859619e-01
-1.932758986949920654e-01 -9.551709145307540894e-02 -5.276392698287963867e-01
-1.592597514390945435e-01 -5.900153517723083496e-01 -1.217758283019065857e-01
-6.382245421409606934e-01 4.797756299376487732e-02 -4.246983677148818970e-02
-2.331272363662719727e-01 -1.012449786067008972e-01 5.296297073364257812e-01
-2.462572306394577026e-01 4.198074936866760254e-01 3.060549497604370117e-01
4.908910021185874939e-02 -5.781739950180053711e-01 2.173461467027664185e-01
2.643313705921173096e-01 -5.210155248641967773e-01 1.737574934959411621e-01
-5.332122445106506348e-01 -3.861215710639953613e-01 9.473454207181930542e-02
-1.247963607311248779e-01 4.858389496803283691e-01 2.816224992275238037e-01
-1.087763234972953796e-01 4.589220881462097168e-01 -3.587974607944488525e-01
-4.799962639808654785e-01 -4.035211205482482910e-01 -1.623016595840454102e-01
-3.454770445823669434e-01 -5.230825543403625488e-01 1.818965822458267212e-01
4.585483372211456299e-01 2.006767243146896362e-01 3.460688889026641846e-01
-3.329702615737915039e-01 -3.146072030067443848e-01 4.260235726833343506e-01
3.890667557716369629e-01 2.883796393871307373e-01 -3.798343837261199951e-01
-1.280425935983657837e-01 5.810114145278930664e-01 -2.084124274551868439e-02
-5.250520706176757812e-01 -2.462183982133865356e-01 2.907022833824157715e-01
-3.959067165851593018e-01 -2.239745110273361206e-01 -3.999037146568298340e-01
-4.406647980213165283e-01 3.883146643638610840e-01 1.138906702399253845e-01
3.202454745769500732e-01 1.164853945374488831e-01 4.725497066974639893e-01
1.426550447940826416e-01 -1.516763120889663696e-01 5.384179353713989258e-01
4.005867838859558105e-01 4.823547601699829102e-01 6.676163524389266968e-02
-3.653342649340629578e-02 -5.989300608634948730e-01 -1.225840225815773010e-01
-2.234824597835540771e-01 2.435000389814376831e-01 -4.765573441982269287e-01
-3.550260066986083984e-01 4.637516140937805176e-01 -1.307069510221481323e-01
-3.276533186435699463e-01 6.954075396060943604e-02 -4.785436689853668213e-01
-3.649467835202813148e-03 -6.181358695030212402e-01 -1.234534755349159241e-02
-1.135701686143875122e-01 -6.131776571273803711e-01 1.047876775264739990e-01
-1.992011666297912598e-01 2.576652765274047852e-01 4.620977044105529785e-01
5.363932251930236816e-01 -2.994630336761474609e-01 -2.180019021034240723e-02
4.987734258174896240e-01 -4.916570335626602173e-02 -3.404151499271392822e-01
2.865693569183349609e-01 -4.835866391658782959e-01 2.325919866561889648e-01
-1.654967963695526123e-01 5.839284509420394897e-02 -5.406364202499389648e-01
-4.765647649765014648e-01 -3.557397723197937012e-01 -2.328548729419708252e-01
3.016259968280792236e-01 3.326797783374786377e-01 -4.097889065742492676e-01
2.077058702707290649e-01 -1.005176156759262085e-01 -5.165035724639892578e-01
-5.038952827453613281e-02 5.904823541641235352e-01 -9.938639402389526367e-02
-3.054364919662475586e-01 -4.862145483493804932e-01 2.916232347488403320e-01
4.914945065975189209e-01 1.989816874265670776e-02 3.579306304454803467e-01
3.924964666366577148e-01 1.230162754654884338e-01 4.276544153690338135e-01
-3.450217545032501221e-01 -5.430352687835693359e-01 1.133434250950813293e-01
-3.058874607086181641e-01 -1.386248320341110229e-01 -4.789049327373504639e-01
-4.811130464076995850e-02 -3.356744721531867981e-02 -5.579441189765930176e-01
-9.672065079212188721e-02 -5.595294237136840820e-01 2.704638242721557617e-01
-2.526823198422789574e-03 -1.135580241680145264e-01 5.623305439949035645e-01
-4.313685894012451172e-01 -4.843686223030090332e-01 1.217922195792198181e-01
-1.057209149003028870e-01 5.317081212997436523e-01 -2.522250711917877197e-01
-6.462407112121582031e-01 -9.359300881624221802e-02 -3.092998825013637543e-02
3.147840499877929688e-01 4.377000331878662109e-01 2.730121314525604248e-01
5.719299912452697754e-01 -2.348991185426712036e-01 -3.539236634969711304e-02
3.047402799129486084e-01 1.381253451108932495e-01 4.748842120170593262e-01
4.615643024444580078e-01 4.232525229454040527e-01 -1.335939466953277588e-01
6.251358985900878906e-01 1.369793862104415894e-01 5.496907234191894531e-02
-3.447318971157073975e-01 3.878641724586486816e-01 -2.936135530471801758e-01
5.036407709121704102e-01 -3.414680659770965576e-01 8.010328561067581177e-02
-5.547738075256347656e-01 1.802940666675567627e-01 -2.091688513755798340e-01
-2.884004414081573486e-01 2.988618612289428711e-01 3.953427672386169434e-01
-4.720335006713867188e-01 3.443352878093719482e-01 1.420399844646453857e-01
-5.779865384101867676e-01 -4.465336352586746216e-02 -2.516229748725891113e-01
4.390492141246795654e-01 -2.917466461658477783e-01 3.013570010662078857e-01
-5.703057050704956055e-01 7.206503301858901978e-02 -2.454873472452163696e-01
-1.027939692139625549e-01 -2.413556575775146484e-01 -5.035544633865356445e-01
4.781916141510009766e-01 -1.616032868623733521e-01 3.380119502544403076e-01
3.879649937152862549e-01 3.142449259757995605e-01 3.390119075775146484e-01
4.213894009590148926e-01 4.758037924766540527e-01 -4.323377460241317749e-02
5.917671322822570801e-01 -1.580379754304885864e-01 -1.088559180498123169e-01
1.526358872652053833e-01 3.985476195812225342e-01 -4.203541874885559082e-01
-1.341654360294342041e-01 -1.133325546979904175e-01 5.526080727577209473e-01
4.638533294200897217e-02 -1.520418673753738403e-01 5.539115071296691895e-01
2.489360272884368896e-01 3.105745613574981689e-01 4.233815670013427734e-01
-8.871957659721374512e-02 -8.869221061468124390e-02 5.609039664268493652e-01
6.112554669380187988e-01 1.835294216871261597e-01 -8.917023986577987671e-02
-2.944515943527221680e-01 -3.952214121818542480e-01 3.939402103424072266e-01
-1.216474026441574097e-01 2.860595285892486572e-01 -4.879595637321472168e-01
-2.094454132020473480e-02 5.748292803764343262e-01 -1.811712980270385742e-01
2.945158183574676514e-01 5.484006404876708984e-01 2.549707889556884766e-02
-2.004805058240890503e-01 6.516870856285095215e-02 -5.307327508926391602e-01
4.638253152370452881e-01 1.382333319634199142e-02 -3.851957917213439941e-01
-1.177982985973358154e-01 1.511958688497543335e-01 5.283477306365966797e-01
-8.149902522563934326e-02 -4.080906510353088379e-01 -4.052541553974151611e-01
3.908355832099914551e-01 3.111112415790557861e-01 -3.642477393150329590e-01
-9.084985405206680298e-02 -5.542678236961364746e-01 -2.270371615886688232e-01
1.422580927610397339e-01 9.772247076034545898e-02 5.384390354156494141e-01
-6.483803391456604004e-01 -8.408898115158081055e-02 9.688848629593849182e-03
5.272094607353210449e-01 2.960398793220520020e-01 1.834732741117477417e-01
-6.486110687255859375e-01 -3.387662395834922791e-02 2.001329138875007629e-02
2.397654764354228973e-02 -9.671834111213684082e-02 -5.503104925155639648e-01
-4.252290129661560059e-01 -3.007150888442993164e-01 3.686255514621734619e-01
3.033931553363800049e-01 1.039882674813270569e-01 -4.900707304477691650e-01
-2.785381078720092773e-01 -2.274433970451354980e-01 4.889898896217346191e-01
3.563098609447479248e-02 -8.679031580686569214e-02 -5.513954758644104004e-01
2.864707112312316895e-01 4.816884696483612061e-01 2.308756113052368164e-01
3.639130666851997375e-02 -2.056787461042404175e-01 5.425143837928771973e-01
5.021086931228637695e-01 -7.929877936840057373e-02 -3.284314572811126709e-01
3.198330402374267578e-01 5.319144576787948608e-02 -4.857117533683776855e-01
-8.888985961675643921e-02 2.572974264621734619e-01 4.898269474506378174e-01
-2.847592830657958984e-01 5.209569334983825684e-01 -1.917770504951477051e-02
5.430001020431518555e-01 -1.857871562242507935e-01 -2.101306617259979248e-01
4.579608887434005737e-02 -2.277061641216278076e-01 -5.108732581138610840e-01
-7.340488582849502563e-02 -2.994511425495147705e-01 -4.789180159568786621e-01
5.414525866508483887e-01 -8.358886092901229858e-02 2.829530537128448486e-01
4.141227304935455322e-01 -4.339879155158996582e-01 1.065734848380088806e-01
-1.777397990226745605e-01 4.985466599464416504e-01 2.340978384017944336e-01
2.974960803985595703e-01 4.306999742984771729e-01 -3.291931748390197754e-01
-3.954917490482330322e-01 -3.800561428070068359e-01 -2.965930104255676270e-01
1.982443630695343018e-01 1.593371480703353882e-01 5.095324516296386719e-01
3.809717297554016113e-01 2.272420525550842285e-01 3.976781964302062988e-01
2.510449886322021484e-01 5.388440489768981934e-01 1.415961682796478271e-01
-3.450815975666046143e-01 -4.533680677413940430e-01 3.033407628536224365e-01
-5.952423065900802612e-02 3.141549229621887207e-01 4.615549445152282715e-01
9.498649835586547852e-02 5.418444424867630005e-02 -5.543974637985229492e-01
-6.131408810615539551e-01 -2.263425290584564209e-01 1.060820147395133972e-01
4.694365262985229492e-01 1.001742109656333923e-01 3.700020611286163330e-01
5.250260829925537109e-01 3.718892633914947510e-01 -3.432383388280868530e-02
-3.473278880119323730e-01 4.503489434719085693e-01 1.525625139474868774e-01
5.394172668457031250e-01 -1.993617862462997437e-01 -2.048863917589187622e-01
3.317629992961883545e-01 -2.002254873514175415e-01 -4.272981286048889160e-01
-1.013054326176643372e-02 -5.478190183639526367e-01 -2.398245781660079956e-01
1.703447401523590088e-01 5.785285234451293945e-01 8.061536401510238647e-02
-4.844909608364105225e-01 -4.113436341285705566e-01 1.823027878999710083e-01
-2.724036388099193573e-02 -5.944648385047912598e-01 1.930342465639114380e-01
4.118175506591796875e-01 3.541858196258544922e-01 2.825711965560913086e-01
8.815413713455200195e-02 -5.521017909049987793e-01 -2.059467285871505737e-01
-5.571276545524597168e-01 -2.619385421276092529e-01 2.278384864330291748e-01
-4.307564795017242432e-01 -5.609060078859329224e-02 4.285365641117095947e-01
-1.565019786357879639e-01 4.999116063117980957e-01 -2.829782962799072266e-01
2.943873107433319092e-01 5.407208800315856934e-01 7.434022426605224609e-02
-6.958355754613876343e-02 9.897424280643463135e-02 5.488287210464477539e-01
1.479297876358032227e-01 4.830054640769958496e-01 -3.377176523208618164e-01
6.372094750404357910e-01 3.527551516890525818e-02 3.001704625785350800e-02
-3.369067609310150146e-01 8.063723146915435791e-02 4.711696505546569824e-01
-1.195588260889053345e-01 3.334999084472656250e-01 -4.620111584663391113e-01
4.413421750068664551e-01 3.015323579311370850e-01 -3.244491815567016602e-01
-3.958142697811126709e-01 4.434322416782379150e-01 -8.218897879123687744e-02
-1.388915479183197021e-01 5.657076239585876465e-01 8.979373425245285034e-02
2.858496010303497314e-01 -4.227459430694580078e-01 3.241332471370697021e-01
4.496449530124664307e-01 -3.969478905200958252e-01 1.152056306600570679e-01
-1.800654232501983643e-01 5.569610595703125000e-01 7.153288275003433228e-02
-3.849549293518066406e-01 2.926217615604400635e-01 -3.489058017730712891e-01
-1.791130304336547852e-01 -4.941028952598571777e-01 -2.980701923370361328e-01
5.553423762321472168e-01 -1.799103021621704102e-01 -1.896250545978546143e-01
5.226056575775146484e-01 -2.875632941722869873e-01 -1.265994310379028320e-01
-2.524228021502494812e-02 -5.749729871749877930e-01 -1.870084553956985474e-01
5.038813352584838867e-01 -3.476470112800598145e-01 2.238072082400321960e-02
1.158573701977729797e-01 -1.060234382748603821e-01 5.513089895248413086e-01
-2.454907000064849854e-01 2.269093394279479980e-01 4.605591893196105957e-01
-1.619719117879867554e-01 2.225513756275177002e-02 5.467483997344970703e-01
3.791659772396087646e-01 -4.671019911766052246e-01 -4.526518285274505615e-02
-4.956900179386138916e-01 -4.387205839157104492e-01 1.085714995861053467e-02
-5.789527893066406250e-01 2.022636234760284424e-01 1.027108877897262573e-01
5.784885883331298828e-01 -1.401686817407608032e-01 1.836892962455749512e-01
-5.031987428665161133e-01 -2.618601322174072266e-01 -2.800112068653106689e-01
1.297326982021331787e-01 -2.197858095169067383e-01 5.237177014350891113e-01
-5.059298872947692871e-02 3.177214264869689941e-01 -4.835684001445770264e-01
-3.066765069961547852e-01 -7.893992587924003601e-04 -4.939834475517272949e-01
-4.917503297328948975e-01 -8.425924926996231079e-02 -3.598121702671051025e-01
-5.879544615745544434e-01 1.857153326272964478e-01 -1.054563000798225403e-01
2.834377586841583252e-01 -5.255684852600097656e-01 1.183555722236633301e-01
3.789405822753906250e-01 -3.582644760608673096e-01 -2.734270989894866943e-01
4.943183660507202148e-01 -1.664561331272125244e-01 3.161405324935913086e-01
6.033757328987121582e-01 -1.636998951435089111e-01 3.390153497457504272e-02
-2.204945683479309082e-02 -4.145754873752593994e-01 -4.016392529010772705e-01
-4.799123704433441162e-01 2.069756090641021729e-01 2.978135645389556885e-01
7.970575243234634399e-02 5.954859256744384766e-01 -1.002243757247924805e-01
-4.647373557090759277e-01 3.137962520122528076e-01 2.096983790397644043e-01
-2.421981990337371826e-01 -2.670621573925018311e-01 -4.595722854137420654e-01
3.042611777782440186e-01 -4.781427383422851562e-01 -1.762060672044754028e-01
5.767670869827270508e-01 -2.123996466398239136e-01 9.617295861244201660e-02
-6.333271861076354980e-01 1.623236015439033508e-02 -1.032405272126197815e-01
1.042406111955642700e-01 -1.760666966438293457e-01 5.410572290420532227e-01
-1.816808134317398071e-01 -4.595699906349182129e-02 -5.366080999374389648e-01
-9.071038663387298584e-02 3.250773549079895020e-01 -4.732869267463684082e-01
1.713813692331314087e-01 -3.362588882446289062e-01 -4.257442653179168701e-01
1.605949997901916504e-01 -5.846039652824401855e-01 -2.950710244476795197e-02
-3.403825685381889343e-02 -3.769830763339996338e-01 4.694816470146179199e-01
-4.837105516344308853e-03 -5.818470716476440430e-01 2.236801683902740479e-01
5.450643301010131836e-01 2.675099968910217285e-01 -2.019400149583816528e-01
-5.354087352752685547e-01 -7.812847942113876343e-02 3.256400823593139648e-01
4.496883451938629150e-01 -2.268699854612350464e-01 -3.147024512290954590e-01
3.587310612201690674e-01 4.967004656791687012e-01 -1.562273949384689331e-01
2.037964016199111938e-01 -5.282899737358093262e-01 -1.793270260095596313e-01
2.790197432041168213e-01 1.819441094994544983e-02 -5.046614408493041992e-01
-1.297237277030944824e-01 -6.024712920188903809e-01 -9.200549870729446411e-02
-2.576381266117095947e-01 -4.582586884498596191e-01 -3.088276684284210205e-01
6.294729113578796387e-01 -4.912830423563718796e-03 -8.451813459396362305e-02
-4.964488558471202850e-03 -2.904383838176727295e-01 5.152068138122558594e-01
1.692168414592742920e-01 3.585018813610076904e-01 -4.452217221260070801e-01
7.813782989978790283e-02 1.844978630542755127e-01 -5.369390845298767090e-01
-3.530379831790924072e-01 -3.744141161441802979e-01 3.745040893554687500e-01
-1.363663971424102783e-01 2.071050852537155151e-01 -5.171952843666076660e-01
4.099600315093994141e-01 3.641772866249084473e-01 -3.041262924671173096e-01
-5.699945688247680664e-01 -3.404414355754852295e-01 4.462783783674240112e-02
-3.745789825916290283e-01 3.093535602092742920e-01 -3.448734283447265625e-01
-6.436373591423034668e-01 -5.888866260647773743e-02 -6.687027961015701294e-02
-4.915872216224670410e-01 -3.274548053741455078e-01 -2.417245209217071533e-01
-2.148943953216075897e-02 -6.204622387886047363e-01 9.267952293157577515e-03
2.787055075168609619e-01 3.329754471778869629e-01 -4.213595986366271973e-01
4.110308587551116943e-01 4.696169197559356689e-01 -1.267021149396896362e-01
-2.137759923934936523e-01 1.425173133611679077e-01 5.069716572761535645e-01
-5.493139028549194336e-01 -2.959449589252471924e-01 2.119521945714950562e-01
-3.725417852401733398e-01 -3.351561427116394043e-01 -3.525733947753906250e-01
8.738786727190017700e-02 4.135544300079345703e-01 3.871461153030395508e-01
-2.897707521915435791e-01 -1.322822868824005127e-01 -4.875192344188690186e-01
-3.282959163188934326e-01 -3.567744195461273193e-01 4.030818045139312744e-01
3.297855854034423828e-01 -3.570499271154403687e-02 4.816103279590606689e-01
1.440785229206085205e-01 -5.667390227317810059e-01 1.877779513597488403e-01
-4.763783514499664307e-02 5.574881434440612793e-01 1.755586862564086914e-01
2.779558002948760986e-01 2.472109049558639526e-01 4.464198350906372070e-01
1.085275709629058838e-01 -2.280156612396240234e-01 -5.016744136810302734e-01
-9.521182626485824585e-02 -5.259599089622497559e-01 -2.734464704990386963e-01
-4.419589936733245850e-01 4.128810018301010132e-02 4.089344739913940430e-01
-3.879796266555786133e-01 -9.951166808605194092e-02 -4.415723085403442383e-01
3.797388076782226562e-01 4.970189929008483887e-01 -1.058303788304328918e-01
-2.578263282775878906e-01 -5.649406909942626953e-01 1.763126701116561890e-01
3.314522802829742432e-01 -4.379392266273498535e-01 -2.176086008548736572e-01
-1.506052166223526001e-01 -6.129168272018432617e-01 -6.771618500351905823e-03
-3.913612663745880127e-01 -5.761764571070671082e-02 -4.445820450782775879e-01
4.408574402332305908e-01 3.836811184883117676e-01 2.136810421943664551e-01
3.238458931446075439e-01 -5.028896927833557129e-01 -6.313332170248031616e-02
7.281491160392761230e-02 -3.393896222114562988e-01 4.827696681022644043e-01
1.763433963060379028e-01 -4.803063869476318359e-01 -2.822907567024230957e-01
-5.601953268051147461e-01 -2.246636599302291870e-01 2.483347952365875244e-01
1.317831575870513916e-01 -2.406779229640960693e-01 5.160960555076599121e-01
1.612958610057830811e-01 4.681321680545806885e-01 -3.516706526279449463e-01
-2.292918264865875244e-01 -4.788533449172973633e-01 -2.978017628192901611e-01
1.944892480969429016e-02 -3.487092554569244385e-01 -4.493244290351867676e-01
-1.770969778299331665e-01 4.738525450229644775e-01 2.746882140636444092e-01
-2.641152441501617432e-01 5.249565243721008301e-01 -9.812769293785095215e-02
3.819456994533538818e-01 2.856533974409103394e-02 4.496245086193084717e-01
-1.732912808656692505e-01 -5.650899410247802734e-01 2.367613017559051514e-01
-1.163597106933593750e-01 -5.844656825065612793e-01 -1.556702554225921631e-01
4.532727301120758057e-01 3.056731820106506348e-01 -3.084300756454467773e-01
5.121847391128540039e-01 -2.585254609584808350e-01 2.197972536087036133e-01
3.069206178188323975e-01 -4.521770775318145752e-01 2.644244134426116943e-01
3.466909825801849365e-01 -4.363085627555847168e-01 -2.012024074792861938e-01
6.681948155164718628e-02 -5.171355009078979492e-01 3.241245746612548828e-01
5.485359579324722290e-02 -5.603906512260437012e-01 -2.017703801393508911e-01
3.877861797809600830e-01 2.942070662975311279e-01 3.536915183067321777e-01
3.485569953918457031e-01 5.243272781372070312e-01 -2.915451116859912872e-02
-1.684249937534332275e-01 -4.086213707923889160e-01 -3.903025686740875244e-01
-6.473087668418884277e-01 -4.227297380566596985e-02 -3.550413995981216431e-02
1.600352227687835693e-01 3.483478724956512451e-01 -4.540350437164306641e-01
-3.168257772922515869e-01 4.727790653705596924e-01 1.459432840347290039e-01
-2.073822915554046631e-01 4.479494392871856689e-01 2.940657436847686768e-01
-5.987625718116760254e-01 -5.058689042925834656e-02 -2.123634517192840576e-01
4.538784921169281006e-01 -3.116956055164337158e-01 2.613562643527984619e-01
6.281384825706481934e-01 6.996216624975204468e-02 -9.613312780857086182e-02
4.046106711030006409e-02 -4.842727780342102051e-01 -3.247663378715515137e-01
-1.480306833982467651e-01 -5.581830143928527832e-01 2.607200741767883301e-01
5.307612419128417969e-01 5.511455982923507690e-02 -3.122780621051788330e-01
-1.945710740983486176e-02 -3.385989367961883545e-01 4.921251535415649414e-01
5.624433159828186035e-01 7.426194101572036743e-02 -2.645670175552368164e-01
3.310411572456359863e-01 -1.348555386066436768e-01 4.674997627735137939e-01
1.850391030311584473e-01 -5.101618766784667969e-01 2.786601781845092773e-01
-3.980412781238555908e-01 3.557575941085815430e-01 2.486529648303985596e-01
-1.483786702156066895e-01 -4.455497264862060547e-01 4.057513475418090820e-01
3.960492014884948730e-01 4.389798045158386230e-01 -2.252197563648223877e-01
5.951195955276489258e-01 1.363297253847122192e-01 -1.836107522249221802e-01
2.303250730037689209e-01 -5.435659885406494141e-01 -1.044194325804710388e-01
2.130583524703979492e-01 5.262493491172790527e-01 -2.442718744277954102e-01
3.818275928497314453e-01 -1.605310589075088501e-01 -4.108588099479675293e-01
-6.493262946605682373e-02 5.792351365089416504e-01 9.947495162487030029e-02
5.458229780197143555e-01 -1.344797909259796143e-01 2.555259466171264648e-01
-2.862960696220397949e-01 -5.225061178207397461e-01 2.483971267938613892e-01
-1.805733591318130493e-01 4.733180999755859375e-01 -3.097496628761291504e-01
2.337203621864318848e-01 5.626221299171447754e-01 7.823190093040466309e-02
-5.471434593200683594e-01 -2.012492269277572632e-01 -2.563170194625854492e-01
-2.263153195381164551e-01 -3.963536024093627930e-01 -3.826882839202880859e-01
-2.004044204950332642e-01 1.000723913311958313e-01 5.231327414512634277e-01
-3.557991087436676025e-01 3.077647089958190918e-01 3.417888879776000977e-01
4.387196898460388184e-01 -1.373817771673202515e-01 -3.736101388931274414e-01
4.620687067508697510e-01 3.533509671688079834e-01 -2.526951730251312256e-01
2.618076503276824951e-01 -3.629857674241065979e-02 -5.077288150787353516e-01
