-1.475610285997390747e-01 1.762119084596633911e-01 -4.064612388610839844e-01
-3.842722624540328979e-02 -4.093731641769409180e-01 1.212325394153594971e-01
-1.747208982706069946e-01 1.351406872272491455e-01 -4.007969796657562256e-01
-2.175856828689575195e-01 -2.769493162631988525e-01 1.191292777657508850e-01
2.273085266351699829e-01 2.374530434608459473e-01 1.575643122196197510e-01
-2.060134708881378174e-01 2.935979962348937988e-01 7.529472559690475464e-02
2.972851134836673737e-02 2.564751207828521729e-01 4.619341492652893066e-01
6.082865595817565918e-02 3.422384858131408691e-01 -2.581465542316436768e-01
-1.699568331241607666e-01 -1.814701855182647705e-01 -4.046457707881927490e-01
-1.464727222919464111e-01 1.701568663120269775e-01 4.413638114929199219e-01
-1.703770011663436890e-01 -3.526880443096160889e-01 1.130681019276380539e-02
2.778417170047760010e-01 -7.313138246536254883e-02 -6.056178361177444458e-02
-2.466069459915161133e-01 -1.349256634712219238e-01 2.533548772335052490e-01
1.682782731950283051e-02 3.878877758979797363e-01 -1.648915708065032959e-01
2.121493816375732422e-01 2.301201224327087402e-01 -1.757938265800476074e-01
-3.060522675514221191e-02 -4.115333259105682373e-01 1.153621226549148560e-01
-5.927907675504684448e-02 1.628169268369674683e-01 5.186623334884643555e-01
2.187748253345489502e-01 2.603898048400878906e-01 -5.383435636758804321e-02
2.532519996166229248e-01 -1.367688775062561035e-01 -1.617764979600906372e-01
2.823941409587860107e-01 6.013123318552970886e-03 -5.827195197343826294e-02
2.790770232677459717e-01 9.200260788202285767e-02 4.191568493843078613e-02
2.514778263866901398e-02 -3.567611575126647949e-01 -3.037716448307037354e-01
2.039386332035064697e-01 -2.871654033660888672e-01 -6.270448118448257446e-02
-1.105926558375358582e-02 3.856551647186279297e-01 -1.759749203920364380e-01
-1.878136694431304932e-01 3.195472955703735352e-01 4.542134702205657959e-02
-3.462350368499755859e-02 6.466159224510192871e-02 5.603564381599426270e-01
2.269414365291595459e-01 -2.174885571002960205e-01 -1.594837158918380737e-01
1.871048212051391602e-01 -2.799162268638610840e-01 -1.874400675296783447e-01
-4.722178727388381958e-02 5.397030618041753769e-04 5.604164600372314453e-01
1.655579358339309692e-01 -1.918303221464157104e-01 3.815268278121948242e-01
-2.924053966999053955e-01 -4.529676958918571472e-02 7.080467045307159424e-02
1.001229509711265564e-03 3.940317034721374512e-01 -1.462043523788452148e-01
-2.184016108512878418e-01 1.966092735528945923e-01 -2.528316676616668701e-01
-6.754806637763977051e-02 4.043232500553131104e-01 -1.538655720651149750e-02
-2.572447657585144043e-01 -2.165533900260925293e-01 2.993668988347053528e-02
2.156114280223846436e-01 4.876124672591686249e-03 3.859244287014007568e-01
1.522583961486816406e-01 -1.185577213764190674e-01 4.539674222469329834e-01
-9.815943241119384766e-02 3.694566786289215088e-01 -1.499424874782562256e-01
6.466926634311676025e-02 -2.224549204111099243e-01 4.570076167583465576e-01
-1.286547034978866577e-01 3.733474314212799072e-01 6.962761282920837402e-02
1.875016540288925171e-01 -2.909120619297027588e-01 1.632830202579498291e-01
-1.265228539705276489e-01 -3.102676868438720703e-01 2.935308516025543213e-01
1.403619498014450073e-01 2.157352566719055176e-01 -3.560627400875091553e-01
1.301971375942230225e-01 -2.952104210853576660e-01 3.025693893432617188e-01
2.217446118593215942e-01 -2.443218976259231567e-01 1.346918046474456787e-01
-1.770463436841964722e-01 -3.305902481079101562e-01 -1.539157032966613770e-01
5.929294973611831665e-02 2.530924975872039795e-01 4.549246132373809814e-01
6.953923404216766357e-02 -2.162295132875442505e-01 -4.549964368343353271e-01
9.053742140531539917e-02 -7.338940631598234177e-04 -5.094943642616271973e-01
2.790025174617767334e-01 9.274777024984359741e-02 2.684564515948295593e-02
-7.918894290924072266e-02 1.666011959314346313e-01 -4.706106483936309814e-01
-1.055952683091163635e-01 1.248757261782884598e-02 -5.151150822639465332e-01
-2.225589156150817871e-01 -2.109645158052444458e-01 2.427969723939895630e-01
2.109720855951309204e-01 -2.792184948921203613e-01 -3.166957199573516846e-02
6.020214408636093140e-02 3.739146292209625244e-01 2.526565194129943848e-01
6.895773857831954956e-02 1.579625159502029419e-01 -4.703128635883331299e-01
1.118132099509239197e-02 3.715367317199707031e-01 -2.161989212036132812e-01
-1.530645340681076050e-01 5.118952319025993347e-02 4.804563522338867188e-01
1.823685169219970703e-01 -3.212437927722930908e-01 -1.448879949748516083e-03
-2.899946868419647217e-01 -4.890989884734153748e-02 -1.084584817290306091e-01
4.413621500134468079e-04 -3.583618402481079102e-01 -3.083660900592803955e-01
1.612948924303054810e-01 3.284401297569274902e-01 -9.942544251680374146e-02
2.032583504915237427e-01 1.935424804687500000e-01 -2.591567337512969971e-01
1.475292742252349854e-01 2.153096497058868408e-01 -3.460699021816253662e-01
-2.669458985328674316e-01 1.259193271398544312e-01 1.708464920520782471e-01
-2.808250188827514648e-01 8.574448525905609131e-02 -1.245889589190483093e-01
-1.988082081079483032e-01 -1.579020768404006958e-01 3.572544157505035400e-01
-4.950188100337982178e-02 2.663159668445587158e-01 4.426718950271606445e-01
1.646592170000076294e-01 -3.046195209026336670e-02 4.688710868358612061e-01
1.922479122877120972e-01 -3.072010576725006104e-01 4.006014764308929443e-02
-1.910388618707656860e-01 1.444123834371566772e-01 3.890014588832855225e-01
-4.452006518840789795e-02 3.808368444442749023e-01 2.425757944583892822e-01
-5.347514152526855469e-02 3.919624984264373779e-01 1.932596266269683838e-01
1.779836565256118774e-01 -3.409387543797492981e-03 4.534773826599121094e-01
1.256025880575180054e-01 3.472577035427093506e-01 -1.481022983789443970e-01
1.613228023052215576e-01 -2.556720972061157227e-01 -3.019052147865295410e-01
1.962600350379943848e-01 3.041250705718994141e-01 3.745121508836746216e-02
2.573236525058746338e-01 4.113051295280456543e-02 2.621725499629974365e-01
5.245430767536163330e-02 -4.051698744297027588e-01 -1.262167990207672119e-01
-1.103648915886878967e-01 3.158800005912780762e-01 -2.720722854137420654e-01
3.308391571044921875e-02 4.125358164310455322e-01 -1.011050119996070862e-02
-2.915694713592529297e-01 6.495370715856552124e-02 1.214015390723943710e-02
1.602263003587722778e-01 3.416668176651000977e-01 -3.088895417749881744e-02
2.363445162773132324e-01 -2.263436764478683472e-01 -6.369922310113906860e-02
9.469539672136306763e-02 3.884570896625518799e-01 -4.361072182655334473e-02
-2.745601236820220947e-01 1.437298208475112915e-01 -5.259893089532852173e-02
1.882879734039306641e-01 -6.745500862598419189e-02 4.236316978931427002e-01
2.002890706062316895e-01 1.127570122480392456e-01 3.942285776138305664e-01
-1.883169710636138916e-01 -6.148104369640350342e-02 4.253107309341430664e-01
1.487670391798019409e-01 1.524196863174438477e-01 -3.985070288181304932e-01
1.542532294988632202e-01 -1.021316275000572205e-01 -4.322657585144042969e-01
-1.496860086917877197e-01 -3.029434978961944580e-01 2.684701681137084961e-01
5.684889853000640869e-02 1.959533840417861938e-01 5.030024647712707520e-01
8.891004323959350586e-02 2.837129533290863037e-01 4.006782472133636475e-01
6.912883371114730835e-02 -1.093969121575355530e-01 -5.105233192443847656e-01
-1.105412170290946960e-01 3.689626455307006836e-01 1.806052923202514648e-01
-2.394059002399444580e-01 1.007479056715965271e-01 -2.918614745140075684e-01
-2.914169728755950928e-01 2.307350933551788330e-02 8.937864005565643311e-02
-3.406186401844024658e-02 -3.768382668495178223e-01 -2.648563981056213379e-01
-1.839622855186462402e-01 3.126111626625061035e-01 1.377527713775634766e-01
1.080299727618694305e-02 -6.703127920627593994e-02 5.579632520675659180e-01
-1.631961613893508911e-01 1.018620282411575317e-01 4.544132649898529053e-01
1.914431601762771606e-01 -9.042847901582717896e-02 4.087440073490142822e-01
-1.491452902555465698e-01 3.043538630008697510e-01 2.766667604446411133e-01
2.661970853805541992e-01 1.491100043058395386e-01 8.449473977088928223e-02
-1.095310822129249573e-01 -3.981769382953643799e-01 2.295031212270259857e-03
1.444573402404785156e-01 4.145781323313713074e-02 -4.526633918285369873e-01
-1.035206094384193420e-01 7.719062268733978271e-02 5.236091613769531250e-01
-1.923658847808837891e-01 -2.884346842765808105e-01 1.933638006448745728e-01
1.607152819633483887e-01 9.639547765254974365e-02 -4.134731888771057129e-01
-2.442175447940826416e-01 1.320218741893768311e-01 2.645205557346343994e-01
6.036137789487838745e-02 -3.820692598819732666e-01 -2.115686535835266113e-01
-1.280003041028976440e-01 3.305055797100067139e-01 -2.121342420578002930e-01
2.613661289215087891e-01 1.035579442977905273e-01 2.098871171474456787e-01
2.027399986982345581e-01 -1.390219926834106445e-01 3.568016886711120605e-01
-1.887712478637695312e-01 2.037296593189239502e-01 3.436934947967529297e-01
-2.240432202816009521e-01 -2.655768692493438721e-01 1.210231706500053406e-01
4.871137440204620361e-02 4.071844518184661865e-01 -3.394223749637603760e-02
-2.272871732711791992e-01 2.428040057420730591e-01 1.525041908025741577e-01
1.823969185352325439e-01 -2.455106228590011597e-01 2.809685468673706055e-01
1.750131137669086456e-02 -2.349473834037780762e-01 -4.640122652053833008e-01
-1.736802607774734497e-01 -3.195644021034240723e-01 1.711260080337524414e-01
-2.535884976387023926e-01 -2.244721800088882446e-01 3.757803142070770264e-02
-1.815658658742904663e-01 9.764549136161804199e-02 -4.124311804771423340e-01
-2.132326066493988037e-01 -2.627339363098144531e-01 -2.096797227859497070e-01
2.681884765625000000e-01 1.425009220838546753e-01 -9.254768490791320801e-03
-1.545570790767669678e-01 -3.445126116275787354e-01 1.519786566495895386e-01
2.260023951530456543e-01 1.576105207204818726e-01 -2.345536500215530396e-01
1.610374748706817627e-01 -3.283938169479370117e-01 -1.409869343042373657e-01
2.341088801622390747e-01 -1.032881066203117371e-01 3.026641309261322021e-01
2.183707803487777710e-01 2.126118540763854980e-01 -1.847961246967315674e-01
-2.792969346046447754e-01 -1.501072496175765991e-01 7.124361116439104080e-03
2.420951277017593384e-01 -1.770592629909515381e-01 -1.601801663637161255e-01
1.957938820123672485e-01 2.827577479183673859e-02 -3.774830102920532227e-01
-4.725097864866256714e-02 2.467841506004333496e-01 4.633703529834747314e-01
-9.004292637109756470e-02 -7.630527764558792114e-02 5.269669294357299805e-01
-2.847327850759029388e-04 3.465112745761871338e-01 -2.761905789375305176e-01
-1.416310518980026245e-01 -2.473403811454772949e-01 3.642627894878387451e-01
1.693750917911529541e-01 -1.013329178094863892e-01 -4.103902578353881836e-01
1.998840123414993286e-01 2.338381707668304443e-01 2.826799154281616211e-01
-1.153994277119636536e-01 -6.140551995486021042e-04 5.211920738220214844e-01
2.112554609775543213e-01 2.533397078514099121e-01 -1.260704249143600464e-01
2.446659356355667114e-01 2.935600094497203827e-02 -2.569464147090911865e-01
-1.086643338203430176e-02 -3.531039655208587646e-01 3.000447154045104980e-01
1.617189049720764160e-01 -2.723591923713684082e-01 -2.757077515125274658e-01
-1.671566814184188843e-01 -1.418835520744323730e-01 -4.322221577167510986e-01
1.892355978488922119e-01 2.752020359039306641e-01 2.363961935043334961e-01
2.286591194570064545e-02 -3.055620193481445312e-01 3.778613209724426270e-01
5.138387531042098999e-02 -1.308594197034835815e-01 -5.125209093093872070e-01
1.999863833189010620e-01 2.041808664798736572e-01 3.230389952659606934e-01
2.576013207435607910e-01 1.691682338714599609e-01 -5.518973618745803833e-02
1.694896258413791656e-02 -5.012136884033679962e-03 5.676498413085937500e-01
3.049108572304248810e-02 3.577010929584503174e-01 3.131965398788452148e-01
2.435835301876068115e-01 1.798355728387832642e-01 -1.316006779670715332e-01
7.283184677362442017e-02 -3.595151603221893311e-01 2.465260028839111328e-01
1.969052255153656006e-01 2.318959236145019531e-01 -2.226281166076660156e-01
2.236069887876510620e-01 2.222872376441955566e-01 2.174841761589050293e-01
2.517532408237457275e-01 -1.172160543501377106e-02 2.849178016185760498e-01
2.609870731830596924e-01 -8.367350697517395020e-02 2.146927714347839355e-01
7.341210544109344482e-02 2.893062494695186615e-02 -5.173419713973999023e-01
2.784305214881896973e-01 9.417791850864887238e-03 1.510342657566070557e-01
4.216474294662475586e-02 -1.932244747877120972e-02 -5.362365245819091797e-01
-3.898590803146362305e-02 5.535624921321868896e-03 -5.429039001464843750e-01
-2.257282435894012451e-01 2.462656199932098389e-01 -1.212726756930351257e-01
2.312465012073516846e-01 -1.330801397562026978e-01 -2.557369470596313477e-01
-6.622609496116638184e-02 4.002806544303894043e-01 -6.098972260951995850e-02
-2.068370580673217773e-01 -2.655260562896728516e-01 -2.266433686017990112e-01
-9.879842400550842285e-02 -1.090351790189743042e-01 -5.090748071670532227e-01
-2.654602527618408203e-01 -9.617919474840164185e-02 2.133361846208572388e-01
-1.017572209239006042e-01 1.448080036789178848e-02 5.320921540260314941e-01
-9.066261351108551025e-02 2.560124695301055908e-01 4.268574118614196777e-01
-5.678018927574157715e-02 -1.763340532779693604e-01 4.970873594284057617e-01
1.784947067499160767e-01 3.234496414661407471e-01 -1.817294396460056305e-02
-8.717186748981475830e-02 -2.889989316463470459e-01 -3.901055157184600830e-01
-2.878033816814422607e-01 -6.233215332031250000e-02 -1.201731488108634949e-01
-9.547734260559082031e-02 3.073565848171710968e-02 5.359559655189514160e-01
-2.134597748517990112e-01 -2.851698100566864014e-01 -1.453654915094375610e-01
-6.226783245801925659e-02 -4.172344803810119629e-01 -1.035744324326515198e-02
2.049061059951782227e-01 -2.590118050575256348e-01 1.805029213428497314e-01
-2.610199153423309326e-01 -1.542125344276428223e-01 1.722898930311203003e-01
2.108603529632091522e-02 -4.120472073554992676e-01 1.081375032663345337e-01
1.209546178579330444e-01 -3.110409379005432129e-01 2.880707383155822754e-01
2.031670361757278442e-01 -1.467556804418563843e-01 3.496595919132232666e-01
-2.360229939222335815e-01 -2.573061287403106689e-01 -9.653103351593017578e-02
-2.491111010313034058e-01 1.924601644277572632e-01 -1.357281059026718140e-01
-8.808874338865280151e-02 3.978045582771301270e-01 2.504467964172363281e-02
2.208879888057708740e-01 -1.036528497934341431e-01 -3.050227463245391846e-01
-7.253652811050415039e-02 -4.140850007534027100e-01 -2.351904287934303284e-03
7.821286469697952271e-02 -2.609611451625823975e-01 -4.083886742591857910e-01
-2.620590478181838989e-02 3.878469765186309814e-02 -5.398191213607788086e-01
-7.472951710224151611e-02 -2.217603325843811035e-01 4.530917406082153320e-01
6.735797226428985596e-02 1.425370126962661743e-01 -4.804043173789978027e-01
9.479686617851257324e-02 -3.693689405918121338e-01 1.851245760917663574e-01
-1.689765006303787231e-01 -2.307060211896896362e-01 -3.632362484931945801e-01
-5.568905919790267944e-02 -3.242840468883514404e-01 -3.593782186508178711e-01
1.740806102752685547e-01 -2.724593579769134521e-01 -2.447904646396636963e-01
9.635036438703536987e-02 7.339023798704147339e-02 -4.912568032741546631e-01
2.206618189811706543e-01 -2.492276877164840698e-01 -1.076253429055213928e-01
-2.682864367961883545e-01 -1.547845453023910522e-01 -1.511278301477432251e-01
-1.356322616338729858e-01 -3.572392463684082031e-01 1.623833626508712769e-01
-1.161102205514907837e-01 -3.784740567207336426e-01 1.308953166007995605e-01
-2.954552322626113892e-02 -3.477208912372589111e-01 -3.283384740352630615e-01
1.204680949449539185e-01 -2.538513839244842529e-01 -3.715920150279998779e-01
-1.591112166643142700e-01 3.216599524021148682e-01 -1.622201353311538696e-01
-2.721594870090484619e-01 9.283268451690673828e-02 -1.726711392402648926e-01
2.810249030590057373e-01 6.392895430326461792e-02 8.916904032230377197e-02
2.564290538430213928e-02 -4.195959568023681641e-01 3.653678297996520996e-02
9.012389183044433594e-02 -3.663640022277832031e-01 -2.142993211746215820e-01
-7.928123325109481812e-02 -2.945684790611267090e-01 -3.883773088455200195e-01
-1.414699852466583252e-01 -3.478597998619079590e-01 1.782557070255279541e-01
3.701387345790863037e-02 -7.517229020595550537e-02 -5.334065556526184082e-01
-9.850064665079116821e-02 3.876338899135589600e-01 1.147756874561309814e-01
-8.032241463661193848e-02 2.185309678316116333e-01 4.698388874530792236e-01
2.120744585990905762e-01 -2.177475094795227051e-01 2.408394813537597656e-01
-5.574403703212738037e-02 -2.839174866676330566e-01 -4.131522476673126221e-01
2.779377400875091553e-01 4.046262428164482117e-02 -8.981798589229583740e-02
-1.999300867319107056e-01 -1.785038262605667114e-01 -3.558783829212188721e-01
-2.425705790519714355e-01 1.092145517468452454e-01 2.877573966979980469e-01
1.459849998354911804e-02 -4.174471795558929443e-01 -1.011032238602638245e-01
2.657935023307800293e-01 3.286875784397125244e-02 2.263329923152923584e-01
-6.302459537982940674e-02 3.994071185588836670e-01 1.392609775066375732e-01
-1.366950720548629761e-01 -3.255783617496490479e-01 2.464693784713745117e-01
-1.202155724167823792e-01 2.019590735435485840e-01 4.487682580947875977e-01
-1.318888813257217407e-01 -3.809602260589599609e-01 -9.039136022329330444e-02
1.269731372594833374e-01 1.819645166397094727e-01 -4.038963317871093750e-01
-2.001114785671234131e-01 2.738632559776306152e-01 1.968397945165634155e-01
1.762676537036895752e-01 3.113818764686584473e-01 -1.011208221316337585e-01
6.947821378707885742e-02 3.679150640964508057e-01 2.604030966758728027e-01
-2.857080996036529541e-01 -1.148907244205474854e-01 -6.068731099367141724e-02
-2.116798907518386841e-01 3.951128572225570679e-02 3.906404376029968262e-01
1.426144093275070190e-01 -3.173663616180419922e-01 -2.324299812316894531e-01
-9.688993543386459351e-02 3.620390892028808594e-01 -1.777345389127731323e-01
1.821245998144149780e-02 4.058605730533599854e-01 1.589608192443847656e-01
9.160952270030975342e-02 -5.766598880290985107e-02 -5.068449974060058594e-01
-1.830311715602874756e-01 3.094562590122222900e-01 -1.148584708571434021e-01
2.547453045845031738e-01 -1.275117099285125732e-01 -1.652971953153610229e-01
6.220323592424392700e-02 8.565311878919601440e-02 -5.090209841728210449e-01
2.387963980436325073e-01 1.309239119291305542e-01 -2.185759544372558594e-01
1.291988790035247803e-01 -2.633033394813537598e-01 3.537019193172454834e-01
2.401337772607803345e-01 1.700696051120758057e-01 2.341620326042175293e-01
2.367050051689147949e-01 -2.086833864450454712e-01 -1.241633072495460510e-01
3.829632699489593506e-02 -4.158191084861755371e-01 -7.442229986190795898e-02
2.381260991096496582e-01 7.710617035627365112e-02 -2.599172294139862061e-01
-2.815974056720733643e-01 -7.727131247520446777e-03 1.712138503789901733e-01
1.564597487449645996e-01 -9.371921420097351074e-02 4.604876041412353516e-01
-5.454168468713760376e-02 1.005172207951545715e-01 -5.159338712692260742e-01
-1.555987596511840820e-01 3.531176149845123291e-01 4.084261506795883179e-02
-2.536042332649230957e-01 1.352342367172241211e-01 -2.119678407907485962e-01
-1.191525161266326904e-02 3.006746768951416016e-01 4.131819903850555420e-01
2.312077432870864868e-01 2.039861828088760376e-01 -1.470686048269271851e-01
-5.037757009267807007e-02 -3.817749023437500000e-01 -2.443402409553527832e-01
-2.130707949399948120e-01 2.722088098526000977e-01 1.366324424743652344e-01
2.076265811920166016e-01 2.470140457153320312e-01 -1.577510982751846313e-01
1.610131561756134033e-01 -2.682568728923797607e-01 2.920469939708709717e-01
-1.694983392953872681e-01 2.447189688682556152e-01 -2.988688051700592041e-01
-1.591375023126602173e-01 -1.222328394651412964e-01 4.435364603996276855e-01
2.486379593610763550e-01 2.053783535957336426e-01 7.506537437438964844e-02
-1.297736167907714844e-01 -3.854215145111083984e-01 -5.347195267677307129e-02
-1.568842977285385132e-01 -3.559607267379760742e-01 9.280737489461898804e-02
2.740527391433715820e-01 9.534257650375366211e-02 -6.515968590974807739e-02
2.476992756128311157e-01 -2.029180079698562622e-01 6.266129016876220703e-02
-1.975094974040985107e-01 2.383581846952438354e-01 2.777986824512481689e-01
-5.145335197448730469e-02 -2.859448455274105072e-02 5.563368201255798340e-01
2.757124900817871094e-01 -6.956683099269866943e-02 -8.816393464803695679e-02
-2.548983097076416016e-01 -1.141243949532508850e-01 -2.580952346324920654e-01
-2.059310376644134521e-01 2.329427981749176979e-03 4.043287336826324463e-01
2.629839815199375153e-02 -4.210645258426666260e-01 -1.769581623375415802e-02
-1.746081411838531494e-01 2.757107615470886230e-01 2.737421393394470215e-01
9.773903340101242065e-02 -3.803467154502868652e-01 1.343032866716384888e-01
2.290810197591781616e-01 -2.035637386143207550e-02 3.515140712261199951e-01
2.542566657066345215e-01 6.192718073725700378e-02 -2.107277214527130127e-01
2.469343692064285278e-01 -1.613616645336151123e-01 1.902062296867370605e-01
-2.891157865524291992e-01 8.178027719259262085e-02 2.112653478980064392e-02
-1.482599079608917236e-01 5.421917513012886047e-02 -4.709077775478363037e-01
-2.234445959329605103e-01 -6.990703195333480835e-02 -3.632290065288543701e-01
-1.832679845392704010e-02 3.718361556529998779e-01 2.820751667022705078e-01
1.109141334891319275e-01 3.582113087177276611e-01 -1.463611871004104614e-01
-4.707499593496322632e-02 1.301826387643814087e-01 5.385988354682922363e-01
-1.672691851854324341e-01 3.373675644397735596e-01 1.010610461235046387e-01
-6.735676527023315430e-02 -2.291547358036041260e-01 4.505360424518585205e-01
4.299869388341903687e-02 -4.085220098495483398e-01 1.026075035333633423e-01
-2.003183215856552124e-01 -4.420999065041542053e-02 4.091928303241729736e-01
2.792791463434696198e-02 -3.384768664836883545e-01 -3.367291390895843506e-01
-3.980927169322967529e-02 3.590281307697296143e-01 3.037043213844299316e-01
-7.584195584058761597e-02 -4.002112448215484619e-01 1.188455522060394287e-01
-1.797967702150344849e-01 3.073546588420867920e-01 -1.372046172618865967e-01
-7.920370250940322876e-02 2.310448735952377319e-01 4.599853754043579102e-01
-1.925687342882156372e-01 2.765878736972808838e-01 2.185219526290893555e-01
-1.790492422878742218e-02 -4.124441742897033691e-01 -1.438501924276351929e-01
2.234152555465698242e-01 2.326613068580627441e-01 -1.202676966786384583e-01
1.512483805418014526e-01 -3.066147565841674805e-01 -2.354476451873779297e-01
8.685978129506111145e-03 4.153999388217926025e-01 -8.270753547549247742e-03
1.909227371215820312e-01 6.629969924688339233e-03 -3.893185257911682129e-01
2.086681500077247620e-02 -4.218813478946685791e-01 -2.445332147181034088e-02
-7.014388591051101685e-02 -4.104209542274475098e-01 6.442161649465560913e-02
2.390084862709045410e-01 -1.216013878583908081e-01 2.721493840217590332e-01
2.190100550651550293e-01 -2.438940554857254028e-01 -1.357698887586593628e-01
7.686765491962432861e-02 1.830188930034637451e-01 5.015881657600402832e-01
-2.852874100208282471e-01 -1.158736273646354675e-01 4.561962932348251343e-02
-4.037250764667987823e-03 3.966174423694610596e-01 -1.360284984111785889e-01
-1.356677114963531494e-01 3.374540805816650391e-01 2.264045327901840210e-01
-2.369386404752731323e-01 -5.823599919676780701e-02 3.264982104301452637e-01
6.302288733422756195e-03 1.980278193950653076e-01 -4.644863009452819824e-01
-1.898198276758193970e-01 -2.971380949020385742e-01 -2.114353626966476440e-01
-2.146733999252319336e-01 -9.105194360017776489e-03 3.867929577827453613e-01
-2.270012348890304565e-01 -9.136698395013809204e-02 3.380009829998016357e-01
3.492980450391769409e-02 -1.975371688604354858e-01 4.893846511840820312e-01
-1.643568836152553558e-02 4.158013761043548584e-01 6.631899625062942505e-02
-8.397261053323745728e-02 -1.325301229953765869e-01 -5.094438791275024414e-01
-2.197224497795104980e-01 7.373116165399551392e-02 3.652651607990264893e-01
-1.252294331789016724e-01 8.615129627287387848e-03 5.128057003021240234e-01
1.798120290040969849e-01 1.659559309482574463e-01 -3.386942148208618164e-01
2.551010847091674805e-01 -1.103887185454368591e-01 2.181781232357025146e-01
-6.764624267816543579e-04 4.082138836383819580e-01 -7.728410512208938599e-02
-2.620349824428558350e-02 -3.875771164894104004e-01 -2.378211319446563721e-01
1.867204010486602783e-01 -2.422642707824707031e-01 -2.613746225833892822e-01
1.332026161253452301e-02 -3.801397383213043213e-01 2.343743443489074707e-01
2.586629986763000488e-01 1.573272645473480225e-01 -7.873982936143875122e-02
-1.150207892060279846e-01 3.612771332263946533e-01 -1.446438431739807129e-01
-5.685909837484359741e-02 3.980586230754852295e-01 1.590529680252075195e-01
-1.178815439343452454e-01 -3.897986412048339844e-01 -9.109728038311004639e-02
-7.241474837064743042e-02 2.677921354770660400e-01 -3.798544406890869141e-01
3.353720903396606445e-02 -3.096316941082477570e-02 5.623599886894226074e-01
4.046058654785156250e-02 -3.028633296489715576e-01 3.759302198886871338e-01
-2.753802202641963959e-02 2.813386023044586182e-01 4.339754283428192139e-01
5.466318130493164062e-02 3.466790020465850830e-01 -2.535402178764343262e-01
2.802074253559112549e-01 -3.906121943145990372e-03 1.345034092664718628e-01
2.336057275533676147e-02 -1.417278796434402466e-01 5.274311304092407227e-01
2.921010367572307587e-03 -3.461627066135406494e-01 3.137355744838714600e-01
-1.867253333330154419e-02 2.077898532152175903e-01 -4.573219716548919678e-01
-5.706311203539371490e-04 -8.912662416696548462e-02 -5.387592315673828125e-01
-2.264379560947418213e-01 -2.655371278524398804e-02 -3.625600039958953857e-01
-2.416669577360153198e-01 2.225329428911209106e-01 1.210849955677986145e-01
1.595431715250015259e-01 2.092090845108032227e-01 3.984438776969909668e-01
2.386043369770050049e-01 -2.280033081769943237e-01 -3.000693395733833313e-04
-2.620955929160118103e-02 1.512244641780853271e-01 -4.965524971485137939e-01
-7.522571831941604614e-02 -2.060300856828689575e-01 -4.749620854854583740e-01
2.452218085527420044e-01 -2.029056251049041748e-01 -7.212271541357040405e-02
1.270169615745544434e-01 2.058375328779220581e-01 4.444428980350494385e-01
4.212436079978942871e-02 -3.964090943336486816e-01 1.637307107448577881e-01
-1.989129781723022461e-01 2.861521840095520020e-01 -1.276629716157913208e-01
-1.382553875446319580e-01 3.373567163944244385e-01 -1.705362200736999512e-01
-1.065888330340385437e-01 3.802715837955474854e-01 -7.719907164573669434e-02
1.243453025817871094e-01 2.909573912620544434e-01 -2.796171605587005615e-01
-6.085343193262815475e-03 7.937797904014587402e-02 -5.297522544860839844e-01
-2.319612354040145874e-01 1.812639087438583374e-01 2.531677484512329102e-01
-4.754818230867385864e-02 2.561164796352386475e-01 -4.049224257469177246e-01
-2.939200401306152344e-01 3.507195785641670227e-02 -3.907013684511184692e-02
2.346755191683769226e-02 3.816769123077392578e-01 -1.825852096080780029e-01
-1.192056238651275635e-01 3.755411207675933838e-01 -5.758842080831527710e-02
-2.869618535041809082e-01 -1.426743529736995697e-02 -1.433040350675582886e-01
-1.652013510465621948e-01 -2.948632240295410156e-01 -2.810639142990112305e-01
3.309950977563858032e-02 -1.761727333068847656e-01 -4.991169273853302002e-01
6.483920663595199585e-02 -2.400264441967010498e-01 -4.384949505329132080e-01
-1.321896761655807495e-01 3.612330257892608643e-01 1.461444944143295288e-01
-2.491730004549026489e-01 2.157360017299652100e-01 7.400888204574584961e-02
2.641142308712005615e-01 -1.293660402297973633e-01 -1.016947925090789795e-01
-2.545823752880096436e-01 1.838173717260360718e-02 2.845835387706756592e-01
5.947100371122360229e-02 -3.229570090770721436e-01 -3.428440988063812256e-01
-1.473469883203506470e-01 -3.646510243415832520e-01 8.927188813686370850e-02
-1.727684289216995239e-01 2.296827882528305054e-01 -3.136179447174072266e-01
2.521670162677764893e-01 1.402884721755981445e-01 -1.510440260171890259e-01
1.791754364967346191e-01 2.629602551460266113e-01 -2.175312936305999756e-01
8.155337721109390259e-02 -3.119612038135528564e-01 -3.401609063148498535e-01
-6.282598525285720825e-02 2.669758796691894531e-01 -3.859826326370239258e-01
-1.208177134394645691e-01 3.268771469593048096e-01 2.836981117725372314e-01
-2.331411689519882202e-01 -1.765416562557220459e-01 2.544428110122680664e-01
2.463998049497604370e-01 1.917611360549926758e-01 -8.637908101081848145e-02
-1.342377215623855591e-01 -2.353847324848175049e-01 -4.057148098945617676e-01
1.383764296770095825e-01 6.368349492549896240e-02 -4.541390836238861084e-01
-2.528871893882751465e-01 -3.596494719386100769e-02 2.868064939975738525e-01
5.596655607223510742e-02 3.799514174461364746e-01 -1.632114648818969727e-01
-2.337068319320678711e-01 -2.305766940116882324e-01 -1.941990852355957031e-01
2.606042623519897461e-01 1.234854683279991150e-01 -1.271208971738815308e-01
-7.220643013715744019e-02 -7.193787395954132080e-02 5.384232997894287109e-01
1.215753853321075439e-01 -2.754840552806854248e-01 3.467973768711090088e-01
2.761141955852508545e-01 -7.719082385301589966e-02 1.176442354917526245e-01
-7.476911693811416626e-02 -3.043460547924041748e-01 3.577384054660797119e-01
-4.667009413242340088e-02 -1.425140351057052612e-01 5.209177136421203613e-01
8.608183264732360840e-02 3.771487772464752197e-01 -1.285777837038040161e-01
-9.423071891069412231e-02 -1.283367723226547241e-01 -5.054132938385009766e-01
-2.876469492912292480e-01 -3.535553440451622009e-02 -1.351564079523086548e-01
-7.199478894472122192e-02 1.604959070682525635e-01 -4.781315624713897705e-01
-1.216813921928405762e-01 3.184100687503814697e-01 3.000049889087677002e-01
1.306081376969814301e-02 -1.636148095130920410e-01 5.163340568542480469e-01
-2.488145083189010620e-01 1.610695868730545044e-01 -1.971412748098373413e-01
-2.632893025875091553e-01 -5.529652163386344910e-02 2.449052929878234863e-01
1.709547340869903564e-01 -2.545782029628753662e-01 -2.823516130447387695e-01
-1.967696845531463623e-01 -3.213580548763275146e-01 -7.454069703817367554e-02
2.569815516471862793e-01 9.520202130079269409e-02 -1.769723445177078247e-01
2.217172384262084961e-01 2.462480217218399048e-02 3.719947338104248047e-01
-3.353508561849594116e-02 -2.110245227813720703e-01 4.793497323989868164e-01
-2.386418581008911133e-01 -1.573082059621810913e-01 2.580412924289703369e-01
2.591783106327056885e-01 -9.218557178974151611e-02 -1.769150197505950928e-01
8.750457316637039185e-02 -6.477614492177963257e-02 5.336745977401733398e-01
2.643931806087493896e-01 1.603176146745681763e-01 4.277148097753524780e-02
-4.439541697502136230e-02 -4.187624454498291016e-01 4.426836967468261719e-02
1.920264661312103271e-01 -2.829114198684692383e-01 1.686542183160781860e-01
-1.087966263294219971e-01 -1.021048128604888916e-01 5.046446323394775391e-01
-2.504725456237792969e-01 2.144218832254409790e-01 6.217341125011444092e-02
-1.797981262207031250e-01 -5.033718422055244446e-02 -4.424397647380828857e-01
2.492139488458633423e-01 -5.595756322145462036e-02 -2.380550205707550049e-01
-2.830528616905212402e-01 3.799457475543022156e-02 -1.539886295795440674e-01
-1.587257683277130127e-01 -3.486039936542510986e-01 -1.553963273763656616e-01
-2.200433164834976196e-01 7.757212221622467041e-02 -3.531177639961242676e-01
-1.855145767331123352e-02 -3.183943927288055420e-01 3.607218265533447266e-01
2.121856957674026489e-01 -1.300773918628692627e-01 -3.121097087860107422e-01
-1.811600476503372192e-02 -1.378272473812103271e-01 -5.247346758842468262e-01
-4.811861366033554077e-02 -2.414974868297576904e-01 -4.578520059585571289e-01
2.578124403953552246e-01 5.822692811489105225e-02 -1.978115737438201904e-01
1.104236841201782227e-01 -3.673549890518188477e-01 -1.660742014646530151e-01
-1.444553583860397339e-01 2.145189940929412842e-01 4.088954627513885498e-01
1.815093904733657837e-01 1.476762145757675171e-01 -3.500251770019531250e-01
1.357903480529785156e-01 3.666494488716125488e-01 6.924317777156829834e-02
-4.679529368877410889e-02 -2.979148924350738525e-01 3.825669884681701660e-01
-2.111775428056716919e-02 4.159462749958038330e-01 4.604323953390121460e-02
-3.170281648635864258e-02 4.145179092884063721e-01 1.938749477267265320e-02
-7.185387611389160156e-02 2.456938475370407104e-01 4.513343870639801025e-01
-2.039575576782226562e-01 1.907986700534820557e-01 -2.978026568889617920e-01
-1.843571662902832031e-01 -3.384137749671936035e-01 4.838712047785520554e-03
-2.584284842014312744e-01 1.556970458477735519e-02 2.719642519950866699e-01
1.792148202657699585e-01 2.847346365451812744e-01 2.471245378255844116e-01
-2.829884886741638184e-01 7.338901609182357788e-02 1.263645887374877930e-01
1.604928374290466309e-01 2.862716615200042725e-01 2.936588823795318604e-01
1.317636966705322266e-01 -1.165598407387733459e-01 4.784562885761260986e-01
-1.630717515945434570e-01 3.459792137145996094e-01 6.463238969445228577e-04
2.429814934730529785e-01 7.530513405799865723e-02 -2.451244294643402100e-01
1.287318319082260132e-01 3.289596140384674072e-01 2.700305879116058350e-01
-1.390845179557800293e-01 3.529853522777557373e-01 -1.086774468421936035e-01
-4.159969091415405273e-02 -4.115916788578033447e-01 -1.357492357492446899e-01
-1.440346240997314453e-01 -2.309259921312332153e-01 -3.984428942203521729e-01
1.990417838096618652e-01 -8.191707544028759003e-03 4.181116819381713867e-01
7.504072040319442749e-02 -2.245740294456481934e-01 4.490832984447479248e-01
-5.631560087203979492e-02 4.581544920802116394e-02 5.557765364646911621e-01
-2.568727433681488037e-01 1.992934942245483398e-01 5.781748145818710327e-02
-1.109056770801544189e-01 -3.694207966327667236e-01 1.776127815246582031e-01
7.825124263763427734e-02 -3.108074665069580078e-01 3.397646546363830566e-01
-1.772584766149520874e-01 -8.193439804017543793e-03 -4.470536708831787109e-01
-1.606855243444442749e-01 3.313629031181335449e-01 1.683740019798278809e-01
-2.697735428810119629e-01 -1.098557561635971069e-01 -1.986861228942871094e-01
6.646375171840190887e-03 -4.147825837135314941e-01 -1.261833459138870239e-01
1.436859667301177979e-01 3.343929648399353027e-01 2.190304696559906006e-01
-2.146313488483428955e-01 7.828015834093093872e-02 3.748334944248199463e-01
-1.930464506149291992e-01 1.901807449758052826e-02 -4.209983348846435547e-01
2.441621571779251099e-01 1.242965385317802429e-01 -2.049117535352706909e-01
1.351618915796279907e-01 -3.533573150634765625e-01 -1.434617340564727783e-01
9.160600602626800537e-02 -3.313745856285095215e-01 -2.950744926929473877e-01
-2.283261530101299286e-02 -4.107274115085601807e-01 1.238170787692070007e-01
1.976109594106674194e-01 -4.135452583432197571e-02 4.150199294090270996e-01
-2.545748949050903320e-01 8.694162219762802124e-02 2.614414095878601074e-01
2.655080556869506836e-01 1.084600538015365601e-01 1.800567060708999634e-01
5.636421591043472290e-02 -3.919976055622100830e-01 1.646404415369033813e-01
-8.237982541322708130e-02 3.731777071952819824e-01 -1.632986366748809814e-01
-1.591499149799346924e-02 -4.221365749835968018e-01 4.032004624605178833e-02
2.086996138095855713e-01 -2.616164982318878174e-01 1.545529365539550781e-01
-1.802334189414978027e-01 -9.080743044614791870e-02 4.280433952808380127e-01
-5.004275590181350708e-02 3.282091021537780762e-01 -3.008307516574859619e-01
4.576609469950199127e-03 -3.210605680942535400e-01 -3.717198967933654785e-01
-1.546892374753952026e-01 3.537196218967437744e-01 2.132629975676536560e-03
1.909392923116683960e-01 -1.640623360872268677e-01 -3.371208012104034424e-01
-8.275138586759567261e-02 -3.860410451889038086e-01 1.686198711395263672e-01
2.749813795089721680e-01 1.055673137307167053e-01 -3.057718463242053986e-02
-1.920189708471298218e-01 -2.260331958532333374e-01 3.024896681308746338e-01
2.817987799644470215e-01 -2.856991067528724670e-02 1.072063595056533813e-01
1.181921958923339844e-01 -7.285493612289428711e-02 -4.817838370800018311e-01
1.673659086227416992e-01 3.262732625007629395e-01 -8.033501356840133667e-02
2.684212327003479004e-01 -6.322640180587768555e-02 -1.468763649463653564e-01
-6.902168691158294678e-02 -5.637731403112411499e-02 5.439311861991882324e-01
1.236707717180252075e-01 3.212628960609436035e-01 2.968732416629791260e-01
-8.446834981441497803e-02 1.049072369933128357e-01 5.293042063713073730e-01
-1.681100130081176758e-01 -1.201828122138977051e-01 -4.406003952026367188e-01
-5.542103201150894165e-02 2.906943261623382568e-01 -3.583928644657135010e-01
1.807143092155456543e-01 3.197916150093078613e-01 1.079773530364036560e-01
1.268293410539627075e-01 3.151704668998718262e-01 3.040303289890289307e-01
-1.511757224798202515e-01 7.378277182579040527e-02 -4.615075290203094482e-01
1.981620788574218750e-01 2.974333763122558594e-01 -2.557612024247646332e-02
2.046555429697036743e-01 1.726535111665725708e-01 -2.789115607738494873e-01
2.415789365768432617e-01 -7.886654883623123169e-02 -2.557252943515777588e-01
-1.607182174921035767e-01 -2.530343234539031982e-01 -3.513157069683074951e-01
-1.665098816156387329e-01 3.419799506664276123e-01 -1.328581385314464569e-02
1.946619525551795959e-02 4.158130586147308350e-01 5.360737442970275879e-02
2.538095414638519287e-01 -1.890298873186111450e-01 -1.100220344960689545e-02
1.442271023988723755e-01 -1.526386886835098267e-01 -4.232232868671417236e-01
-2.851005494594573975e-01 -8.888894319534301758e-02 1.024217978119850159e-01
-2.470961660146713257e-01 -1.861547082662582397e-01 -2.138595283031463623e-01
-2.826241850852966309e-01 -5.715985596179962158e-02 -1.623241752386093140e-01
-2.931196987628936768e-01 8.009810931980609894e-03 -8.085941523313522339e-02
-3.274927847087383270e-03 4.170100986957550049e-01 3.376968204975128174e-02
9.070777893066406250e-02 -3.754742443561553955e-01 -1.831538677215576172e-01
-2.617795765399932861e-01 9.311599284410476685e-02 -2.216346710920333862e-01
1.238819211721420288e-01 9.646412730216979980e-02 -4.582444727420806885e-01
-1.593142449855804443e-01 -3.376662731170654297e-01 1.604012995958328247e-01
1.045966297388076782e-01 3.719933032989501953e-01 -1.078260168433189392e-01
6.429859995841979980e-02 -4.088977873325347900e-01 -5.845299363136291504e-02
-4.390499740839004517e-02 -2.220952510833740234e-02 -5.432860851287841797e-01
2.796745598316192627e-01 4.443113133311271667e-02 -7.034865021705627441e-02
-8.169751614332199097e-03 4.118599593639373779e-01 -5.000045150518417358e-02
2.057483494281768799e-01 -1.855057477951049805e-01 3.051333725452423096e-01
-2.134940177202224731e-01 -1.551274210214614868e-01 3.281590938568115234e-01
2.594814598560333252e-01 -8.107378333806991577e-02 -1.833841055631637573e-01
-1.535852551460266113e-01 -3.197236657142639160e-01 2.251607924699783325e-01
1.419975608587265015e-01 3.503005504608154297e-01 1.625614017248153687e-01
-2.917284965515136719e-01 -7.587544620037078857e-02 3.532294929027557373e-02
2.654559016227722168e-01 -9.885066002607345581e-02 1.745777577161788940e-01
6.325172260403633118e-03 -2.453747689723968506e-01 4.524186253547668457e-01
2.659683823585510254e-01 2.090126276016235352e-02 2.273651659488677979e-01
-2.718372642993927002e-01 1.382619291543960571e-01 -1.022186428308486938e-01
1.094094216823577881e-01 -3.586171865463256836e-01 -1.991458833217620850e-01
2.811608910560607910e-01 7.327185571193695068e-02 6.283311545848846436e-02
7.926771789789199829e-02 -3.891857266426086426e-01 -1.522051990032196045e-01
1.925062090158462524e-01 2.107366174459457397e-01 -2.649088203907012939e-01
-1.913563460111618042e-01 -1.603690907359123230e-02 4.288956522941589355e-01
1.590678840875625610e-01 -3.418996334075927734e-01 -8.155697584152221680e-02
2.090450562536716461e-02 2.836653888225555420e-01 4.341682493686676025e-01
6.847147643566131592e-02 -2.116652131080627441e-01 4.644715189933776855e-01
2.108674347400665283e-01 2.736726999282836914e-01 1.325515061616897583e-01
-1.354144364595413208e-01 3.694019317626953125e-01 3.627014812082052231e-03
8.512239903211593628e-02 -3.225767910480499268e-01 -3.189671933650970459e-01
2.811185419559478760e-01 -1.122641470283269882e-02 -7.236284017562866211e-02
1.034469902515411377e-01 3.609961271286010742e-01 2.303817272186279297e-01
-1.786271184682846069e-01 -3.023314476013183594e-01 2.021915465593338013e-01
-9.447402507066726685e-02 3.935076892375946045e-01 -1.278350129723548889e-02
2.531356811523437500e-01 1.875246912240982056e-01 -3.656082600355148315e-02
2.285359054803848267e-01 2.910449169576168060e-02 3.550479114055633545e-01
2.706452310085296631e-01 -7.028534263372421265e-02 -1.277130097150802612e-01
2.693195641040802002e-01 -1.282243058085441589e-02 2.086944878101348877e-01
2.257415056228637695e-01 -2.063870877027511597e-01 2.092417627573013306e-01
-1.393833160400390625e-01 5.523327365517616272e-02 4.952882826328277588e-01
1.581690311431884766e-01 -3.114425241947174072e-01 2.076332420110702515e-01
1.948989927768707275e-01 1.578777283430099487e-01 3.778872191905975342e-01
3.252224624156951904e-02 1.186757162213325500e-01 5.488079190254211426e-01
-3.053831169381737709e-03 -3.287334740161895752e-01 3.452216088771820068e-01
-1.972078233957290649e-01 -2.310450226068496704e-01 -3.083208799362182617e-01
2.068884074687957764e-01 -2.854144275188446045e-01 -3.648751229047775269e-02
2.177692502737045288e-01 1.520324051380157471e-01 -2.647411525249481201e-01
-1.114242747426033020e-01 3.244657814502716064e-01 3.038916587829589844e-01
2.170438766479492188e-01 2.388849407434463501e-01 2.107293009757995605e-01
3.135276585817337036e-02 3.526443839073181152e-01 3.237583637237548828e-01
-8.305229246616363525e-02 3.962588012218475342e-01 -4.184727370738983154e-02
-1.983396410942077637e-01 9.235461801290512085e-02 4.020610153675079346e-01
-1.699954271316528320e-02 -2.015088349580764771e-01 4.899497926235198975e-01
-1.942592412233352661e-01 -1.937600225210189819e-01 -3.541036844253540039e-01
-2.348637133836746216e-01 -2.425557523965835571e-01 1.298777610063552856e-01
1.609892994165420532e-01 3.440304100513458252e-01 4.020594060420989990e-03
-1.263483166694641113e-01 -8.360604196786880493e-02 -4.956349432468414307e-01
2.372864633798599243e-02 -4.091824889183044434e-01 1.221745610237121582e-01
1.100750192999839783e-01 -1.200404018163681030e-01 4.968379437923431396e-01
9.201851487159729004e-02 -2.084192782640457153e-01 -4.437126219272613525e-01
-9.698682278394699097e-02 3.690593242645263672e-01 2.112562507390975952e-01
9.308348596096038818e-02 3.357656300067901611e-01 -2.377360910177230835e-01
2.162998914718627930e-02 -1.711554378271102905e-01 -5.052362084388732910e-01
2.766299545764923096e-01 4.686545580625534058e-02 -9.677081555128097534e-02
2.417484819889068604e-01 1.339656263589859009e-01 2.690886855125427246e-01
3.480232506990432739e-02 -4.069513976573944092e-01 1.230398118495941162e-01
2.256193757057189941e-01 -1.743094921112060547e-01 2.600291967391967773e-01
-1.681696176528930664e-01 -3.482529819011688232e-01 7.610413432121276855e-02
-1.287698447704315186e-01 3.421054482460021973e-01 -1.782620996236801147e-01
2.175457477569580078e-01 -1.773066818714141846e-01 2.819973230361938477e-01
1.648804247379302979e-01 -1.378376781940460205e-01 -4.013574123382568359e-01
1.346808224916458130e-01 1.022802218794822693e-01 4.937866032123565674e-01
-2.389751672744750977e-01 2.396053671836853027e-01 5.967885255813598633e-02
2.035019546747207642e-01 -1.990285813808441162e-01 -2.735786139965057373e-01
1.811139285564422607e-01 -1.024704426527023315e-01 -3.905732929706573486e-01
-2.181404232978820801e-01 -2.223794013261795044e-01 2.394801676273345947e-01
-2.289044857025146484e-01 2.516469657421112061e-01 -7.689683884382247925e-02
1.081733331084251404e-01 1.393186897039413452e-01 -4.522626698017120361e-01
1.744575649499893188e-01 -3.306432366371154785e-01 1.056972518563270569e-02
1.679091453552246094e-01 9.651536494493484497e-02 4.552612304687500000e-01
-5.208119750022888184e-02 -3.369480967521667480e-01 3.183059990406036377e-01
-2.672095596790313721e-01 8.235586434602737427e-02 2.129623293876647949e-01
-1.636983752250671387e-01 2.268335372209548950e-01 -3.329327404499053955e-01
1.767593771219253540e-01 -3.279581069946289062e-01 -8.088123053312301636e-03
-2.324466854333877563e-01 2.316447645425796509e-01 1.552421003580093384e-01
-2.483589202165603638e-01 -1.788558512926101685e-01 1.954507678747177124e-01
-2.291140705347061157e-01 -2.558476924896240234e-01 1.231064051389694214e-01
-9.209008514881134033e-02 3.226205706596374512e-01 -2.800219058990478516e-01
-2.664719223976135254e-01 1.753743737936019897e-01 -1.489363424479961395e-02
2.456725090742111206e-01 -2.054258584976196289e-01 -5.472534894943237305e-02
2.555383443832397461e-01 7.151687145233154297e-02 -2.002411186695098877e-01
-4.018117487430572510e-02 4.128609597682952881e-01 5.671989917755126953e-02
-4.721204191446304321e-02 -4.067435860633850098e-01 1.265722662210464478e-01
-2.852892577648162842e-01 1.749410992488265038e-03 1.477805823087692261e-01
-2.057930976152420044e-01 1.522342711687088013e-01 -3.331474363803863525e-01
-1.271971315145492554e-01 -3.725296854972839355e-01 1.256765574216842651e-01
1.557984054088592529e-01 -2.129648774862289429e-01 -3.615083694458007812e-01
1.423146277666091919e-01 9.494804590940475464e-02 4.879193305969238281e-01
-1.825290769338607788e-01 -1.133550256490707397e-01 4.142943620681762695e-01
-1.764330267906188965e-01 8.262971043586730957e-02 -4.267449080944061279e-01
2.376422733068466187e-01 1.461085528135299683e-01 -2.070223242044448853e-01
-7.650519162416458130e-02 -1.306133419275283813e-01 -5.137179493904113770e-01
-1.060034707188606262e-01 4.283883422613143921e-02 5.273403525352478027e-01
7.408997416496276855e-02 -2.888939380645751953e-01 3.762088119983673096e-01
-6.987539678812026978e-02 2.358824908733367920e-01 4.617286324501037598e-01
2.402174621820449829e-01 2.266942411661148071e-01 1.138920336961746216e-02
-2.448220402002334595e-01 -2.473798245191574097e-01 -1.813500560820102692e-02
2.634631693363189697e-01 1.623768508434295654e-01 6.214777380228042603e-02
-1.173530220985412598e-01 3.046942949295043945e-01 -2.841389179229736328e-01
-2.842704057693481445e-01 7.363330572843551636e-02 -1.120381653308868408e-01
-9.895120561122894287e-02 3.861080706119537354e-01 1.245527788996696472e-01
5.566291511058807373e-02 -3.594024777412414551e-01 2.634884417057037354e-01
-1.999203115701675415e-01 -2.243236079812049866e-02 -4.133562147617340088e-01
-2.335579097270965576e-01 2.523235082626342773e-01 9.131466969847679138e-03
7.575856149196624756e-02 -3.938408195972442627e-01 -1.376152187585830688e-01
-1.480237990617752075e-01 2.935002744197845459e-01 3.001546561717987061e-01
-2.665153741836547852e-01 1.706436872482299805e-01 6.722337752580642700e-02
-9.969126433134078979e-02 -2.032240629196166992e-01 4.516584873199462891e-01
1.423404067754745483e-01 -1.655145883560180664e-01 -4.181815981864929199e-01
-2.500059008598327637e-01 -1.314344406127929688e-01 2.446740418672561646e-01
2.071794122457504272e-01 1.596149057149887085e-01 -2.854202389717102051e-01
-2.104704529047012329e-01 1.645971685647964478e-01 -3.112843036651611328e-01
2.305477410554885864e-01 -1.524476557970046997e-01 2.698362469673156738e-01
1.911519318819046021e-01 2.897996008396148682e-01 1.880478709936141968e-01
-1.809264868497848511e-01 -2.455205321311950684e-01 3.001994490623474121e-01
2.048194557428359985e-01 -2.843165695667266846e-01 8.347424864768981934e-02
-3.410050272941589355e-02 -3.437420427799224854e-01 3.135338425636291504e-01
2.563923299312591553e-01 -9.824523329734802246e-02 -1.856973618268966675e-01
2.170544117689132690e-01 -9.644844383001327515e-02 -3.182919323444366455e-01
7.033983618021011353e-02 7.104770839214324951e-02 -5.093870162963867188e-01
-2.192621678113937378e-01 2.566930353641510010e-01 1.552125513553619385e-01
1.611606329679489136e-01 -8.003983646631240845e-03 4.764471948146820068e-01
-1.069412082433700562e-01 -2.692187428474426270e-01 -3.978539705276489258e-01
1.640527695417404175e-01 -1.402917206287384033e-01 4.251109659671783447e-01
-2.085788100957870483e-01 2.528265714645385742e-01 2.149482816457748413e-01
1.889072805643081665e-01 -2.659642696380615234e-01 -2.127848416566848755e-01
2.506993114948272705e-01 2.529054507613182068e-02 -2.371183633804321289e-01
1.989339590072631836e-01 -7.485547661781311035e-02 -3.665197193622589111e-01
1.110977753996849060e-01 -3.383139073848724365e-01 2.449853718280792236e-01
