-3.494224324822425842e-02 -3.073942363262176514e-01 -1.253988477401435375e-03
1.898257806897163391e-02 -4.970093667507171631e-01 -7.169638574123382568e-02
-3.240475803613662720e-02 -8.733035996556282043e-03 8.662718534469604492e-02
1.301201060414314270e-02 -5.419455468654632568e-02 -1.736884862184524536e-01
-2.003926225006580353e-02 -3.289590030908584595e-02 -1.645112633705139160e-01
-2.779337204992771149e-02 -2.177603691816329956e-01 1.132651641964912415e-01
9.937721770256757736e-04 5.356619358062744141e-01 1.264689266681671143e-01
5.430195480585098267e-03 -6.913200020790100098e-01 -2.288667019456624985e-05
-1.544650178402662277e-02 -4.928317368030548096e-01 -1.200695559382438660e-01
-1.689818687736988068e-02 3.338253796100616455e-01 1.351471990346908569e-01
-7.382223382592201233e-03 -2.563897073268890381e-01 1.733441799879074097e-01
3.313029184937477112e-02 1.574407964944839478e-01 8.738527446985244751e-02
-3.486946970224380493e-02 -5.559742450714111328e-02 6.048012897372245789e-02
3.055986575782299042e-02 3.599381446838378906e-01 -7.151696830987930298e-02
-3.416711464524269104e-02 8.264137059450149536e-02 5.948968976736068726e-02
-2.821626700460910797e-02 -5.142143964767456055e-01 -2.191006671637296677e-03
1.277411356568336487e-02 -6.380474567413330078e-01 -1.165864244103431702e-02
-1.239289063960313797e-02 -5.772204995155334473e-01 -9.931711852550506592e-02
-2.739969454705715179e-02 -3.115949332714080811e-01 1.033998355269432068e-01
-2.688517421483993530e-02 -3.178588449954986572e-01 1.056072413921356201e-01
2.121860906481742859e-02 5.000317096710205078e-01 -9.984091669321060181e-02
-2.857109345495700836e-02 -4.095018506050109863e-01 7.122505456209182739e-02
2.735650539398193359e-02 9.583086520433425903e-02 -1.234458982944488525e-01
-3.502815589308738708e-02 -1.035353541374206543e-01 -7.098890095949172974e-02
-3.213613852858543396e-02 3.068157434463500977e-01 -3.009716793894767761e-02
-1.901152916252613068e-02 5.396261811256408691e-01 -7.465326040983200073e-02
-2.486632904037833214e-03 -4.007663726806640625e-01 1.576064378023147583e-01
1.640731841325759888e-02 1.198424100875854492e-01 -1.668049544095993042e-01
-2.695300802588462830e-02 -4.834069013595581055e-01 5.719662830233573914e-02
3.415282070636749268e-02 -1.103997826576232910e-01 -4.901318252086639404e-02
-3.243421437218785286e-03 4.589993059635162354e-01 1.422108560800552368e-01
2.434670738875865936e-02 9.386663138866424561e-02 1.464104503393173218e-01
-3.222193941473960876e-02 1.306395605206489563e-02 8.732665330171585083e-02
-3.303542733192443848e-02 2.267384827136993408e-01 -5.741900205612182617e-02
-3.393032401800155640e-02 2.292506545782089233e-01 -3.473843261599540710e-02
-2.993114106357097626e-02 -3.183778524398803711e-01 8.327601850032806396e-02
3.164439275860786438e-02 2.866086959838867188e-01 -7.671570032835006714e-02
1.319909933954477310e-02 4.965153038501739502e-01 -1.297275125980377197e-01
1.897942461073398590e-02 2.036682814359664917e-01 -1.555126607418060303e-01
-2.020845003426074982e-02 -2.273495681583881378e-02 -1.640558689832687378e-01
-1.384376641362905502e-02 -2.485119402408599854e-01 1.635856777429580688e-01
-2.582200802862644196e-02 -2.311523407697677612e-01 -1.315845698118209839e-01
-1.489211618900299072e-02 -4.027154445648193359e-01 1.404782086610794067e-01
2.554267644882202148e-02 4.350550174713134766e-01 -9.306856244802474976e-02
-3.268799185752868652e-02 -3.477452099323272705e-01 -5.256430432200431824e-02
-5.356820765882730484e-03 1.063181757926940918e-01 1.835379302501678467e-01
1.633391715586185455e-02 6.146467328071594238e-01 7.695104926824569702e-02
-1.792438328266143799e-02 4.616286158561706543e-01 -1.135703325271606445e-01
3.064688295125961304e-02 -3.644200414419174194e-02 -9.753940254449844360e-02
-1.347661390900611877e-02 5.321334004402160645e-01 -1.090447679162025452e-01
-3.707739338278770447e-02 -1.217487528920173645e-01 6.046871654689311981e-03
3.261111304163932800e-02 3.117969632148742676e-01 6.842272728681564331e-02
-2.179967984557151794e-02 1.866568028926849365e-01 1.371350139379501343e-01
3.587778285145759583e-02 1.175916567444801331e-01 -4.130647331476211548e-02
3.147489950060844421e-02 -1.240297630429267883e-01 9.295333921909332275e-02
-3.061077930033206940e-02 3.371666371822357178e-01 -4.762105271220207214e-02
2.336947806179523468e-02 3.608504831790924072e-01 1.249006688594818115e-01
-3.166968002915382385e-02 -1.910758167505264282e-01 8.758662641048431396e-02
1.357412245124578476e-02 6.173666119575500488e-01 -8.881071954965591431e-02
1.731871999800205231e-02 -2.201530933380126953e-01 -1.485033482313156128e-01
-1.909557357430458069e-02 -3.576319515705108643e-01 -1.398709118366241455e-01
-3.574140742421150208e-02 -2.127782404422760010e-01 2.945175580680370331e-02
3.158486634492874146e-02 -2.639543414115905762e-01 -3.936349600553512573e-02
-1.681867614388465881e-02 6.215217113494873047e-01 -6.519519723951816559e-03
-3.444859758019447327e-02 1.921037733554840088e-01 2.457902766764163971e-02
-1.803691685199737549e-02 3.471843600273132324e-01 1.282666623592376709e-01
7.920640520751476288e-03 -6.770496368408203125e-01 1.452880259603261948e-02
2.487351000308990479e-02 -1.333381980657577515e-01 1.366388797760009766e-01
-3.644590824842453003e-02 7.304417900741100311e-03 -4.451148211956024170e-02
-2.426260896027088165e-02 3.432018458843231201e-01 9.681627154350280762e-02
1.089021936058998108e-02 -6.570004820823669434e-01 1.273948233574628830e-03
2.350487560033798218e-02 -4.854072332382202148e-01 -2.879589796066284180e-02
1.065093744546175003e-02 -5.930953621864318848e-01 8.273360878229141235e-02
7.487327791750431061e-03 -5.156753063201904297e-01 -1.153649240732192993e-01
2.936134673655033112e-02 -2.776162140071392059e-02 1.187195330858230591e-01
-3.140932694077491760e-02 -4.035263955593109131e-01 3.771699965000152588e-02
2.191635593771934509e-02 -1.126795783638954163e-01 1.512406021356582642e-01
1.586139202117919922e-02 2.341638356447219849e-01 -1.623936444520950317e-01
8.236412890255451202e-03 -6.702914237976074219e-01 2.867175452411174774e-02
-3.307212516665458679e-02 -7.758333534002304077e-02 8.107820153236389160e-02
-1.752956397831439972e-02 -5.847848057746887207e-01 7.800216227769851685e-02
-2.924520336091518402e-02 -2.254219055175781250e-01 1.029786840081214905e-01
-1.374982669949531555e-02 6.512523889541625977e-01 -2.273115143179893494e-02
-3.112285211682319641e-02 -3.576847016811370850e-01 6.122254207730293274e-02
2.258564345538616180e-02 -3.007431924343109131e-01 -1.123910993337631226e-01
2.609653584659099579e-02 1.178023964166641235e-01 -1.299470216035842896e-01
-2.865375205874443054e-02 -4.444907009601593018e-01 -6.377951055765151978e-02
-1.847978308796882629e-02 -3.426632881164550781e-01 -1.442104727029800415e-01
2.789978124201297760e-02 4.064068198204040527e-01 8.844996988773345947e-02
6.966608110815286636e-03 3.243559598922729492e-01 1.674208939075469971e-01
3.236027434468269348e-02 1.933311223983764648e-01 9.160184115171432495e-02
-1.771527156233787537e-02 -1.157316341996192932e-01 -1.687002778053283691e-01
3.372996672987937927e-02 3.255704939365386963e-01 -3.838025778532028198e-02
3.543432429432868958e-02 2.589028775691986084e-01 -2.418421395123004913e-02
5.623512901365756989e-03 5.389528274536132812e-01 1.256934255361557007e-01
-3.383585438132286072e-02 -3.060617446899414062e-01 3.898417204618453979e-02
3.609972074627876282e-02 2.420595586299896240e-01 -1.222844817675650120e-03
-2.603911794722080231e-02 -5.474458932876586914e-01 -2.516865357756614685e-02
2.798833139240741730e-02 5.235183835029602051e-01 -2.478200569748878479e-02
-2.986200898885726929e-02 3.689458072185516357e-01 -4.040076583623886108e-02
-2.758548036217689514e-02 -4.274879097938537598e-01 7.414025068283081055e-02
3.571537137031555176e-02 -1.084722727537155151e-01 -8.637955412268638611e-03
2.097426913678646088e-02 -5.421515107154846191e-01 1.863651908934116364e-02
2.471085079014301300e-02 -2.774187624454498291e-01 1.167317330837249756e-01
1.128585636615753174e-02 -3.297307491302490234e-01 1.572732031345367432e-01
-3.599809110164642334e-02 3.493747860193252563e-02 -5.141058564186096191e-02
1.693140715360641479e-02 -5.724179148674011230e-01 -4.109271988272666931e-02
-1.763009838759899139e-02 1.136191785335540771e-01 -1.681753993034362793e-01
-4.031967371702194214e-03 -2.792834639549255371e-01 1.738383620977401733e-01
-2.260825410485267639e-02 -5.898694396018981934e-01 3.354812413454055786e-02
2.677384018898010254e-02 -3.854696452617645264e-01 -5.136138573288917542e-02
-2.438169345259666443e-02 5.087906122207641602e-01 -9.126262739300727844e-06
-2.620434202253818512e-02 2.887335605919361115e-02 -1.399236470460891724e-01
-3.327833116054534912e-02 -4.000677913427352905e-02 7.896829396486282349e-02
-2.530951052904129028e-02 1.081794127821922302e-01 1.280139833688735962e-01
-3.482254967093467712e-02 1.942225098609924316e-01 -2.661260776221752167e-02
2.248593419790267944e-02 -4.229252338409423828e-01 -7.750029861927032471e-02
3.412862867116928101e-02 -9.988505393266677856e-02 6.538718938827514648e-02
-1.665693335235118866e-02 -3.246858716011047363e-03 1.660855710506439209e-01
2.627117559313774109e-02 -3.690848350524902344e-01 7.876644283533096313e-02
-3.488687798380851746e-02 1.968235075473785400e-01 -1.927932165563106537e-02
-3.053590655326843262e-02 -3.008410930633544922e-01 8.152531087398529053e-02
1.811863295733928680e-02 -4.761871695518493652e-01 9.849695861339569092e-02
2.996852435171604156e-02 1.313569694757461548e-01 -1.058387383818626404e-01
1.767785102128982544e-02 2.420723736286163330e-01 1.597371697425842285e-01
-2.585134841501712799e-02 -5.497296452522277832e-01 2.189213223755359650e-02
2.203559689223766327e-02 -4.549797177314758301e-01 -6.721947342157363892e-02
1.110448688268661499e-02 5.919273495674133301e-01 -1.061349585652351379e-01
-2.619598247110843658e-02 -1.251690983772277832e-01 -1.383023262023925781e-01
-1.936836913228034973e-02 4.411978721618652344e-01 9.864348918199539185e-02
-1.970227994024753571e-02 2.811441719532012939e-01 1.332440078258514404e-01
2.230333909392356873e-02 1.441310495138168335e-01 1.525455713272094727e-01
-1.285008061677217484e-02 -6.893540620803833008e-01 1.007409673184156418e-02
-1.943736150860786438e-02 4.803167879581451416e-01 8.458638191223144531e-02
3.605739027261734009e-02 8.946839720010757446e-02 -3.855403885245323181e-02
1.235510222613811493e-03 -1.701657772064208984e-01 1.841902583837509155e-01
-2.407530695199966431e-02 5.616455525159835815e-02 -1.487460732460021973e-01
-1.599349826574325562e-02 5.177813768386840820e-01 -1.034866347908973694e-01
-2.552624978125095367e-02 2.130807787179946899e-01 -1.286083906888961792e-01
-2.421426586806774139e-02 -4.319414496421813965e-01 9.705578535795211792e-02
7.201652042567729950e-03 -3.894120454788208008e-01 -1.476593613624572754e-01
1.275723148137331009e-02 -6.134731173515319824e-01 -4.504274204373359680e-02
-2.725556492805480957e-02 -4.915157854557037354e-01 -5.510925129055976868e-02
3.517274186015129089e-02 -1.169960126280784607e-01 3.962821513414382935e-02
-2.350624278187751770e-02 -6.815698742866516113e-02 1.424857228994369507e-01
3.038187511265277863e-02 1.622404754161834717e-01 1.103583052754402161e-01
-3.370169550180435181e-02 2.543753087520599365e-01 -1.708217523992061615e-02
-1.962159015238285065e-02 -6.074414849281311035e-01 -5.226464197039604187e-02
-2.340404875576496124e-02 4.142346382141113281e-01 8.139830827713012695e-02
2.880209684371948242e-02 -1.050090044736862183e-01 1.166786402463912964e-01
2.914913929998874664e-02 -2.531097233295440674e-01 -7.531851530075073242e-02
-2.305068448185920715e-02 3.077097423374652863e-02 1.431491672992706299e-01
1.737523078918457031e-02 -5.474461317062377930e-01 6.839633733034133911e-02
-2.334646880626678467e-02 -4.968960583209991455e-01 -8.604367822408676147e-02
-2.949773706495761871e-02 2.786495387554168701e-01 -8.704006671905517578e-02
2.440522983670234680e-02 -4.174709022045135498e-01 7.625886797904968262e-02
-2.404303848743438721e-02 -2.419719398021697998e-01 -1.384402215480804443e-01
2.976510860025882721e-02 2.774336636066436768e-01 -9.478703886270523071e-02
3.339567780494689941e-02 -2.377829104661941528e-01 1.874353736639022827e-02
1.581842638552188873e-02 -4.687716066837310791e-02 -1.671252697706222534e-01
2.564975991845130920e-02 2.318100258708000183e-02 1.410648077726364136e-01
-3.577579557895660400e-02 4.043009877204895020e-02 3.952930122613906860e-02
-3.340767696499824524e-02 1.469402015209197998e-01 -7.425751537084579468e-02
2.713975496590137482e-02 4.238966107368469238e-01 -8.460457623004913330e-02
-3.176186606287956238e-02 2.542073726654052734e-01 -6.771533936262130737e-02
2.807154133915901184e-02 4.880985617637634277e-01 5.477752164006233215e-02
3.512186184525489807e-02 1.076197847723960876e-01 -5.479571223258972168e-02
-3.526291996240615845e-02 -2.875957787036895752e-01 -1.672928035259246826e-02
-3.704235702753067017e-02 -1.329744160175323486e-01 4.530850797891616821e-03
3.707594424486160278e-02 1.014324426651000977e-01 1.092600449919700623e-02
-2.883642911911010742e-02 3.583317995071411133e-01 4.887667298316955566e-02
-3.252325579524040222e-02 -1.384996175765991211e-01 -9.629794955253601074e-02
-2.207532338798046112e-02 -3.988234698772430420e-01 1.161073818802833557e-01
1.133934315294027328e-02 9.804534912109375000e-02 1.808377206325531006e-01
3.573712334036827087e-02 2.331542670726776123e-01 3.517400100827217102e-02
-2.049913629889488220e-02 4.383233785629272461e-01 -1.074761077761650085e-01
3.181702271103858948e-02 2.711437642574310303e-01 -7.765761017799377441e-02
3.353000804781913757e-02 3.796645700931549072e-01 1.037194300442934036e-02
2.716804482042789459e-02 -1.444311290979385376e-01 1.229155361652374268e-01
2.731150947511196136e-02 4.866855442523956299e-01 -6.035162135958671570e-02
-2.102116495370864868e-02 -1.807225197553634644e-01 -1.553649008274078369e-01
2.649530209600925446e-02 -3.086783885955810547e-01 -8.386824280023574829e-02
2.995717525482177734e-02 -3.519150912761688232e-01 2.644471637904644012e-02
2.926745079457759857e-02 4.944582879543304443e-01 2.953135594725608826e-02
2.931322716176509857e-02 -2.602711506187915802e-02 -1.082921177148818970e-01
-1.878196187317371368e-02 3.939051181077957153e-02 1.587574928998947144e-01
2.503709308803081512e-02 -2.312149852514266968e-01 1.232969686388969421e-01
-3.600450232625007629e-02 -1.518931537866592407e-01 -4.981821775436401367e-02
3.295115381479263306e-02 -5.590182542800903320e-02 -7.405651360750198364e-02
-3.048194572329521179e-02 -1.136484146118164062e-01 -1.140005066990852356e-01
-2.921112067997455597e-02 3.607646226882934570e-01 -5.888633430004119873e-02
2.329712733626365662e-02 -7.898944616317749023e-02 -1.387961655855178833e-01
4.635379184037446976e-03 -1.723360866308212280e-01 -1.799390912055969238e-01
-3.472383320331573486e-02 -3.184653818607330322e-01 -4.052854143083095551e-03
3.307699039578437805e-02 3.300257027149200439e-01 -4.840337485074996948e-02
4.803509917110204697e-03 5.286360979080200195e-01 -1.344423890113830566e-01
2.851754985749721527e-02 -3.734182715415954590e-01 -3.056077472865581512e-02
2.448715828359127045e-02 -4.691055417060852051e-01 4.066478088498115540e-02
-2.139909565448760986e-02 -4.421419799327850342e-01 1.093058064579963684e-01
-2.154762484133243561e-02 4.546832144260406494e-01 -9.525945782661437988e-02
1.410552673041820526e-02 2.309612929821014404e-01 -1.668739616870880127e-01
-1.164696086198091507e-02 -1.941290050745010376e-01 1.722261756658554077e-01
-1.739318855106830597e-02 5.720003843307495117e-01 5.307629704475402832e-02
-3.439113125205039978e-02 7.688795216381549835e-03 -7.917946577072143555e-02
2.002142556011676788e-02 6.042652726173400879e-01 6.247204542160034180e-02
2.239444293081760406e-03 -2.346332371234893799e-01 1.790027767419815063e-01
3.259430080652236938e-02 -1.506674289703369141e-02 9.367595613002777100e-02
-1.317577250301837921e-02 -2.669351100921630859e-01 1.632317900657653809e-01
8.349628187716007233e-03 -3.729626238346099854e-01 1.553939133882522583e-01
1.283708401024341583e-02 -4.226166605949401855e-01 1.355586796998977661e-01
2.608409710228443146e-02 -4.271994233131408691e-01 4.903419315814971924e-02
2.534136176109313965e-02 -4.427419900894165039e-01 -3.499640151858329773e-02
-1.861092448234558105e-02 5.684783458709716797e-01 -5.892319232225418091e-02
1.816420629620552063e-02 -2.062429040670394897e-01 1.558967977762222290e-01
3.144371882081031799e-02 -7.819832861423492432e-02 -8.669710904359817505e-02
-3.304733708500862122e-02 1.479329913854598999e-01 6.275369971990585327e-02
-2.255092747509479523e-02 4.233288168907165527e-01 8.451857417821884155e-02
-1.278211176395416260e-02 -3.814482986927032471e-01 -1.505471765995025635e-01
2.120561525225639343e-02 2.146888896822929382e-02 1.589259356260299683e-01
2.542825229465961456e-02 5.549139380455017090e-01 -4.209054633975028992e-02
2.407216839492321014e-02 -4.890235960483551025e-01 -7.891693152487277985e-03
-3.683077543973922729e-02 -1.199284419417381287e-01 -3.273056820034980774e-02
1.836039312183856964e-02 -5.001673698425292969e-01 8.692701160907745361e-02
4.179621115326881409e-03 -6.090604662895202637e-01 -8.665075153112411499e-02
-1.740548014640808105e-02 -6.114819645881652832e-01 -6.440015882253646851e-02
1.693664304912090302e-02 -5.814690589904785156e-01 -3.187459334731101990e-02
-3.088166750967502594e-02 3.517491817474365234e-01 -2.509203925728797913e-02
8.984440006315708160e-03 6.487287878990173340e-01 8.087564259767532349e-02
1.330065540969371796e-02 -1.951546669006347656e-01 -1.630395501852035522e-01
3.183757141232490540e-02 4.208111763000488281e-01 -2.684215083718299866e-02
-2.911256067454814911e-02 3.442405760288238525e-01 5.173299834132194519e-02
2.855511754751205444e-02 -3.054167330265045166e-01 -6.506747752428054810e-02
-3.164745494723320007e-02 -9.166968613862991333e-02 -1.062212139368057251e-01
2.646900527179241180e-02 5.431876778602600098e-01 3.869513794779777527e-02
-8.940537460148334503e-03 1.319207698106765747e-01 -1.837782859802246094e-01
2.277926728129386902e-02 6.155765056610107422e-01 1.942738331854343414e-02
6.551820784807205200e-03 7.232789397239685059e-01 2.289785444736480713e-02
-2.461338043212890625e-02 -7.999809458851814270e-04 -1.478538811206817627e-01
2.961615659296512604e-02 -2.286905199289321899e-01 9.050094336271286011e-02
2.325527369976043701e-03 4.175745546817779541e-01 1.541192531585693359e-01
-1.798444613814353943e-02 5.837357640266418457e-01 3.762301057577133179e-02
-2.063416503369808197e-02 4.003652334213256836e-01 1.036611273884773254e-01
2.069324068725109100e-02 -3.397459387779235840e-01 1.250711083412170410e-01
-3.351967409253120422e-02 -3.189885318279266357e-01 3.984796255826950073e-02
-1.112386584281921387e-02 2.217181026935577393e-01 1.665033102035522461e-01
9.328755550086498260e-03 7.150568366050720215e-01 2.591014280915260315e-02
2.429259568452835083e-02 2.163809165358543396e-02 -1.388795822858810425e-01
-2.117111161351203918e-02 -5.515453219413757324e-01 7.296711951494216919e-02
1.326324976980686188e-02 -5.152640938758850098e-01 -9.641578793525695801e-02
1.798993535339832306e-02 5.451509952545166016e-01 9.982597827911376953e-02
-2.976512908935546875e-02 3.238707482814788818e-01 -6.858026981353759766e-02
-1.686275377869606018e-02 6.029233932495117188e-01 -4.744074121117591858e-02
-3.130703046917915344e-02 -4.090653359889984131e-01 -4.481486976146697998e-02
-2.255703508853912354e-02 1.792639493942260742e-02 -1.558300256729125977e-01
2.213231474161148071e-02 -2.834146916866302490e-01 1.294791847467422485e-01
-1.103743910789489746e-02 -6.611174345016479492e-02 -1.831138730049133301e-01
2.110426686704158783e-02 9.694707393646240234e-02 -1.523835062980651855e-01
-3.586765006184577942e-02 -6.963780522346496582e-02 -5.936948210000991821e-02
-2.708282880485057831e-02 -5.003633499145507812e-01 4.597913846373558044e-02
-3.065975755453109741e-02 1.382656954228878021e-02 1.003758832812309265e-01
3.030176647007465363e-02 3.118704557418823242e-01 -8.469750732183456421e-02
-1.603730022907257080e-02 5.875007510185241699e-01 -6.849160790443420410e-02
-2.431215159595012665e-02 -2.246919274330139160e-01 -1.391637772321701050e-01
3.653688728809356689e-02 1.971105337142944336e-01 1.610714755952358246e-02
-3.631354123353958130e-02 -4.962266236543655396e-02 -5.091463774442672729e-02
-2.215133234858512878e-02 9.913322515785694122e-03 1.475008428096771240e-01
-1.337392628192901611e-02 3.563793003559112549e-01 -1.531217247247695923e-01
2.293301746249198914e-02 -4.984601438045501709e-01 3.972933813929557800e-02
-3.150967881083488464e-02 7.256542146205902100e-02 8.935724943876266479e-02
-2.388767898082733154e-02 -8.531408011913299561e-02 1.405822038650512695e-01
2.106811851263046265e-02 -5.218396186828613281e-01 -3.398487344384193420e-02
-2.631712146103382111e-02 4.021470993757247925e-02 -1.389964669942855835e-01
2.152966894209384918e-02 -5.059583187103271484e-01 5.501170828938484192e-02
-3.644927218556404114e-02 5.666369199752807617e-02 -3.498113527894020081e-02
-2.957730926573276520e-02 -4.753313660621643066e-01 -2.711204998195171356e-02
-1.114637590944766998e-03 6.581317186355590820e-01 7.649710029363632202e-02
2.257907204329967499e-02 4.806654751300811768e-01 -9.836004674434661865e-02
-2.025272697210311890e-02 5.736153721809387207e-01 -2.519552037119865417e-02
2.762869372963905334e-02 -3.934478163719177246e-01 4.733716696500778198e-02
2.937010675668716431e-02 -2.878988981246948242e-01 -6.196311861276626587e-02
-1.345813646912574768e-02 -6.216965913772583008e-01 -7.557388395071029663e-02
9.656877256929874420e-03 -5.704755783081054688e-01 -8.805201947689056396e-02
-2.921587415039539337e-02 -1.301076263189315796e-01 1.104765236377716064e-01
-4.846874624490737915e-03 -4.313234984874725342e-01 -1.486711651086807251e-01
-2.160817757248878479e-02 5.056262016296386719e-01 -7.112723588943481445e-02
-1.904529333114624023e-02 -5.019478201866149902e-01 1.031744331121444702e-01
2.603041380643844604e-02 5.629519820213317871e-01 2.524371817708015442e-02
-3.660398349165916443e-02 -8.625769615173339844e-02 2.874678187072277069e-02
-2.430089935660362244e-02 4.992118179798126221e-01 -3.839870542287826538e-02
-3.411657735705375671e-02 -1.548737734556198120e-01 -7.846384495496749878e-02
1.120299287140369415e-02 -4.480162858963012695e-01 1.337665319442749023e-01
3.145229071378707886e-02 -1.316218264400959015e-02 -9.243895858526229858e-02
1.780651137232780457e-02 5.470086336135864258e-01 -1.005162820219993591e-01
1.896742731332778931e-03 -3.034902215003967285e-01 -1.683835834264755249e-01
-2.554611489176750183e-02 4.510982632637023926e-01 4.221292212605476379e-02
-1.949833706021308899e-02 -4.998081028461456299e-01 -1.045612320303916931e-01
3.262357786297798157e-02 9.190313518047332764e-03 9.466447681188583374e-02
2.364221774041652679e-02 -9.924829006195068359e-02 -1.356475502252578735e-01
-1.900245621800422668e-02 -2.463189065456390381e-01 -1.555427163839340210e-01
2.997823804616928101e-02 4.447112977504730225e-01 -4.744251072406768799e-02
1.749663986265659332e-02 -4.712575376033782959e-01 -9.213230758905410767e-02
-1.810410991311073303e-02 4.961286485195159912e-02 -1.693545281887054443e-01
2.166513912379741669e-02 4.167943000793457031e-01 1.210880503058433533e-01
3.070947155356407166e-02 3.346261978149414062e-01 8.324973285198211670e-02
-7.114441599696874619e-03 4.459106922149658203e-01 -1.485351026058197021e-01
2.247444912791252136e-02 4.036695361137390137e-01 -1.175456270575523376e-01
-3.551029786467552185e-02 1.633826792240142822e-01 -2.685768064111471176e-03
-3.222391009330749512e-02 -1.046681627631187439e-01 -1.009392738342285156e-01
-3.396894410252571106e-02 2.351215928792953491e-01 1.077616214752197266e-02
-1.249165553599596024e-02 5.936323404312133789e-01 7.344575971364974976e-02
2.846227400004863739e-02 4.616785049438476562e-01 6.359540671110153198e-02
1.897905953228473663e-02 5.293396115303039551e-01 1.013742014765739441e-01
-2.606576308608055115e-02 3.032989203929901123e-01 9.416901320219039917e-02
-2.791698649525642395e-02 2.293184101581573486e-01 -1.111541017889976501e-01
3.329711407423019409e-02 3.209989368915557861e-01 -4.783752933144569397e-02
-3.081512823700904846e-02 2.333823442459106445e-01 6.929919123649597168e-02
-2.450379729270935059e-02 4.294186532497406006e-01 -8.194234222173690796e-02
-1.495042443275451660e-02 6.003178954124450684e-01 5.372346937656402588e-02
-3.200393915176391602e-02 -2.042191922664642334e-01 8.315116167068481445e-02
3.635758906602859497e-02 9.874244779348373413e-02 4.350695386528968811e-02
7.060640025883913040e-03 7.282993793487548828e-01 -1.460825651884078979e-02
3.405641391873359680e-02 2.995460331439971924e-01 5.040254071354866028e-02
-1.965825259685516357e-02 4.887235760688781738e-01 -9.448560327291488647e-02
1.153991091996431351e-02 5.588692426681518555e-01 1.131047010421752930e-01
3.100530616939067841e-02 -2.703652679920196533e-01 6.086090207099914551e-02
-3.383158147335052490e-02 -4.516556859016418457e-02 7.312020659446716309e-02
3.517564758658409119e-02 9.485662728548049927e-02 6.595415621995925903e-02
-2.110239863395690918e-02 4.246471822261810303e-01 -1.082748398184776306e-01
-3.676282986998558044e-02 3.163752704858779907e-02 -2.983154915273189545e-02
-1.153716910630464554e-02 -3.053831458091735840e-01 1.621677577495574951e-01
-3.077811561524868011e-02 3.434807062149047852e-01 -3.864751756191253662e-02
2.042938768863677979e-02 6.131814718246459961e-01 5.331698060035705566e-02
1.349226664751768112e-02 -5.796748399734497070e-01 7.574724406003952026e-02
-3.507569804787635803e-02 -8.141805231571197510e-02 5.741003528237342834e-02
-3.231221437454223633e-02 -2.595587670803070068e-01 7.200109958648681641e-02
3.695818036794662476e-02 1.422988921403884888e-01 3.230800153687596321e-03
-3.661276772618293762e-02 3.092313557863235474e-02 -3.579706698656082153e-02
2.936802804470062256e-02 -3.581691384315490723e-01 -2.369746938347816467e-02
-3.567066043615341187e-02 -1.998661458492279053e-01 -4.729676619172096252e-02
3.422847390174865723e-02 1.177802756428718567e-01 -6.673902273178100586e-02
2.233526110649108887e-02 -2.745706737041473389e-01 1.300827115774154663e-01
-3.320747986435890198e-02 -3.279933333396911621e-01 4.190744459629058838e-02
-9.671446168795228004e-04 -4.696696102619171143e-01 1.439593881368637085e-01
-2.989260666072368622e-02 3.014285862445831299e-01 5.907922238111495972e-02
1.293197972699999809e-03 3.791549205780029297e-01 1.605740934610366821e-01
-1.830745860934257507e-02 6.025422811508178711e-01 -1.661395654082298279e-02
-1.830427348613739014e-02 5.804145336151123047e-01 -5.210939422249794006e-02
-1.504374388605356216e-02 -6.366946697235107422e-01 6.040463596582412720e-02
3.125847503542900085e-02 -2.249017059803009033e-01 7.364884763956069946e-02
-2.363443188369274139e-02 4.409315288066864014e-01 -8.474364131689071655e-02
2.018056437373161316e-02 -5.544003844261169434e-01 -3.126528812572360039e-03
3.126260638236999512e-02 -3.032670915126800537e-01 -2.097025327384471893e-02
3.016703203320503235e-02 -3.418684005737304688e-01 -1.665919646620750427e-02
3.265769779682159424e-02 -6.163037568330764771e-02 -7.658319920301437378e-02
-3.689539805054664612e-02 3.984197601675987244e-02 2.551808953285217285e-03
-2.938274107873439789e-02 -3.353852629661560059e-01 -9.288012981414794922e-02
-3.437587618827819824e-02 2.218730300664901733e-01 -2.078561112284660339e-02
-2.154778502881526947e-02 5.397215485572814941e-01 -4.622551426291465759e-02
-2.101865038275718689e-02 -6.169934868812561035e-01 2.400239743292331696e-02
-1.852188073098659515e-02 -3.013410866260528564e-01 -1.502336710691452026e-01
3.667195513844490051e-02 1.847646534442901611e-01 -1.579310279339551926e-03
-1.077339751645922661e-03 3.994267880916595459e-01 -1.623449623584747314e-01
2.184282988309860229e-03 -3.818041086196899414e-02 -1.887840777635574341e-01
-1.869112066924571991e-02 -3.947433531284332275e-01 -1.341910958290100098e-01
3.614814579486846924e-02 4.273053258657455444e-02 -3.540097922086715698e-02
1.887564361095428467e-02 -5.258534550666809082e-01 -5.654718354344367981e-02
-3.060605004429817200e-02 2.502551376819610596e-01 6.707457453012466431e-02
-3.022293560206890106e-02 -4.444918334484100342e-01 3.362125158309936523e-02
-7.527663372457027435e-03 -4.066537916660308838e-01 -1.522406190633773804e-01
-3.052292950451374054e-02 3.614322245121002197e-01 -2.696014754474163055e-02
3.340049088001251221e-02 3.763971626758575439e-01 2.373610995709896088e-02
2.045357227325439453e-02 -4.497382938861846924e-01 -8.194889128208160400e-02
-2.792315557599067688e-02 1.119088195264339447e-02 -1.313253045082092285e-01
-9.841860737651586533e-04 6.797012686729431152e-01 6.331859529018402100e-02
3.703541681170463562e-02 7.992480695247650146e-02 1.789424195885658264e-02
3.571720048785209656e-02 2.585935294628143311e-01 2.345640771090984344e-02
2.128136157989501953e-02 -5.129258036613464355e-01 -3.902436792850494385e-02
2.948131226003170013e-02 -4.966285824775695801e-02 -1.054426282644271851e-01
9.137493558228015900e-03 -4.633125662803649902e-01 1.347343772649765015e-01
-3.529405593872070312e-02 -2.831402719020843506e-01 8.609789423644542694e-03
-3.483312204480171204e-02 -2.871894277632236481e-02 6.044999510049819946e-02
-2.951082028448581696e-02 3.895564377307891846e-01 -2.793629281222820282e-02
3.569379076361656189e-02 2.010325193405151367e-01 -3.480354696512222290e-02
2.970532886683940887e-02 -3.529374897480010986e-01 -1.933102123439311981e-02
3.326898440718650818e-02 3.044030070304870605e-01 6.164120510220527649e-02
-3.058908507227897644e-02 -4.548509716987609863e-01 1.297481916844844818e-02
-2.575555630028247833e-02 -2.481529712677001953e-01 -1.299252510070800781e-01
-2.830391004681587219e-02 3.413836956024169922e-01 -7.925564050674438477e-02
1.736044697463512421e-02 1.314695775508880615e-01 1.680327504873275757e-01
-3.683079406619071960e-02 -1.474978625774383545e-01 -2.618242800235748291e-02
1.091607566922903061e-02 -5.918892025947570801e-01 -7.178891450166702271e-02
2.997336164116859436e-02 4.399865269660949707e-01 5.534403398633003235e-02
-3.639138117432594299e-02 -2.152830064296722412e-01 -5.794048192910850048e-04
1.630659215152263641e-02 -4.896006882190704346e-01 -9.165710210800170898e-02
-1.018738746643066406e-02 -3.871630430221557617e-01 1.528643071651458740e-01
3.409038484096527100e-02 3.571742773056030273e-01 8.536882698535919189e-03
-2.871733345091342926e-02 -5.031885504722595215e-01 2.785545308142900467e-03
-2.800226770341396332e-02 -4.913746416568756104e-01 -4.490142315626144409e-02
2.061827108263969421e-02 5.907354950904846191e-01 6.642495095729827881e-02
1.979680918157100677e-02 4.056727588176727295e-01 -1.285980492830276489e-01
-2.618748508393764496e-02 -2.076583504676818848e-01 1.233546137809753418e-01
-3.239343315362930298e-02 -4.033944010734558105e-01 1.079645007848739624e-02
-4.192024935036897659e-03 -2.863514237105846405e-03 1.872796565294265747e-01
-2.613621018826961517e-02 1.285192370414733887e-02 -1.406565606594085693e-01
-2.861197479069232941e-02 7.754722982645034790e-02 -1.243265718221664429e-01
-2.823064848780632019e-02 -4.749172627925872803e-01 -5.272709578275680542e-02
-1.920814439654350281e-02 4.973880648612976074e-01 7.913132756948471069e-02
3.261485323309898376e-02 -1.739390343427658081e-01 7.015610486268997192e-02
2.795102261006832123e-02 -3.880146741867065430e-01 4.526768252253532410e-02
1.185250654816627502e-02 -3.651966154575347900e-01 1.500230580568313599e-01
1.762958802282810211e-02 2.229702472686767578e-02 -1.639346480369567871e-01
-2.734065428376197815e-02 -1.680505722761154175e-01 1.199513450264930725e-01
2.263270318508148193e-02 -5.170836448669433594e-01 2.571910619735717773e-03
3.196057677268981934e-02 -2.124115526676177979e-01 -5.400693416595458984e-02
1.366590149700641632e-02 5.069648027420043945e-01 1.241574659943580627e-01
1.404596120119094849e-02 4.817454814910888672e-01 -1.311171203851699829e-01
-3.362759202718734741e-02 -1.510896086692810059e-01 7.185425609350204468e-02
2.410420775413513184e-02 -2.329158596694469452e-02 -1.382596790790557861e-01
-4.448910243809223175e-03 6.374917179346084595e-02 1.859694719314575195e-01
-1.982549764215946198e-02 -6.358973383903503418e-01 -1.181828696280717850e-02
1.262841839343309402e-02 -5.702037215232849121e-01 8.570123463869094849e-02
3.626185283064842224e-02 -5.857452750205993652e-02 2.481529675424098969e-02
1.440911088138818741e-02 -6.250331997871398926e-01 1.414802204817533493e-02
-1.163374260067939758e-02 6.264098882675170898e-01 -7.174837589263916016e-02
-3.055007196962833405e-02 -3.830069303512573242e-01 5.941782891750335693e-02
-2.865537069737911224e-02 3.720957934856414795e-01 4.434408247470855713e-02
-3.545500338077545166e-02 -1.927408128976821899e-01 4.057472571730613708e-02
3.426900878548622131e-02 3.000758886337280273e-01 -3.722516447305679321e-02
3.420780599117279053e-02 7.722596824169158936e-02 -6.765519827604293823e-02
2.775413356721401215e-02 -1.676789075136184692e-01 -1.043065041303634644e-01
-1.958314701914787292e-02 5.700629353523254395e-01 -4.508442431688308716e-02
-4.200912080705165863e-03 5.454061627388000488e-01 1.180621311068534851e-01
-2.759897336363792419e-02 -2.856647670269012451e-01 -1.147240325808525085e-01
-2.640927582979202271e-02 -3.754438161849975586e-01 9.731549769639968872e-02
-2.903212606906890869e-02 3.309245780110359192e-02 1.111003458499908447e-01
3.076067008078098297e-02 -9.007001668214797974e-02 -9.140712767839431763e-02
2.064931020140647888e-02 -4.627492129802703857e-01 -7.505460828542709351e-02
3.150372207164764404e-02 -2.405755519866943359e-01 6.514149159193038940e-02
2.698380686342716217e-02 -4.031601548194885254e-01 5.172182619571685791e-02
2.477216720581054688e-02 -2.951787114143371582e-01 -1.002649664878845215e-01
-8.147719316184520721e-03 -1.931276619434356689e-01 1.775670945644378662e-01
-3.394713997840881348e-02 1.196260098367929459e-02 -8.420511335134506226e-02
8.125719614326953888e-03 6.185034513473510742e-01 9.625622630119323730e-02
-3.236009553074836731e-02 -2.360745370388031006e-01 -8.641779422760009766e-02
-2.050608024001121521e-02 4.133704602718353271e-01 1.006951108574867249e-01
3.682576119899749756e-02 8.443509787321090698e-02 -1.692633517086505890e-02
2.135989069938659668e-02 -5.645251274108886719e-02 -1.484293341636657715e-01
2.448029257357120514e-02 -1.818727552890777588e-01 -1.225180104374885559e-01
2.262081019580364227e-02 -4.611948430538177490e-01 7.187796384096145630e-02
-3.254404664039611816e-02 8.106538653373718262e-02 -9.359032660722732544e-02
-3.451323509216308594e-02 -2.330950647592544556e-01 4.875309020280838013e-02
-7.818672806024551392e-03 -5.485712885856628418e-01 -1.166303977370262146e-01
-2.284585684537887573e-02 -3.315629661083221436e-01 1.248244345188140869e-01
6.012782920151948929e-03 5.091754794120788574e-01 -1.384194344282150269e-01
2.539286576211452484e-02 5.753024816513061523e-01 -2.072149515151977539e-02
-3.506911918520927429e-02 1.006164401769638062e-01 4.198102280497550964e-02
-2.765249274671077728e-02 -5.066473484039306641e-01 3.230024501681327820e-02
2.071538195013999939e-02 6.417848467826843262e-01 -1.757925190031528473e-02
2.946169581264257431e-03 1.581594347953796387e-01 -1.862700134515762329e-01
-3.383535519242286682e-02 -1.183042004704475403e-01 7.169546931982040405e-02
-2.676609531044960022e-02 -1.090638041496276855e-01 -1.362534463405609131e-01
2.757318690419197083e-02 -3.287789523601531982e-01 8.100423961877822876e-02
-7.995611056685447693e-03 4.802528917789459229e-01 -1.392828971147537231e-01
2.320587262511253357e-02 5.223909020423889160e-01 -8.033033460378646851e-02
-1.388680003583431244e-02 -6.319841146469116211e-01 -6.792944669723510742e-02
3.696902468800544739e-02 1.050610169768333435e-01 -8.572749793529510498e-03
-1.455381419509649277e-02 -5.618653893470764160e-01 -9.979633986949920654e-02
-3.263308107852935791e-02 -3.993803858757019043e-01 -1.141410972923040390e-02
-3.486238792538642883e-02 -2.659182250499725342e-01 -4.444117471575737000e-02
-3.380266577005386353e-02 -1.180565729737281799e-01 -8.506534993648529053e-02
3.076720237731933594e-02 -2.253228276968002319e-01 -6.559477746486663818e-02
-3.151009604334831238e-02 3.326953649520874023e-01 6.092046387493610382e-03
3.454132005572319031e-02 1.647707372903823853e-01 7.032170146703720093e-02
3.226161748170852661e-02 3.897344470024108887e-01 4.446293041110038757e-02
1.753821596503257751e-02 6.732389926910400391e-01 1.604623906314373016e-02
-1.495955046266317368e-02 4.367559552192687988e-01 -1.322047412395477295e-01
3.095958195626735687e-02 -3.096065819263458252e-01 3.909493610262870789e-02
3.702501207590103149e-02 3.376673534512519836e-02 9.722097776830196381e-03
4.464850760996341705e-03 -5.153431296348571777e-01 1.286402642726898193e-01
-3.044006228446960449e-02 -2.470717132091522217e-01 9.130606055259704590e-02
-3.377357870340347290e-02 1.940542459487915039e-01 3.921628743410110474e-02
3.225687146186828613e-02 -1.621735990047454834e-01 -6.397397071123123169e-02
3.506737947463989258e-02 1.325676441192626953e-01 -5.450469255447387695e-02
2.349935658276081085e-02 2.393384128808975220e-01 1.410000473260879517e-01
-3.281020745635032654e-02 -3.888109922409057617e-01 -2.096850238740444183e-02
3.148647770285606384e-02 3.167321085929870605e-01 -7.231635600328445435e-02
-1.186965405941009521e-02 5.356925129890441895e-01 -1.135539934039115906e-01
1.645939052104949951e-02 5.853191614151000977e-01 9.012412279844284058e-02
-3.480443730950355530e-02 -2.488606274127960205e-01 -5.143812298774719238e-02
1.557475142180919647e-02 -4.347571134567260742e-01 1.235181093215942383e-01
-6.339447572827339172e-03 3.885056078433990479e-02 1.847638040781021118e-01
3.241329267621040344e-02 2.585128247737884521e-01 8.214739710092544556e-02
-3.203878924250602722e-02 6.701444834470748901e-02 8.507008850574493408e-02
-2.392481081187725067e-02 -2.049984484910964966e-01 1.346712559461593628e-01
-2.411449141800403595e-02 5.143210887908935547e-01 -1.331277657300233841e-02
-3.501728549599647522e-02 1.509277224540710449e-01 -4.486952349543571472e-02
-3.068711608648300171e-02 -4.241086244583129883e-01 3.854729235172271729e-02
-3.344907611608505249e-02 2.514688074588775635e-01 1.690255664288997650e-02
1.913059502840042114e-02 4.489072263240814209e-01 -1.223470196127891541e-01
-2.944914996623992920e-02 8.748108148574829102e-02 1.044055595993995667e-01
-2.635058388113975525e-02 4.317363500595092773e-01 -5.994443222880363464e-02
-3.217600658535957336e-02 1.294493675231933594e-01 7.602135837078094482e-02
-3.336104750633239746e-02 9.151163697242736816e-02 6.844095885753631592e-02
-2.036324143409729004e-02 -4.922636449337005615e-01 -1.033378988504409790e-01
-1.159905269742012024e-02 6.149624586105346680e-01 6.608293950557708740e-02
-2.239279821515083313e-02 -2.408239841461181641e-01 -1.451038420200347900e-01
-8.066258393228054047e-03 6.951130628585815430e-01 1.041726674884557724e-02
-1.871418766677379608e-02 -4.527114331722259521e-02 1.602811962366104126e-01
-2.362510003149509430e-02 3.515195548534393311e-01 -1.135032251477241516e-01
2.529221959412097931e-02 -4.360503256320953369e-01 -4.096161201596260071e-02
-2.209088578820228577e-02 -3.383490443229675293e-02 -1.577727347612380981e-01
3.186095505952835083e-02 -2.657955884933471680e-01 -3.276842832565307617e-02
-1.567117724334821105e-04 2.665313705801963806e-02 1.890009045600891113e-01
-2.799927629530429840e-02 4.297338426113128662e-01 7.714776322245597839e-03
2.933656610548496246e-02 2.897204458713531494e-01 1.033001616597175598e-01
2.493477798998355865e-02 -4.496786892414093018e-01 5.045852065086364746e-02
2.659119293093681335e-02 -3.469704389572143555e-01 8.410847932100296021e-02
2.522170357406139374e-02 -3.940583765506744385e-01 7.874114066362380981e-02
2.432287856936454773e-02 -4.636355638504028320e-01 4.894247651100158691e-02
-1.800724305212497711e-02 -6.534014344215393066e-01 1.014386117458343506e-02
-1.156573649495840073e-02 -2.053197920322418213e-01 1.715955883264541626e-01
1.318374183028936386e-02 7.070270776748657227e-01 -2.707185456529259682e-03
-8.428126573562622070e-03 7.338108494877815247e-03 -1.871709376573562622e-01
3.429411724209785461e-02 -1.952186375856399536e-01 2.111299149692058563e-02
3.147175535559654236e-02 -3.117369115352630615e-01 5.747589282691478729e-03
1.822991296648979187e-02 -1.705895364284515381e-01 -1.510296463966369629e-01
3.064560145139694214e-02 -2.523521184921264648e-01 7.270283997058868408e-02
9.926105849444866180e-03 -3.125650882720947266e-01 -1.557576209306716919e-01
1.614357531070709229e-02 6.671587824821472168e-01 4.137533903121948242e-02
8.527400903403759003e-03 6.620570421218872070e-01 -8.000349253416061401e-02
1.394362840801477432e-02 4.677776396274566650e-01 -1.345142424106597900e-01
-2.111120149493217468e-02 5.168293714523315430e-01 5.364790186285972595e-02
-2.344892546534538269e-02 -5.683222413063049316e-01 4.272508621215820312e-02
3.323016688227653503e-02 4.387518018484115601e-02 8.976091444492340088e-02
3.315151855349540710e-02 1.799551695585250854e-01 -7.531262934207916260e-02
1.984038949012756348e-02 2.392928153276443481e-01 1.539389342069625854e-01
-2.047375403344631195e-02 -2.050503641366958618e-01 1.484725475311279297e-01
3.044759109616279602e-02 -3.373343944549560547e-01 2.666062861680984497e-02
1.139185205101966858e-02 1.250022500753402710e-01 1.797621101140975952e-01
-3.314674645662307739e-02 -3.080050460994243622e-02 -9.391471743583679199e-02
-1.531526912003755569e-02 -2.147494554519653320e-01 -1.675432324409484863e-01
2.998616360127925873e-02 2.994658648967742920e-01 9.674843400716781616e-02
-1.474790368229150772e-02 -5.025078654289245605e-01 -1.190872490406036377e-01
-6.047672126442193985e-03 7.071327567100524902e-01 -2.029829286038875580e-02
-2.651746384799480438e-02 4.472697377204895020e-01 -4.559850692749023438e-02
2.247730642557144165e-02 6.212630271911621094e-01 -1.511901896446943283e-02
8.089599199593067169e-03 7.047007679939270020e-01 -4.976481944322586060e-02
-2.031008340418338776e-02 -5.747569799423217773e-01 -6.894029676914215088e-02
-1.983369700610637665e-02 5.575287342071533203e-01 -5.388514697551727295e-02
3.549504280090332031e-02 -3.190449625253677368e-02 5.391895025968551636e-02
-2.564028464257717133e-02 2.382559925317764282e-01 1.101806536316871643e-01
-3.135395795106887817e-02 6.384257227182388306e-02 -1.057160869240760803e-01
3.293599188327789307e-02 5.016015470027923584e-02 -8.142843097448348999e-02
1.853198930621147156e-02 -2.027512490749359131e-01 -1.463869959115982056e-01
2.774160727858543396e-02 3.462745845317840576e-01 1.039857938885688782e-01
-3.278129920363426208e-02 2.913252711296081543e-01 -1.681564375758171082e-02
-7.576275616884231567e-03 -3.479916453361511230e-01 1.623818576335906982e-01
2.347189188003540039e-02 1.214116066694259644e-01 1.491169184446334839e-01
-3.233559429645538330e-02 -3.960626721382141113e-01 2.158207260072231293e-02
-8.678083308041095734e-03 3.965151309967041016e-01 -1.557249873876571655e-01
-1.410851487889885902e-03 -4.975942075252532959e-01 -1.328601390123367310e-01
-2.355070039629936218e-02 -5.738285183906555176e-01 -3.985214978456497192e-02
8.674834389239549637e-04 7.309857606887817383e-01 -5.654339329339563847e-04
-3.411413356661796570e-02 6.816111505031585693e-02 6.218359619379043579e-02
-2.668266743421554565e-02 -2.237265706062316895e-01 -1.280760467052459717e-01
3.093719296157360077e-02 -3.226540386676788330e-01 2.603686600923538208e-02
3.525656089186668396e-02 2.906947210431098938e-02 6.401564180850982666e-02
2.518253028392791748e-02 -3.233732283115386963e-01 -9.010904282331466675e-02
-3.470360487699508667e-02 -2.818435132503509521e-01 -4.153549298644065857e-02
3.047521226108074188e-02 -1.714752614498138428e-02 -1.002269461750984192e-01
1.589162833988666534e-02 2.977634370326995850e-01 1.580779999494552612e-01
-1.775810495018959045e-02 -4.753926396369934082e-01 1.158417090773582458e-01
2.416743710637092590e-02 1.732491254806518555e-01 1.436399668455123901e-01
3.311545029282569885e-02 9.714295715093612671e-02 -7.981605082750320435e-02
6.324981804937124252e-03 7.260075807571411133e-01 -2.540174126625061035e-02
3.074063546955585480e-02 -8.898427337408065796e-02 1.038689017295837402e-01
3.228939324617385864e-02 4.187908768653869629e-01 -1.361083332449197769e-02
-2.359315194189548492e-02 7.977920025587081909e-02 1.383897662162780762e-01
-2.267971262335777283e-02 -1.315819323062896729e-01 1.443401575088500977e-01
-2.608503960072994232e-02 -5.194727778434753418e-01 4.632822796702384949e-02
2.159552089869976044e-02 1.183631569147109985e-01 -1.501066982746124268e-01
-1.132572814822196960e-02 -3.333864212036132812e-01 1.589982360601425171e-01
-2.673839777708053589e-02 3.203185200691223145e-01 8.458777517080307007e-02
-3.225960209965705872e-02 -1.619003154337406158e-02 -1.018211022019386292e-01
3.293155878782272339e-02 -7.719559594988822937e-03 -7.875931262969970703e-02
-7.045981939882040024e-03 3.389025628566741943e-01 1.591996252536773682e-01
-3.080378100275993347e-02 4.246008396148681641e-02 -1.113983690738677979e-01
2.351855859160423279e-02 6.010106205940246582e-01 2.701659686863422394e-02
3.488298133015632629e-02 2.162411622703075409e-02 -5.679749324917793274e-02
3.182233870029449463e-02 -2.979605197906494141e-01 -2.771428320556879044e-03
8.779134601354598999e-03 -6.416615247726440430e-01 -4.902705177664756775e-02
3.498458117246627808e-02 -1.273415535688400269e-01 4.070519655942916870e-02
7.645753794349730015e-04 4.060057401657104492e-01 -1.614996492862701416e-01
1.345549710094928741e-02 -3.553617745637893677e-02 -1.734005659818649292e-01
-2.751337550580501556e-02 -3.711051940917968750e-01 9.068430215120315552e-02
-2.301654592156410217e-02 2.042948752641677856e-01 1.294649243354797363e-01
-2.616627514362335205e-02 -6.790410727262496948e-02 -1.404972523450851440e-01
-2.230468951165676117e-02 -5.770573616027832031e-01 4.870653152465820312e-02
-2.481893636286258698e-02 -1.706183254718780518e-01 1.329598873853683472e-01
-2.610434591770172119e-02 -1.419599503278732300e-01 -1.378110498189926147e-01
6.328933406621217728e-03 -4.110674560070037842e-01 -1.448050588369369507e-01
-2.805223129689693451e-02 3.038116395473480225e-01 -9.364807605743408203e-02
-1.624190621078014374e-02 4.713511765003204346e-01 -1.180654317140579224e-01
-2.256391383707523346e-02 4.270660579204559326e-01 -9.824777394533157349e-02
-3.218421339988708496e-02 -2.866044640541076660e-01 -7.830702513456344604e-02
2.907238667830824852e-03 5.645439028739929199e-01 -1.251138299703598022e-01
2.153145894408226013e-02 3.420382440090179443e-01 1.355380117893218994e-01
3.262928128242492676e-02 2.529745101928710938e-01 8.083702623844146729e-02
3.566436469554901123e-02 5.632627010345458984e-02 5.818957090377807617e-02
2.944268472492694855e-02 -2.964176535606384277e-01 7.201351970434188843e-02
-3.431532904505729675e-02 6.957784295082092285e-02 -7.476484030485153198e-02
3.384376317262649536e-02 2.529718875885009766e-01 6.623172760009765625e-02
-2.671787701547145844e-02 1.810104250907897949e-01 -1.260150969028472900e-01
1.552286650985479355e-02 -6.136494278907775879e-01 -1.922608644235879183e-04
2.899839729070663452e-02 -2.061477005481719971e-01 1.007729396224021912e-01
-2.631948143243789673e-02 1.416360735893249512e-01 -1.325082033872604370e-01
-6.807460915297269821e-03 5.352896451950073242e-01 -1.264493018388748169e-01
2.207548171281814575e-02 -5.026800036430358887e-01 5.020769312977790833e-02
3.482972458004951477e-02 -2.048833295702934265e-03 6.844642013311386108e-02
2.470955066382884979e-02 5.184623003005981445e-01 -7.055916637182235718e-02
1.592199504375457764e-02 -4.185432195663452148e-01 1.265025436878204346e-01
2.603740245103836060e-02 -1.052467450499534607e-01 -1.226909011602401733e-01
3.666680678725242615e-02 1.386457830667495728e-01 3.023334406316280365e-02
-1.806414313614368439e-02 4.952082335948944092e-01 -1.014003306627273560e-01
-2.117983065545558929e-02 -4.718972742557525635e-01 1.023394614458084106e-01
-2.300735749304294586e-02 3.027757704257965088e-01 1.136034727096557617e-01
3.657132759690284729e-02 1.201026290655136108e-01 3.605740517377853394e-02
