4.205246567726135254e-01 -5.579051971435546875e-01 3.585196435451507568e-01
6.044448614120483398e-01 9.521663188934326172e-02 3.949501514434814453e-01
4.399124979972839355e-01 -3.846172690391540527e-01 -6.086007356643676758e-01
1.075830101966857910e+00 2.522280812263488770e-01 -7.015268504619598389e-02
-4.015719890594482422e-02 -5.618368387222290039e-01 -1.462854593992233276e-01
6.127460598945617676e-01 -4.399854540824890137e-01 -5.030769705772399902e-01
1.072097301483154297e+00 -2.399782389402389526e-01 2.841885574162006378e-02
1.150463938713073730e+00 2.371565997600555420e-02 -4.545350968837738037e-01
1.084680795669555664e+00 -1.259400099515914917e-01 2.663586437702178955e-01
1.044390797615051270e+00 -1.914118528366088867e-01 -4.385229945182800293e-01
5.497329831123352051e-01 -5.781705379486083984e-01 -4.113555699586868286e-02
7.577273845672607422e-01 -1.556601524353027344e-01 5.784091353416442871e-01
3.988558650016784668e-01 -1.512885093688964844e-02 -4.511941969394683838e-01
6.396523118019104004e-01 6.781017780303955078e-02 4.606741964817047119e-01
1.565607786178588867e-01 -2.750774621963500977e-01 5.280542969703674316e-01
1.058872938156127930e+00 2.261466681957244873e-01 -3.074773550033569336e-01
1.006764769554138184e+00 -2.529512941837310791e-01 -3.895285427570343018e-01
-2.033615112304687500e-02 -2.847135066986083984e-01 -1.266274005174636841e-01
1.186680555343627930e+00 1.879980266094207764e-01 -2.501127421855926514e-01
4.797375202178955078e-02 -4.267714023590087891e-01 4.678981304168701172e-01
6.298605799674987793e-01 -4.184868931770324707e-01 4.601213037967681885e-01
3.640294671058654785e-01 -6.282647848129272461e-01 1.311193257570266724e-01
7.662697434425354004e-01 2.208935618400573730e-01 1.134686768054962158e-01
6.552885174751281738e-01 3.745701909065246582e-02 5.057049393653869629e-01
9.390484094619750977e-01 1.184329390525817871e-02 4.651615023612976074e-01
1.158863782882690430e+00 -4.765719175338745117e-03 -4.345630109310150146e-01
5.281045436859130859e-01 -4.282736182212829590e-01 -5.581100583076477051e-01
7.067574262619018555e-01 -4.154847860336303711e-01 -4.745207428932189941e-01
8.858230113983154297e-01 2.554557323455810547e-01 -6.610793620347976685e-02
9.362635016441345215e-01 -3.231293559074401855e-01 2.035714536905288696e-01
5.838862061500549316e-01 1.620185375213623047e-01 -2.046625167131423950e-01
6.813341975212097168e-01 -2.508369088172912598e-01 5.854058861732482910e-01
2.920150756835937500e-03 -3.445044457912445068e-01 3.851143121719360352e-01
9.997462034225463867e-01 2.193126380443572998e-01 -3.511456549167633057e-01
4.360574483871459961e-02 -2.112434655427932739e-01 2.634839713573455811e-01
7.677928209304809570e-01 1.001650393009185791e-01 4.391980469226837158e-01
6.020635366439819336e-01 -1.975467801094055176e-01 6.265462040901184082e-01
6.263080835342407227e-01 1.751820147037506104e-01 1.586914956569671631e-01
5.276998877525329590e-01 -5.813303589820861816e-01 -1.298855096101760864e-01
4.682490527629852295e-01 -5.991730690002441406e-01 1.227943450212478638e-01
7.587328553199768066e-02 -1.444547623395919800e-01 5.332215875387191772e-02
4.494655132293701172e-01 2.378284931182861328e-02 -4.389625191688537598e-01
7.290748357772827148e-01 -4.205916523933410645e-01 3.451187908649444580e-01
-4.185694456100463867e-02 -2.841505706310272217e-01 4.438767582178115845e-02
6.669123768806457520e-01 -2.058812081813812256e-01 6.071428656578063965e-01
3.994330167770385742e-01 8.152508735656738281e-02 -1.361003369092941284e-01
4.194673299789428711e-01 9.908601641654968262e-02 4.545334726572036743e-02
9.061927795410156250e-01 2.390263974666595459e-01 -2.652296423912048340e-01
6.338071823120117188e-02 -1.945783048868179321e-01 -1.888129413127899170e-01
-7.150173187255859375e-04 -6.076624393463134766e-01 -1.144933626055717468e-01
9.772212505340576172e-01 1.606892645359039307e-01 3.134654462337493896e-01
2.398508191108703613e-01 -2.302403002977371216e-01 5.652157068252563477e-01
8.284974098205566406e-01 1.750088036060333252e-01 3.106937110424041748e-01
9.596393108367919922e-01 -9.464345872402191162e-02 4.531934857368469238e-01
5.321359634399414062e-01 -4.594914615154266357e-02 -6.043254137039184570e-01
3.414231538772583008e-01 2.957707643508911133e-02 2.440968453884124756e-01
8.684328794479370117e-01 -3.713733851909637451e-01 2.210446596145629883e-01
3.696860074996948242e-01 -4.592775404453277588e-01 5.447250008583068848e-01
9.534082412719726562e-01 -1.790308505296707153e-01 4.120480418205261230e-01
9.068688154220581055e-01 -9.572745114564895630e-02 4.974039793014526367e-01
1.545565724372863770e-01 -5.918934345245361328e-01 3.668181002140045166e-01
-2.594292163848876953e-02 -4.981940388679504395e-01 3.578579127788543701e-01
1.075473308563232422e+00 -1.768755167722702026e-01 -4.032981395721435547e-01
7.769203186035156250e-01 -4.545761048793792725e-01 -2.373991161584854126e-01
1.096007347106933594e+00 -2.169229686260223389e-01 -2.107744067907333374e-01
4.315294325351715088e-01 -6.086058914661407471e-02 5.358246564865112305e-01
1.238210916519165039e+00 9.995880722999572754e-02 9.732021018862724304e-03
9.561758637428283691e-01 -1.466973870992660522e-01 -5.917752385139465332e-01
2.150134742259979248e-01 -4.777510464191436768e-02 -1.757285743951797485e-01
1.183534145355224609e+00 2.028487026691436768e-01 -2.460006251931190491e-02
9.417676925659179688e-01 -2.659920156002044678e-01 -4.759329855442047119e-01
-5.248230695724487305e-02 -4.682819545269012451e-01 -2.033129483461380005e-01
-9.151393175125122070e-02 -4.466243982315063477e-01 -8.529731631278991699e-02
5.686577558517456055e-01 -4.889435172080993652e-01 -4.378862082958221436e-01
4.397600889205932617e-01 -1.699397414922714233e-01 6.206945776939392090e-01
8.745950460433959961e-02 -3.114180266857147217e-01 4.810755848884582520e-01
6.875776648521423340e-01 -5.173592567443847656e-01 -1.446710806339979172e-02
1.178918838500976562e+00 -7.312287390232086182e-02 -3.251372575759887695e-01
1.583237051963806152e-01 -1.705397963523864746e-01 -3.607956767082214355e-01
9.142444133758544922e-01 -3.816623091697692871e-01 -9.245438128709793091e-02
1.143711090087890625e+00 -1.693201959133148193e-01 -1.539028584957122803e-01
1.050817608833312988e+00 -2.702746391296386719e-01 -1.000774875283241272e-01
8.716677427291870117e-01 -2.499868571758270264e-01 4.387645125389099121e-01
9.762036800384521484e-01 -3.316099941730499268e-01 -3.811221569776535034e-03
2.986585795879364014e-01 -4.801021814346313477e-01 -5.085725188255310059e-01
1.215223550796508789e+00 6.926256418228149414e-02 1.018124371767044067e-01
8.844390511512756348e-02 -6.535463333129882812e-01 -1.194840297102928162e-02
7.524948120117187500e-01 -4.055083990097045898e-01 -4.469706416130065918e-01
5.516497492790222168e-01 1.617008149623870850e-01 2.008831314742565155e-02
1.239915728569030762e+00 4.167115688323974609e-02 3.995779901742935181e-03
8.313098549842834473e-01 1.913588643074035645e-01 -3.957765102386474609e-01
9.501531124114990234e-01 -3.256589770317077637e-01 -3.125115036964416504e-01
1.995269060134887695e-01 -7.770062237977981567e-02 2.929062545299530029e-01
7.350419163703918457e-01 2.130594551563262939e-01 1.181781291961669922e-01
7.858772277832031250e-01 -9.469971060752868652e-02 5.676013231277465820e-01
3.265927135944366455e-01 -1.132056787610054016e-01 -5.108015537261962891e-01
1.814146935939788818e-01 -1.638679653406143188e-01 4.455218613147735596e-01
1.019279062747955322e-01 -1.339424699544906616e-01 -1.138894781470298767e-01
6.702452898025512695e-02 -1.541626453399658203e-01 8.459783345460891724e-02
3.655100464820861816e-01 -3.977497816085815430e-01 -5.896863937377929688e-01
7.423405051231384277e-01 2.154819369316101074e-01 -2.144033163785934448e-01
1.689798533916473389e-01 -6.341085433959960938e-01 2.482117116451263428e-01
4.544421434402465820e-01 -5.972656011581420898e-01 1.691187322139739990e-01
7.403391599655151367e-01 -9.699994325637817383e-02 -6.839025020599365234e-01
1.032345652580261230e+00 -2.816281020641326904e-01 -1.879529356956481934e-01
1.253827333450317383e+00 7.720303535461425781e-02 -1.105932816863059998e-01
9.015635251998901367e-01 2.144815921783447266e-01 -3.582233786582946777e-01
2.926826477050781250e-03 -2.960284054279327393e-01 -2.246284633874893188e-01
1.164838433265686035e+00 -2.586986124515533447e-02 -4.124501645565032959e-01
5.176901221275329590e-01 8.183345198631286621e-03 -5.324935913085937500e-01
1.000292897224426270e+00 -2.159046977758407593e-01 3.008379936218261719e-01
4.732927978038787842e-01 -5.933303236961364746e-01 -1.774414628744125366e-01
4.062235951423645020e-01 -5.094219446182250977e-01 4.666691720485687256e-01
8.991178274154663086e-01 8.841931819915771484e-02 4.338938295841217041e-01
1.122321844100952148e+00 -6.672082841396331787e-02 -4.576029777526855469e-01
1.143093705177307129e+00 -1.686072498559951782e-01 -4.062189161777496338e-02
3.472199440002441406e-01 -6.365053653717041016e-01 -7.373310625553131104e-02
5.129616856575012207e-01 -1.181697174906730652e-01 6.102288961410522461e-01
4.815608263015747070e-02 -6.162260770797729492e-01 -1.622985452413558960e-01
3.106608688831329346e-01 -6.465303897857666016e-01 6.590889766812324524e-03
2.441917657852172852e-01 -1.897951960563659668e-01 -5.001444816589355469e-01
3.965654671192169189e-01 -4.282042086124420166e-01 -5.715047717094421387e-01
4.856496453285217285e-01 -5.552365183830261230e-01 3.029462397098541260e-01
8.616936206817626953e-01 -2.249457538127899170e-01 4.728196859359741211e-01
-1.102337837219238281e-01 -4.621892869472503662e-01 4.819894582033157349e-02
-1.044112443923950195e-02 -2.954266667366027832e-01 2.953189015388488770e-01
1.175525188446044922e+00 8.203294873237609863e-02 1.879473179578781128e-01
7.911219000816345215e-01 -3.131836354732513428e-01 -5.653211474418640137e-01
6.195621490478515625e-01 -2.232895195484161377e-01 6.189563870429992676e-01
4.315143525600433350e-01 -7.363556325435638428e-02 -5.631577968597412109e-01
-9.747684001922607422e-03 -5.209957361221313477e-01 -2.521423995494842529e-01
3.457077145576477051e-01 -6.111150383949279785e-01 2.518716156482696533e-01
4.149931073188781738e-01 -6.131009459495544434e-01 1.440678834915161133e-01
3.019371032714843750e-01 1.203987002372741699e-02 -1.935604959726333618e-01
5.719553232192993164e-01 -5.694857835769653320e-01 -1.131878234446048737e-02
6.368048787117004395e-01 -1.827222257852554321e-01 -6.895858645439147949e-01
6.639503836631774902e-01 -4.143372774124145508e-01 4.350251555442810059e-01
9.642701148986816406e-01 -3.266377449035644531e-01 1.008397489786148071e-01
3.912503123283386230e-01 -1.685037165880203247e-01 -6.081132292747497559e-01
1.536276340484619141e-01 -6.602720022201538086e-01 3.492608666419982910e-02
9.568205475807189941e-01 -3.461140990257263184e-01 -1.671605110168457031e-01
4.721265733242034912e-01 -3.431962728500366211e-01 -6.360728740692138672e-01
1.023970842361450195e+00 2.290854156017303467e-01 -3.139396011829376221e-01
5.626773834228515625e-01 -5.207984447479248047e-01 -3.618446290493011475e-01
8.431295752525329590e-01 -4.287299513816833496e-01 -1.141002252697944641e-01
5.543671250343322754e-01 -2.974524199962615967e-01 -6.607958674430847168e-01
7.362067103385925293e-01 -4.299930036067962646e-01 -4.085076153278350830e-01
-8.259403705596923828e-02 -4.665820896625518799e-01 -1.220982372760772705e-01
5.035086274147033691e-01 -5.749140977859497070e-01 1.984544843435287476e-01
1.228839039802551270e+00 4.305955767631530762e-02 5.474817752838134766e-02
7.007993459701538086e-01 -2.222474217414855957e-01 5.880841016769409180e-01
5.475959181785583496e-01 -9.836721420288085938e-02 6.043156981468200684e-01
7.285022735595703125e-01 -4.798354506492614746e-01 1.460597664117813110e-01
7.412276268005371094e-01 -1.978150904178619385e-01 -6.755789518356323242e-01
5.798848271369934082e-01 -5.558128952980041504e-01 1.291887313127517700e-01
1.226858139038085938e+00 3.279060125350952148e-03 -2.656774520874023438e-01
3.229476511478424072e-01 -4.292642772197723389e-01 5.763565897941589355e-01
1.909916996955871582e-01 -4.405457973480224609e-01 -4.959117174148559570e-01
9.885255694389343262e-01 -1.073205471038818359e-01 4.189797937870025635e-01
3.184187412261962891e-01 -3.006572723388671875e-01 -6.015048027038574219e-01
4.095742106437683105e-01 4.401007294654846191e-02 -3.317362368106842041e-01
6.348126530647277832e-01 8.765473961830139160e-03 -6.037362217903137207e-01
1.244504213333129883e+00 1.139806509017944336e-01 -4.208868741989135742e-02
7.195183634757995605e-01 -5.008208751678466797e-01 -9.253909811377525330e-03
9.794062376022338867e-01 3.998029232025146484e-02 4.269276261329650879e-01
3.322315216064453125e-01 -4.784217476844787598e-01 5.311917662620544434e-01
2.826888263225555420e-01 -2.026472985744476318e-01 5.751646161079406738e-01
9.455327987670898438e-01 -3.189154863357543945e-01 -3.478108346462249756e-01
6.720654368400573730e-01 1.990655958652496338e-01 9.468560665845870972e-02
9.277011156082153320e-01 -4.101869463920593262e-02 4.846322536468505859e-01
9.808916449546813965e-01 -3.261996507644653320e-01 -1.780674904584884644e-01
8.333855867385864258e-01 -2.042222917079925537e-01 5.126812458038330078e-01
9.518119096755981445e-01 -1.267800480127334595e-01 -6.061601638793945312e-01
6.763294935226440430e-01 -4.724982678890228271e-01 -3.702901303768157959e-01
1.211595773696899414e+00 1.435148119926452637e-01 5.443161725997924805e-02
6.124287247657775879e-01 4.700529575347900391e-02 4.816913604736328125e-01
9.898726940155029297e-01 -2.549742758274078369e-01 -4.188463091850280762e-01
-1.055755019187927246e-01 -4.491708278656005859e-01 -3.087855875492095947e-03
6.468148827552795410e-01 -5.356379151344299316e-01 -9.627234190702438354e-02
9.971846938133239746e-01 -2.791416347026824951e-01 -3.414683640003204346e-01
-4.971110820770263672e-02 -3.761149048805236816e-01 -1.785496622323989868e-01
2.990354001522064209e-01 -4.627497494220733643e-02 3.931570649147033691e-01
7.564242482185363770e-01 1.670426130294799805e-01 -4.145895540714263916e-01
7.140815258026123047e-02 -3.120962977409362793e-01 4.625774621963500977e-01
1.015972495079040527e+00 -2.935588061809539795e-01 -2.070592641830444336e-01
1.105307102203369141e+00 -1.869070678949356079e-01 -2.978605031967163086e-01
7.753633856773376465e-01 1.581557691097259521e-01 -4.473385512828826904e-01
1.107171773910522461e+00 -1.709733605384826660e-01 1.358786076307296753e-01
3.809381127357482910e-01 6.587380170822143555e-02 1.720205545425415039e-01
7.589868307113647461e-01 2.298808991909027100e-01 1.321385242044925690e-02
1.249254465103149414e+00 4.456688463687896729e-02 -6.261882930994033813e-02
8.763135075569152832e-01 -1.064585149288177490e-02 -6.451776623725891113e-01
3.581002950668334961e-01 5.214795470237731934e-02 -1.720397472381591797e-01
8.952655196189880371e-01 -2.731140553951263428e-01 -5.227245092391967773e-01
-1.004195809364318848e-01 -4.787906408309936523e-01 -4.599465429782867432e-02
1.235441923141479492e+00 1.147626340389251709e-02 -3.537591546773910522e-03
3.551661968231201172e-02 -3.139978349208831787e-01 -3.167044222354888916e-01
1.111291408538818359e+00 2.199373543262481689e-01 -2.822574973106384277e-01
-1.490712165832519531e-04 -5.461312532424926758e-01 3.472523093223571777e-01
6.431257724761962891e-01 -2.176296710968017578e-01 6.128267645835876465e-01
5.518309473991394043e-01 -1.054927706718444824e-03 5.221169590950012207e-01
2.455073893070220947e-01 -3.505391776561737061e-01 5.962350368499755859e-01
1.004657387733459473e+00 1.945420205593109131e-01 -4.118687510490417480e-01
6.436877250671386719e-01 -3.008559346199035645e-03 5.460770130157470703e-01
5.513214468955993652e-01 9.603509306907653809e-02 -3.992711603641510010e-01
-8.702379465103149414e-02 -4.356100559234619141e-01 2.305726706981658936e-01
7.010781764984130859e-02 -5.838919878005981445e-01 3.503010869026184082e-01
2.729179263114929199e-01 -5.664501190185546875e-01 -3.808139264583587646e-01
2.821562588214874268e-01 1.577824354171752930e-02 1.009315252304077148e-01
1.058580398559570312e+00 -1.372513025999069214e-01 3.010657429695129395e-01
9.440565109252929688e-01 2.310162782669067383e-02 -6.137465834617614746e-01
2.673321366310119629e-01 -1.801762878894805908e-01 -5.160129666328430176e-01
1.195478677749633789e+00 1.081456840038299561e-01 1.333575546741485596e-01
5.243057608604431152e-01 -5.714939832687377930e-01 -2.119924724102020264e-01
5.231859087944030762e-01 7.508277893066406250e-02 -4.165517985820770264e-01
4.240616559982299805e-01 -5.727916955947875977e-01 -3.232295215129852295e-01
1.044238328933715820e+00 1.888263821601867676e-01 -4.099627137184143066e-01
4.725152254104614258e-02 -5.229089260101318359e-01 4.178518950939178467e-01
-7.615602016448974609e-02 -4.593855142593383789e-01 -1.428584158420562744e-01
2.076108455657958984e-01 -6.529880166053771973e-01 -8.386930078268051147e-02
-7.683664560317993164e-02 -5.026539564132690430e-01 2.554289102554321289e-01
7.742227911949157715e-01 6.346514821052551270e-02 4.843876957893371582e-01
-2.858644723892211914e-02 -2.680654823780059814e-01 -4.354717209935188293e-03
6.326735019683837891e-02 -6.056236028671264648e-01 -2.082661092281341553e-01
1.034657835960388184e+00 -4.631103575229644775e-02 3.888927400112152100e-01
7.488750815391540527e-01 2.195465564727783203e-01 9.588728845119476318e-02
4.935194849967956543e-01 -5.965521335601806641e-01 5.575140565633773804e-02
5.199381709098815918e-01 -5.882436037063598633e-01 3.431520611047744751e-02
1.305971145629882812e-01 -2.051828205585479736e-01 4.339858889579772949e-01
5.099688768386840820e-01 1.089650690555572510e-01 2.623323202133178711e-01
4.478088915348052979e-01 -6.133646965026855469e-01 -8.287828415632247925e-03
4.560152888298034668e-01 1.123715937137603760e-01 1.114908903837203979e-01
2.107727825641632080e-01 -4.870179891586303711e-01 -4.731640815734863281e-01
5.181478261947631836e-01 1.210920810699462891e-01 2.270454466342926025e-01
9.087182283401489258e-01 5.529972910881042480e-02 -6.043525934219360352e-01
6.075619459152221680e-01 -9.941100329160690308e-02 6.077719330787658691e-01
1.104566454887390137e+00 -1.068749502301216125e-01 2.489289939403533936e-01
1.591644585132598877e-01 -1.163826957345008850e-01 3.121903836727142334e-01
7.895427942276000977e-01 -1.370061635971069336e-01 5.652486681938171387e-01
6.930158734321594238e-01 -9.589497745037078857e-02 5.968061685562133789e-01
7.716475725173950195e-01 1.511037945747375488e-01 3.518952131271362305e-01
4.333648383617401123e-01 9.038987755775451660e-02 1.880113631486892700e-01
1.184766530990600586e+00 6.960630416870117188e-02 -3.973294198513031006e-01
8.933401107788085938e-01 4.794472455978393555e-02 4.696440100669860840e-01
9.063330292701721191e-02 -1.356729567050933838e-01 -5.365280061960220337e-02
3.989923596382141113e-01 5.445912480354309082e-02 2.712241411209106445e-01
8.904719352722167969e-01 2.499994635581970215e-01 -1.819279044866561890e-01
9.951634407043457031e-01 1.522810757160186768e-02 4.243747293949127197e-01
9.364215135574340820e-01 2.339918613433837891e-01 1.447104364633560181e-01
8.219500780105590820e-01 2.276735007762908936e-02 5.112913250923156738e-01
7.418111562728881836e-01 1.832321584224700928e-01 2.561731040477752686e-01
6.250945925712585449e-01 1.910490393638610840e-01 -4.181869328022003174e-02
5.881431698799133301e-01 1.096605062484741211e-01 3.500253260135650635e-01
-8.955180644989013672e-03 -2.417516112327575684e-01 -1.000588200986385345e-02
2.574586570262908936e-01 -1.416856050491333008e-02 2.027632445096969604e-01
-3.885173797607421875e-02 -4.995677173137664795e-01 -2.184980362653732300e-01
1.071353793144226074e+00 2.402169108390808105e-01 -2.396216839551925659e-01
2.459913194179534912e-01 -3.780125975608825684e-01 5.913338661193847656e-01
6.617147922515869141e-01 -5.274398326873779297e-01 4.213877767324447632e-02
6.113719940185546875e-02 -2.097844481468200684e-01 3.106263577938079834e-01
3.791604340076446533e-01 -6.313519477844238281e-01 4.212627559900283813e-02
4.991911649703979492e-01 1.314521133899688721e-01 -1.524605602025985718e-01
7.394680380821228027e-02 -2.871146202087402344e-01 -3.600600063800811768e-01
4.334286451339721680e-01 -4.667321443557739258e-01 -5.293793678283691406e-01
3.726330399513244629e-01 -1.541349291801452637e-02 -4.178006947040557861e-01
4.624587893486022949e-01 -1.541495174169540405e-01 -6.405282616615295410e-01
1.229393184185028076e-01 -2.383324205875396729e-01 -3.907025158405303955e-01
9.884636402130126953e-01 -2.638982534408569336e-01 2.342192828655242920e-01
4.340101480484008789e-01 1.054925620555877686e-01 6.490496546030044556e-02
4.044281542301177979e-01 -3.875631690025329590e-01 -6.029986143112182617e-01
3.303595781326293945e-01 -6.418370008468627930e-01 5.504456907510757446e-02
1.808158755302429199e-01 -3.928488492965698242e-01 5.639654397964477539e-01
1.016795158386230469e+00 1.886233687400817871e-01 2.438467442989349365e-01
7.021039724349975586e-01 -4.795375466346740723e-01 -3.040604591369628906e-01
2.807481288909912109e-01 -5.686807632446289062e-02 -3.617742955684661865e-01
5.110217928886413574e-01 -5.220388770103454590e-01 3.683211505413055420e-01
6.861161589622497559e-01 1.433953046798706055e-01 -4.196050763130187988e-01
4.270922243595123291e-01 6.757903099060058594e-02 -2.881578803062438965e-01
8.028308153152465820e-01 2.165544033050537109e-01 1.724341660737991333e-01
9.564565420150756836e-01 1.787364780902862549e-01 -4.506042003631591797e-01
5.123762488365173340e-01 -5.848731994628906250e-01 -1.466513425111770630e-01
7.239197492599487305e-01 -4.193777441978454590e-01 -4.488037526607513428e-01
5.430659055709838867e-01 1.425248086452484131e-01 -2.159680128097534180e-01
5.587773323059082031e-01 -2.521709203720092773e-01 -6.763224005699157715e-01
4.924505650997161865e-01 9.299373626708984375e-02 2.924022972583770752e-01
4.347985982894897461e-02 -2.492310106754302979e-01 3.475677073001861572e-01
1.229782104492187500e+00 1.222590506076812744e-01 2.274847961962223053e-02
2.235756218433380127e-01 -2.086966037750244141e-01 -4.935662746429443359e-01
8.591413497924804688e-02 -4.622400999069213867e-01 -4.044810831546783447e-01
2.794927656650543213e-01 -4.189324080944061279e-01 -5.513022541999816895e-01
1.153989315032958984e+00 -1.475228369235992432e-01 -2.193371653556823730e-01
3.576605021953582764e-01 4.186861217021942139e-02 2.308621704578399658e-01
4.123681783676147461e-02 -6.293690204620361328e-01 2.010643184185028076e-01
1.879957318305969238e-01 -3.179625570774078369e-01 -5.128433108329772949e-01
5.681769847869873047e-01 1.264964044094085693e-02 5.114209651947021484e-01
1.229484915733337402e+00 1.340956985950469971e-02 3.064283169806003571e-02
4.180898368358612061e-01 -6.218130588531494141e-01 1.495611481368541718e-02
1.069204807281494141e+00 -2.512956559658050537e-01 -4.800984263420104980e-02
1.136192083358764648e-01 -6.423054933547973633e-01 -1.251987516880035400e-01
-8.772575855255126953e-02 -3.845713436603546143e-01 -2.715668827295303345e-02
7.189505100250244141e-01 -1.924378573894500732e-01 -6.819530725479125977e-01
2.350456118583679199e-01 -1.466940790414810181e-01 -4.437601864337921143e-01
9.119801521301269531e-01 -2.102370858192443848e-01 -5.793884396553039551e-01
4.632222652435302734e-01 -5.482458472251892090e-01 -3.679145574569702148e-01
4.611003398895263672e-01 -7.759800553321838379e-02 -5.887123942375183105e-01
5.182357430458068848e-01 -3.789715766906738281e-01 5.742382407188415527e-01
1.284990310668945312e-01 -4.588681161403656006e-01 -4.431278109550476074e-01
3.531029820442199707e-01 -1.684094667434692383e-01 -5.818911194801330566e-01
3.195315003395080566e-01 -6.445624232292175293e-01 -1.831938140094280243e-02
3.984549641609191895e-01 -4.686468541622161865e-01 5.267604589462280273e-01
5.058705806732177734e-03 -3.843703866004943848e-01 4.117144346237182617e-01
9.478986859321594238e-01 -3.019006848335266113e-01 2.345839738845825195e-01
5.712211132049560547e-01 -2.101253718137741089e-01 6.315005421638488770e-01
7.128729224205017090e-01 1.774351298809051514e-01 -3.471376299858093262e-01
1.243954896926879883e+00 7.566770911216735840e-02 -8.111778646707534790e-03
8.419448137283325195e-01 2.438902854919433594e-01 -1.696915626525878906e-01
1.112162828445434570e+00 1.374872624874114990e-01 -4.420732855796813965e-01
1.890320479869842529e-01 -6.984370946884155273e-02 2.343040704727172852e-01
1.252908468246459961e+00 5.688863992691040039e-02 -1.388487517833709717e-01
1.132550477981567383e+00 -1.376883387565612793e-01 1.316398233175277710e-01
1.076434135437011719e+00 -8.179505914449691772e-02 -5.120147466659545898e-01
6.796196699142456055e-01 -4.775154590606689453e-01 2.685562968254089355e-01
8.811105489730834961e-01 1.650937199592590332e-01 -4.714904427528381348e-01
1.022178530693054199e+00 -8.401385694742202759e-02 3.911063373088836670e-01
1.019389867782592773e+00 -1.252681314945220947e-01 -5.475728511810302734e-01
4.599677920341491699e-01 -6.046037673950195312e-01 9.735304862260818481e-02
1.103624343872070312e+00 -1.650659888982772827e-01 -3.604820668697357178e-01
6.136401891708374023e-01 -2.970075607299804688e-01 -6.559179425239562988e-01
1.927714347839355469e-01 -1.196922138333320618e-01 -3.329856693744659424e-01
1.794592142105102539e-01 -1.130792647600173950e-01 3.472456037998199463e-01
9.010095596313476562e-01 2.492622733116149902e-01 5.394440144300460815e-02
7.100836038589477539e-01 -4.430750608444213867e-01 -4.083324074745178223e-01
5.945132374763488770e-01 -1.747122704982757568e-01 -6.859978437423706055e-01
2.618080973625183105e-01 -2.893067002296447754e-01 5.999665856361389160e-01
3.771383762359619141e-01 -5.975052118301391602e-01 -2.717295885086059570e-01
8.319281339645385742e-01 2.472141683101654053e-01 -8.178225904703140259e-02
1.125205039978027344e+00 -1.008467748761177063e-01 -4.181874096393585205e-01
7.679920792579650879e-01 1.818609833717346191e-01 2.749582231044769287e-01
2.464154362678527832e-01 -5.890581011772155762e-02 3.382889926433563232e-01
1.200330257415771484e+00 -5.547036230564117432e-02 -2.806614339351654053e-01
6.396483778953552246e-01 -3.511547148227691650e-01 5.366994142532348633e-01
3.022111058235168457e-01 3.148338198661804199e-02 -3.141438215970993042e-02
5.541467666625976562e-01 -5.360614061355590820e-01 -3.223510384559631348e-01
4.194873571395874023e-02 -4.041099548339843750e-01 -3.667047917842864990e-01
3.673065304756164551e-01 6.904646754264831543e-02 7.707354426383972168e-02
-3.020364046096801758e-02 -5.421013832092285156e-01 -1.955583542585372925e-01
1.252667188644409180e+00 8.454895019531250000e-02 -1.567411720752716064e-01
5.320675969123840332e-01 1.227614283561706543e-01 -2.859604358673095703e-01
1.895266771316528320e-02 -6.317256689071655273e-01 1.504730582237243652e-01
2.420912384986877441e-01 -5.052746534347534180e-01 5.070742368698120117e-01
4.906491041183471680e-01 1.898767054080963135e-02 4.619711637496948242e-01
5.424783825874328613e-01 -2.935993969440460205e-01 6.187764406204223633e-01
6.731599569320678711e-02 -1.668308079242706299e-01 1.904192566871643066e-01
6.710460782051086426e-01 2.066538035869598389e-01 -5.441862344741821289e-02
3.787340819835662842e-01 -2.214579284191131592e-01 6.239509582519531250e-01
9.060167670249938965e-01 -5.917292833328247070e-02 5.004999041557312012e-01
2.904364764690399170e-01 -2.777706384658813477e-01 6.092939376831054688e-01
7.542351484298706055e-01 -4.294447898864746094e-01 -3.843087255954742432e-01
8.046624064445495605e-02 -2.485891133546829224e-01 4.152092337608337402e-01
7.754380702972412109e-01 -3.072177171707153320e-01 -5.837019085884094238e-01
-9.405595064163208008e-02 -5.101566314697265625e-01 -5.668841302394866943e-02
8.627735972404479980e-01 -4.158925712108612061e-01 -1.187843829393386841e-01
9.922507405281066895e-01 6.807860732078552246e-02 -5.722731351852416992e-01
3.384453058242797852e-02 -5.913321971893310547e-01 -2.091245949268341064e-01
7.349514961242675781e-01 -3.509900569915771484e-01 4.603353142738342285e-01
1.202720284461975098e+00 1.840122044086456299e-01 -2.111278921365737915e-01
8.542410135269165039e-01 -3.893624544143676758e-01 1.949128955602645874e-01
8.265928030014038086e-01 -3.873202800750732422e-01 2.644695937633514404e-01
3.433166742324829102e-01 -4.379793405532836914e-01 -5.563783645629882812e-01
6.657707095146179199e-01 -5.186511278152465820e-01 -1.870592236518859863e-01
9.230519533157348633e-01 2.553187310695648193e-01 1.172501780092716217e-02
1.249673843383789062e+00 3.236740827560424805e-02 -1.095711514353752136e-01
8.832691907882690430e-01 -4.016418457031250000e-01 -1.308595389127731323e-01
-6.044375896453857422e-02 -4.054955244064331055e-01 2.950837910175323486e-01
5.094726085662841797e-01 1.287218630313873291e-01 1.698513329029083252e-01
-4.704505205154418945e-02 -3.519051074981689453e-01 2.789067029953002930e-01
4.907412230968475342e-01 -3.021180629730224609e-02 -5.609101653099060059e-01
4.969297349452972412e-01 7.277157902717590332e-02 3.567455708980560303e-01
6.513644456863403320e-01 -5.217939615249633789e-01 -2.107307016849517822e-01
1.188767790794372559e+00 -8.521979302167892456e-02 -2.604927420616149902e-01
6.286332607269287109e-01 1.104902923107147217e-01 3.772689700126647949e-01
5.455098152160644531e-01 1.550480127334594727e-01 8.366204798221588135e-02
6.839554309844970703e-01 2.031193375587463379e-01 -1.748201400041580200e-01
9.087311029434204102e-01 -7.041256129741668701e-02 -6.447306275367736816e-01
7.222213745117187500e-01 -4.147131741046905518e-01 3.674195706844329834e-01
1.755218505859375000e-01 -6.590651273727416992e-01 -1.866664364933967590e-02
9.746677875518798828e-01 -3.346188068389892578e-01 -1.347712427377700806e-01
2.502912580966949463e-01 -6.527401208877563477e-01 9.252434968948364258e-02
9.407491683959960938e-01 2.601866424083709717e-01 -9.198425710201263428e-02
1.244182109832763672e+00 1.654982566833496094e-02 -6.573186814785003662e-02
5.934281945228576660e-01 -5.036196708679199219e-01 3.222980201244354248e-01
6.827495098114013672e-01 -2.914679646492004395e-01 5.604587793350219727e-01
4.145057201385498047e-01 -5.930845737457275391e-01 2.515822649002075195e-01
6.050561070442199707e-01 2.586975693702697754e-02 -5.693225860595703125e-01
1.033836603164672852e+00 -2.633579671382904053e-01 1.026695519685745239e-01
1.428795456886291504e-01 -2.449355870485305786e-01 4.929931163787841797e-01
-1.097911000251770020e-01 -4.801833629608154297e-01 3.333931416273117065e-02
6.788148283958435059e-01 1.670949459075927734e-01 -3.441285192966461182e-01
1.237270474433898926e+00 2.172166109085083008e-02 -2.373412698507308960e-01
1.815221011638641357e-01 -7.021118700504302979e-02 2.092061042785644531e-01
7.810553312301635742e-01 -1.502761393785476685e-01 -6.780350804328918457e-01
1.006562411785125732e-01 -6.468610167503356934e-01 -8.880138397216796875e-02
2.593995928764343262e-01 -4.666185677051544189e-01 -5.103165507316589355e-01
7.022541761398315430e-02 -6.523013710975646973e-01 3.726007789373397827e-02
8.607409596443176270e-01 -4.132906794548034668e-01 -1.708868891000747681e-01
1.078686714172363281e+00 1.126605868339538574e-01 2.988882362842559814e-01
6.459244489669799805e-01 1.153789758682250977e-01 -4.504307806491851807e-01
4.644685685634613037e-01 -8.613006770610809326e-02 5.757945179939270020e-01
1.799702942371368408e-01 -6.398057341575622559e-01 2.233122438192367554e-01
4.206815958023071289e-01 -1.356242001056671143e-01 -6.072063446044921875e-01
8.781588077545166016e-01 1.426650285720825195e-01 3.713631927967071533e-01
1.016197204589843750e+00 2.405062615871429443e-01 9.469166398048400879e-02
1.193372011184692383e+00 8.407962322235107422e-02 -3.770501017570495605e-01
1.174743413925170898e+00 1.696561276912689209e-02 1.938772499561309814e-01
5.468555688858032227e-01 8.560761809349060059e-03 -5.539245605468750000e-01
1.198152303695678711e-01 -1.820573806762695312e-01 3.800937831401824951e-01
8.488836288452148438e-01 -3.370557427406311035e-01 -4.709531366825103760e-01
5.481750369071960449e-01 7.152229547500610352e-02 4.056001901626586914e-01
3.810524344444274902e-01 3.273476660251617432e-02 3.128153085708618164e-01
1.676255464553833008e-02 -6.381435394287109375e-01 6.302575767040252686e-02
1.072200298309326172e+00 3.403832018375396729e-02 -5.391286611557006836e-01
3.913712203502655029e-01 6.380578875541687012e-02 2.144049555063247681e-01
5.893378257751464844e-01 -3.685810565948486328e-01 -6.064158678054809570e-01
5.344883799552917480e-01 -5.495033264160156250e-01 2.570351660251617432e-01
9.658215045928955078e-01 1.520204842090606689e-01 -4.943479895591735840e-01
3.412654995918273926e-01 -4.604071378707885742e-01 5.485543608665466309e-01
6.116209030151367188e-01 1.411612331867218018e-01 -3.460660576820373535e-01
2.087253332138061523e-02 -6.382769346237182617e-01 9.481754899024963379e-02
6.805418133735656738e-01 -3.768450617790222168e-01 -5.577881932258605957e-01
-7.486569881439208984e-02 -5.597124099731445312e-01 1.773692667484283447e-01
1.236518025398254395e-01 -5.988711118698120117e-01 -2.707439959049224854e-01
7.053135037422180176e-01 -4.672373831272125244e-01 -3.437120914459228516e-01
1.033054828643798828e+00 2.454838752746582031e-01 -2.401262968778610229e-01
4.388539493083953857e-01 9.275674819946289062e-02 -2.058837711811065674e-01
-7.275867462158203125e-02 -3.967395424842834473e-01 2.506671249866485596e-01
1.986587941646575928e-01 -4.637303948402404785e-02 -9.047065675258636475e-02
2.339786887168884277e-01 -2.763813734054565430e-02 1.880783885717391968e-01
6.197440028190612793e-01 6.084442138671875000e-02 -5.302059054374694824e-01
1.201359033584594727e+00 5.016809701919555664e-02 -3.669425845146179199e-01
8.123534917831420898e-01 7.719400525093078613e-02 -5.857813358306884766e-01
1.110954046249389648e+00 1.642501354217529297e-01 -4.084191620349884033e-01
-1.085193157196044922e-01 -5.007307529449462891e-01 4.442697018384933472e-02
5.867304801940917969e-01 -4.473459720611572266e-01 4.506351947784423828e-01
5.271434783935546875e-01 -5.745588541030883789e-01 1.483268886804580688e-01
6.253027319908142090e-01 1.580205559730529785e-01 2.375060617923736572e-01
5.272685289382934570e-01 -5.859147310256958008e-01 -6.377846747636795044e-02
5.303370356559753418e-01 1.416628956794738770e-01 -1.851884871721267700e-01
3.894190788269042969e-01 7.846304774284362793e-02 1.103036999702453613e-01
1.215183258056640625e+00 -5.458538234233856201e-02 -3.328710421919822693e-02
2.518150210380554199e-01 -6.469898223876953125e-01 1.482780426740646362e-01
2.552074790000915527e-01 -6.493951082229614258e-01 1.237985640764236450e-01
5.850264430046081543e-01 -5.607870817184448242e-01 -1.170073524117469788e-01
6.860540509223937988e-01 1.905506551265716553e-01 -2.589102089405059814e-01
5.719780921936035156e-03 -2.597141265869140625e-01 2.690685987472534180e-01
6.901727318763732910e-01 -1.483628153800964355e-01 6.050984859466552734e-01
-3.267824649810791016e-02 -2.763202488422393799e-01 1.375181674957275391e-01
4.918742179870605469e-02 -1.722355931997299194e-01 8.312901854515075684e-02
1.761958003044128418e-01 -5.848751962184906006e-02 8.616705238819122314e-02
1.089836239814758301e+00 1.308810412883758545e-01 -4.673738777637481689e-01
3.236607909202575684e-01 -3.803217411041259766e-01 6.043110489845275879e-01
2.390926182270050049e-01 -9.917035698890686035e-03 1.492478139698505402e-02
7.895737886428833008e-01 -4.444430470466613770e-01 -2.541014850139617920e-01
3.787397146224975586e-01 4.991795122623443604e-02 -2.457765936851501465e-01
6.910288929939270020e-01 -3.661260008811950684e-03 -6.348082423210144043e-01
1.270234584808349609e-02 -4.849881529808044434e-01 4.138247072696685791e-01
9.796394109725952148e-01 2.608405649662017822e-01 -1.124946624040603638e-01
5.597800612449645996e-01 9.242153167724609375e-02 3.684463798999786377e-01
4.003374576568603516e-01 -4.120912551879882812e-01 5.813375115394592285e-01
8.221633434295654297e-01 1.642883419990539551e-01 3.334307074546813965e-01
4.685785174369812012e-01 6.979319453239440918e-02 3.314092457294464111e-01
3.296297192573547363e-01 -2.151543200016021729e-01 -5.900380015373229980e-01
7.614978551864624023e-01 1.596753001213073730e-01 3.299677371978759766e-01
2.547049522399902344e-02 -2.042362242937088013e-01 1.491982042789459229e-01
5.682194232940673828e-02 -1.728062182664871216e-01 1.642360985279083252e-01
3.898560404777526855e-01 -5.262494087219238281e-04 -4.113117456436157227e-01
7.295376062393188477e-01 1.317282021045684814e-01 3.795362412929534912e-01
-1.099575161933898926e-01 -4.931279718875885010e-01 6.838965415954589844e-02
2.948330640792846680e-01 -6.174691915512084961e-01 2.673198282718658447e-01
-6.834858655929565430e-02 -4.721249341964721680e-01 -1.637371331453323364e-01
4.451221227645874023e-01 -3.232633471488952637e-01 6.249620914459228516e-01
2.097978889942169189e-01 -9.991546720266342163e-02 -3.244120180606842041e-01
3.908484280109405518e-01 -1.475469172000885010e-01 -5.953165888786315918e-01
9.463826417922973633e-01 -3.474667668342590332e-01 -2.209641635417938232e-01
4.749555587768554688e-01 -1.989053934812545776e-01 -6.599060297012329102e-01
7.448923587799072266e-01 -1.946860253810882568e-01 5.755035281181335449e-01
7.754769325256347656e-01 1.779729425907135010e-01 -3.989267051219940186e-01
-8.574122190475463867e-02 -4.925881326198577881e-01 -1.037165671586990356e-01
8.275395631790161133e-01 -4.723308980464935303e-02 5.415345430374145508e-01
2.754332721233367920e-01 -3.332550823688507080e-02 -2.921655178070068359e-01
1.647157073020935059e-01 -5.718139410018920898e-01 -3.450080454349517822e-01
9.237184524536132812e-01 -2.661059498786926270e-01 3.500499129295349121e-01
5.006735324859619141e-01 -5.854185819625854492e-01 -1.730161458253860474e-01
1.675725579261779785e-01 -3.128237724304199219e-01 5.531491041183471680e-01
9.348143935203552246e-01 -1.707597821950912476e-01 -5.927963256835937500e-01
1.790336668491363525e-01 -1.892318576574325562e-01 -4.190059900283813477e-01
-5.696368217468261719e-02 -5.836395025253295898e-01 -4.409168660640716553e-02
7.356110811233520508e-01 1.962989866733551025e-01 -3.027076423168182373e-01
1.098144650459289551e-01 -4.873502254486083984e-01 -4.105001986026763916e-01
1.204162597656250000e+00 8.792760968208312988e-02 -3.537957966327667236e-01
7.960491776466369629e-01 1.631667315959930420e-01 3.315434753894805908e-01
1.215648412704467773e+00 1.467800438404083252e-01 -2.680832147598266602e-01
1.554669737815856934e-01 -2.909729182720184326e-01 -4.716882705688476562e-01
1.123515665531158447e-01 -4.386733174324035645e-01 -4.387115538120269775e-01
2.822893857955932617e-02 -2.607531547546386719e-01 3.330219686031341553e-01
8.848938345909118652e-01 -3.938271403312683105e-01 -2.016338557004928589e-01
4.931993484497070312e-01 1.059394776821136475e-01 2.461327612400054932e-01
5.520572662353515625e-01 -3.135372698307037354e-02 -6.018730401992797852e-01
2.679924666881561279e-01 -5.949916839599609375e-01 -3.165845870971679688e-01
8.449090719223022461e-01 1.838962435722351074e-01 2.919243872165679932e-01
1.705163717269897461e-02 -2.184579968452453613e-01 1.759136468172073364e-01
4.770106077194213867e-02 -2.177372872829437256e-01 2.933957874774932861e-01
1.276088953018188477e-01 -1.381221413612365723e-01 2.960452735424041748e-01
9.576484560966491699e-01 -2.718777656555175781e-01 -4.408670961856842041e-01
9.683276414871215820e-01 1.125549972057342529e-01 -5.430057644844055176e-01
9.728557467460632324e-01 1.179213523864746094e-01 3.717412352561950684e-01
-2.915632724761962891e-02 -5.210136175155639648e-01 -2.200807482004165649e-01
3.850284814834594727e-01 -5.647734999656677246e-01 -3.661752343177795410e-01
8.630206584930419922e-01 2.480383217334747314e-01 2.878019027411937714e-02
5.806280970573425293e-01 1.731875240802764893e-01 2.319336868822574615e-02
8.946018815040588379e-01 2.543810606002807617e-01 -5.943445488810539246e-03
9.262213706970214844e-01 4.126779735088348389e-02 -6.097753643989562988e-01
1.115098237991333008e+00 -1.827020496129989624e-01 7.054486125707626343e-02
9.357582330703735352e-01 1.885367631912231445e-01 2.765384316444396973e-01
8.948060274124145508e-01 -1.831066310405731201e-01 -6.138854026794433594e-01
4.195528030395507812e-01 1.002078354358673096e-01 -1.668354496359825134e-02
9.409220218658447266e-01 -6.991520524024963379e-02 4.744719266891479492e-01
6.253218650817871094e-01 -5.413130521774291992e-01 8.125717192888259888e-02
4.153037071228027344e-02 -4.334666132926940918e-01 -3.647251129150390625e-01
-9.833306074142456055e-02 -4.420273005962371826e-01 1.836583018302917480e-01
4.009483456611633301e-01 -6.064951419830322266e-03 4.319081008434295654e-01
1.210669159889221191e+00 -5.225606262683868408e-02 -2.378527224063873291e-01
6.679099202156066895e-01 2.009653151035308838e-01 6.459868699312210083e-02
4.743621945381164551e-01 -5.862777829170227051e-01 -2.176351398229598999e-01
1.067414283752441406e+00 -2.515541017055511475e-01 -1.626587510108947754e-01
1.234728813171386719e+00 1.515344381332397461e-01 -7.944828271865844727e-02
5.250668525695800781e-01 -5.762033462524414062e-01 -1.805412024259567261e-01
4.461766779422760010e-01 -5.276886224746704102e-01 4.096339941024780273e-01
2.842960059642791748e-01 1.475425064563751221e-02 1.260934770107269287e-01
1.077688813209533691e+00 -1.612767577171325684e-03 -5.376273393630981445e-01
-2.876722812652587891e-02 -6.154121160507202148e-01 1.003784388303756714e-01
-9.537458419799804688e-03 -2.396132349967956543e-01 8.078796416521072388e-02
-9.048974514007568359e-02 -4.136018753051757812e-01 1.963227242231369019e-01
8.578631281852722168e-01 2.507080435752868652e-01 -2.161894552409648895e-02
3.477142751216888428e-01 -6.384396553039550781e-01 -3.724431991577148438e-02
5.009958148002624512e-01 -3.079052567481994629e-01 6.225140690803527832e-01
4.980423748493194580e-01 1.348800063133239746e-01 -1.135278418660163879e-01
6.262565255165100098e-01 -5.463229417800903320e-01 -1.053105760365724564e-02
-8.256196975708007812e-02 -3.843256235122680664e-01 -6.082318723201751709e-02
7.939009666442871094e-01 -4.476082324981689453e-01 1.081439107656478882e-01
1.042331695556640625e+00 2.555759549140930176e-01 -3.105637058615684509e-02
3.061990737915039062e-01 -9.050875902175903320e-03 3.079638481140136719e-01
9.128447771072387695e-01 -1.845355629920959473e-01 -5.999314785003662109e-01
1.250877499580383301e+00 9.447079896926879883e-02 -7.087125629186630249e-02
1.007054686546325684e+00 2.480010092258453369e-01 -2.361509352922439575e-01
5.938151478767395020e-01 -1.422405242919921875e-02 5.485251545906066895e-01
9.756677746772766113e-01 2.463107705116271973e-01 8.302754163742065430e-02
1.118950128555297852e+00 -1.979825496673583984e-01 -1.602408587932586670e-01
1.043028354644775391e+00 3.382620215415954590e-02 3.772120475769042969e-01
5.359069108963012695e-01 -5.585775375366210938e-01 -2.579063773155212402e-01
-9.326070547103881836e-02 -3.836241662502288818e-01 5.222167074680328369e-02
5.345692038536071777e-01 1.089508831501007080e-01 -3.396314680576324463e-01
2.054482698440551758e-02 -6.020686030387878418e-01 2.685045003890991211e-01
7.458946704864501953e-01 2.280620038509368896e-01 -1.917523518204689026e-02
3.172332346439361572e-01 -6.178964376449584961e-01 2.490093410015106201e-01
8.509085178375244141e-01 -4.035699367523193359e-01 -2.745793163776397705e-01
1.238878846168518066e+00 8.531859517097473145e-02 -2.533598244190216064e-01
4.785283803939819336e-01 -5.339605808258056641e-01 -3.948209583759307861e-01
1.156180381774902344e+00 2.158305644989013672e-01 -2.196830213069915771e-01
6.279774904251098633e-01 -4.836705029010772705e-01 3.305186629295349121e-01
3.761452436447143555e-02 -1.904539316892623901e-01 -5.048282444477081299e-02
-5.800050497055053711e-02 -3.102076947689056396e-01 8.141285926103591919e-02
9.248466491699218750e-01 -2.538044452667236328e-01 -5.165166258811950684e-01
1.005458831787109375e-02 -5.888518095016479492e-01 2.878737151622772217e-01
2.197639942169189453e-01 -3.687540888786315918e-01 -5.383424758911132812e-01
3.333751559257507324e-01 4.153484106063842773e-02 -1.408891826868057251e-01
1.028678417205810547e+00 -1.627640575170516968e-01 3.229439854621887207e-01
6.534479260444641113e-01 -3.447189927101135254e-02 -6.469427943229675293e-01
9.867106676101684570e-01 2.412241697311401367e-01 1.050055176019668579e-01
5.717574357986450195e-01 -4.054936766624450684e-01 -5.721650123596191406e-01
8.308523893356323242e-01 1.983133554458618164e-01 2.506059408187866211e-01
7.630605697631835938e-01 -1.140402406454086304e-01 -6.838384866714477539e-01
7.254940867424011230e-01 -4.728387594223022461e-01 1.893834024667739868e-01
8.615844249725341797e-01 2.521141171455383301e-01 -5.252758041024208069e-02
-9.635317325592041016e-02 -4.058030843734741211e-01 -1.036831364035606384e-02
4.301636815071105957e-01 -5.254521369934082031e-01 -4.366139173507690430e-01
7.487657666206359863e-01 2.246097624301910400e-01 5.070122331380844116e-02
1.156406402587890625e+00 -1.152788624167442322e-01 9.969238936901092529e-02
2.585150599479675293e-01 -2.357136309146881104e-01 5.798397660255432129e-01
1.182745337486267090e+00 -9.764128923416137695e-02 3.096372820436954498e-02
4.733495414257049561e-01 6.795722246170043945e-02 -3.680233657360076904e-01
3.831386566162109375e-02 -2.402687370777130127e-01 3.188188970088958740e-01
4.103094935417175293e-01 7.750123739242553711e-02 1.948765367269515991e-01
7.016556859016418457e-01 -4.073903560638427734e-01 4.069729149341583252e-01
9.630362987518310547e-01 2.581334114074707031e-01 -5.529394373297691345e-03
8.099600672721862793e-01 -1.960806846618652344e-01 5.348351001739501953e-01
6.517928838729858398e-02 -1.552310138940811157e-01 2.364470250904560089e-02
3.645451366901397705e-01 -2.476683706045150757e-01 6.264435052871704102e-01
8.391124010086059570e-01 -3.793463110923767090e-03 5.209544897079467773e-01
4.087135791778564453e-01 8.708265423774719238e-02 1.253649294376373291e-01
8.124352097511291504e-01 -6.768091022968292236e-02 5.525459051132202148e-01
1.731239259243011475e-01 -1.927871108055114746e-01 4.733694195747375488e-01
3.454552888870239258e-01 -5.947531461715698242e-01 -2.987263500690460205e-01
4.986162483692169189e-01 -5.967029929161071777e-01 8.533911779522895813e-03
9.119324684143066406e-01 -3.718601763248443604e-01 7.908136397600173950e-02
3.202670216560363770e-01 2.282539010047912598e-02 2.179397940635681152e-01
3.203821182250976562e-02 -2.602476477622985840e-01 -2.428557723760604858e-01
3.597216010093688965e-01 6.640699505805969238e-02 -3.939559310674667358e-02
5.549765825271606445e-01 -5.303642749786376953e-01 2.940164208412170410e-01
5.815631747245788574e-01 -1.138895228505134583e-01 -6.689919233322143555e-01
1.082878351211547852e+00 -4.935024678707122803e-02 -5.215063691139221191e-01
5.759013295173645020e-01 1.694692075252532959e-01 5.582060664892196655e-02
1.076928377151489258e+00 1.732094883918762207e-01 2.266868352890014648e-01
1.020425081253051758e+00 -1.138100326061248779e-01 3.773594796657562256e-01
1.320472657680511475e-01 -4.440832138061523438e-01 5.239508748054504395e-01
5.512118339538574219e-01 -5.676212310791015625e-01 1.301182955503463745e-01
1.087061405181884766e+00 -1.968692690134048462e-01 -3.289175033569335938e-01
-2.676808834075927734e-02 -6.117733716964721680e-01 -2.665680088102817535e-02
5.056846737861633301e-01 -2.606550455093383789e-01 -6.685212850570678711e-01
4.246725440025329590e-01 9.263107180595397949e-02 -1.583712995052337646e-01
1.636530160903930664e-01 -7.076555490493774414e-02 1.169514656066894531e-01
9.675098657608032227e-01 -1.966757476329803467e-01 3.769346177577972412e-01
6.094455718994140625e-03 -3.250317573547363281e-01 3.734360635280609131e-01
1.176438927650451660e+00 -1.056327745318412781e-01 -2.593500018119812012e-01
5.866685509681701660e-01 1.378470361232757568e-01 2.645771205425262451e-01
-6.769573688507080078e-02 -3.499458134174346924e-01 -6.793670356273651123e-02
2.860960662364959717e-01 -5.833198428153991699e-01 -3.442989885807037354e-01
5.972257852554321289e-01 -5.380674600601196289e-01 1.896046102046966553e-01
2.282513678073883057e-01 -6.076352298259735107e-02 3.065650165081024170e-01
3.588930964469909668e-01 -3.338122665882110596e-01 -6.152146458625793457e-01
