5.075387284159660339e-02 -5.279859900474548340e-01 1.304345112293958664e-02
1.276973187923431396e-01 1.029038205742835999e-01 2.314120298251509666e-03
-8.406831324100494385e-02 -4.032452404499053955e-01 -1.087593147531151772e-03
-8.978671580553054810e-02 -3.424278199672698975e-01 -4.630741197615861893e-03
-7.295524328947067261e-02 -9.281735867261886597e-02 1.390359085053205490e-02
9.666060656309127808e-02 2.816907763481140137e-01 -3.240700345486402512e-03
-1.553015261888504028e-01 5.782728195190429688e-01 6.595221348106861115e-03
1.079648882150650024e-01 -1.162629481405019760e-02 -1.071205642074346542e-02
-1.653890907764434814e-01 1.647880673408508301e-01 -6.815271917730569839e-04
1.011543497443199158e-01 -3.842383623123168945e-01 -1.285835448652505875e-02
1.344470530748367310e-01 -6.161213517189025879e-01 8.573210798203945160e-03
-1.495380699634552002e-01 3.703119754791259766e-01 9.065171703696250916e-03
-5.732081457972526550e-02 -2.289743125438690186e-01 -1.278344728052616119e-02
7.941829413175582886e-02 -5.614257454872131348e-01 1.233930326998233795e-02
-2.914731390774250031e-02 -4.318384528160095215e-01 1.152535714209079742e-02
6.561288237571716309e-02 2.536756694316864014e-01 -1.080982759594917297e-02
1.018010526895523071e-01 -2.857745885848999023e-01 1.343766227364540100e-02
6.796955317258834839e-02 -6.100884079933166504e-01 1.155065931379795074e-02
-1.310758292675018311e-03 -6.038751602172851562e-01 8.689734153449535370e-03
3.603766858577728271e-02 -4.779133200645446777e-01 1.369287166744470596e-02
1.730632781982421875e-02 -6.318200230598449707e-01 -8.674601092934608459e-03
9.023486822843551636e-02 -6.013127565383911133e-01 -1.091397739946842194e-02
6.899327784776687622e-02 -2.219963967800140381e-01 1.522709149867296219e-02
1.353263556957244873e-01 -2.147499620914459229e-01 9.668666869401931763e-03
-4.174723103642463684e-02 1.594857275485992432e-01 1.612718775868415833e-02
-5.346615612506866455e-02 7.609503865242004395e-01 3.364385571330785751e-03
1.320111006498336792e-01 -7.489455938339233398e-01 5.132711026817560196e-03
1.693893922492861748e-03 5.933895111083984375e-01 -7.205077446997165680e-03
2.900977991521358490e-02 4.092822968959808350e-01 -1.076866500079631805e-02
1.077816262841224670e-01 1.128607615828514099e-01 8.331294171512126923e-03
7.025153934955596924e-02 -5.466467142105102539e-01 -1.220380607992410660e-02
2.489235065877437592e-02 7.988889515399932861e-02 -1.567094214260578156e-02
-1.589264138601720333e-03 4.914717376232147217e-01 1.121169328689575195e-02
1.165514215826988220e-01 -4.747113585472106934e-01 1.172445435076951981e-02
1.831096969544887543e-02 -5.681040883064270020e-01 1.129759009927511215e-02
-8.517824858427047729e-02 -2.245503365993499756e-01 -9.985579177737236023e-03
-1.621973961591720581e-01 2.264873385429382324e-01 5.398592911660671234e-03
1.594098061323165894e-01 -3.264406621456146240e-01 -5.683774128556251526e-03
-4.703515768051147461e-02 5.419196933507919312e-02 -1.570070907473564148e-02
-2.641496062278747559e-02 -9.197203814983367920e-02 -1.575196534395217896e-02
1.595339737832546234e-02 -3.616777062416076660e-01 1.492328289896249771e-02
1.375939846038818359e-01 -2.951393127441406250e-01 -9.584473446011543274e-03
-6.123324856162071228e-02 3.687840402126312256e-01 -1.438683457672595978e-02
-2.753390371799468994e-02 5.272231101989746094e-01 -1.159618888050317764e-02
-1.077070757746696472e-01 -1.559492349624633789e-01 -8.253349922597408295e-03
-1.364441066980361938e-01 6.584787368774414062e-01 -7.052419707179069519e-03
-8.803470432758331299e-02 -2.985451817512512207e-01 -7.251888513565063477e-03
-5.006347224116325378e-02 2.456702291965484619e-01 -1.537639647722244263e-02
8.020211011171340942e-02 -7.877007126808166504e-01 5.586958955973386765e-03
1.058883368968963623e-01 -3.094598650932312012e-01 1.314056105911731720e-02
1.416005343198776245e-01 -5.997777730226516724e-02 -5.186014343053102493e-03
-1.992665790021419525e-02 1.569172739982604980e-01 1.627569273114204407e-02
-4.914135485887527466e-02 -5.143806338310241699e-04 1.585230231285095215e-02
2.976675890386104584e-02 3.836281299591064453e-01 -1.134789083153009415e-02
-1.328040361404418945e-01 2.840132117271423340e-01 -1.074443664401769638e-02
-9.479615837335586548e-02 7.319652438163757324e-01 7.008850108832120895e-03
-1.742133200168609619e-01 5.586260557174682617e-01 3.244917024858295918e-05
1.280791610479354858e-01 -8.732984960079193115e-02 9.173518046736717224e-03
-1.292667835950851440e-01 5.166024565696716309e-01 -1.012833416461944580e-02
-1.007090881466865540e-01 -8.973881602287292480e-02 1.127426140010356903e-02
5.898987129330635071e-02 -6.554514169692993164e-01 1.037945039570331573e-02
1.112290173768997192e-01 -5.635524392127990723e-01 -1.066785678267478943e-02
1.421372443437576294e-01 -2.401974797248840332e-01 -8.512642234563827515e-03
1.950093172490596771e-02 4.493217468261718750e-01 -1.055433228611946106e-02
-4.198228940367698669e-02 -5.322812795639038086e-01 -5.426352377980947495e-03
1.296391487121582031e-01 -3.780915737152099609e-01 1.101173926144838333e-02
1.298435479402542114e-01 -3.561007976531982422e-02 -7.570492569357156754e-03
1.603333652019500732e-01 -6.381465792655944824e-01 3.802731866016983986e-03
-1.373673677444458008e-01 1.096699386835098267e-01 9.144963696599006653e-03
-2.477378025650978088e-02 -3.320043981075286865e-01 1.382792554795742035e-02
1.508446177467703819e-03 -4.946089088916778564e-01 1.218983530998229980e-02
-3.729144483804702759e-02 6.774433255195617676e-01 -7.260646205395460129e-03
1.499148756265640259e-01 -3.076130449771881104e-01 -7.662999909371137619e-03
-4.589841887354850769e-02 4.073746204376220703e-01 -1.404739543795585632e-02
-7.386298477649688721e-02 6.866446137428283691e-01 -8.514280430972576141e-03
1.726156659424304962e-02 5.566793084144592285e-01 6.887755822390317917e-03
6.344448029994964600e-02 1.420386433601379395e-01 -1.304559782147407532e-02
-1.585972905158996582e-01 8.512388914823532104e-02 7.234987569972872734e-04
1.091980040073394775e-01 8.878091722726821899e-02 8.728841319680213928e-03
-8.646152168512344360e-02 3.597804307937622070e-01 -1.382127311080694199e-02
-1.137667149305343628e-01 3.229050636291503906e-01 -1.248552463948726654e-02
6.469371169805526733e-02 -2.081860005855560303e-01 1.540280785411596298e-02
3.755797445774078369e-02 -6.653955578804016113e-01 -8.761273697018623352e-03
-3.907459601759910583e-02 -2.651984244585037231e-02 1.608977094292640686e-02
-1.492464691400527954e-01 -3.103064373135566711e-04 -9.575237054377794266e-04
6.128886342048645020e-02 3.150817751884460449e-01 -9.757203049957752228e-03
-1.176357455551624298e-02 5.316770672798156738e-01 -1.066608261317014694e-02
6.744484603404998779e-02 3.788317739963531494e-01 -6.305800285190343857e-03
9.698555618524551392e-02 -2.933826148509979248e-01 -1.338496617972850800e-02
-3.137082979083061218e-02 -2.713988423347473145e-01 1.435863133519887924e-02
-5.937734246253967285e-02 -5.001677274703979492e-01 3.241997677832841873e-03
-4.956077411770820618e-02 1.239466145634651184e-01 1.603328064084053040e-02
-6.972447037696838379e-02 5.780724883079528809e-01 1.154260616749525070e-02
1.051248759031295776e-01 -2.029622793197631836e-01 1.301721762865781784e-02
7.112101465463638306e-02 -4.395982027053833008e-01 -1.359532307833433151e-02
-1.343929171562194824e-01 1.373510062694549561e-01 -9.548575617372989655e-03
1.189014315605163574e-01 -5.612763762474060059e-01 1.068049576133489609e-02
1.299986392259597778e-01 2.547359466552734375e-02 -5.724702961742877960e-03
1.228156387805938721e-01 -6.851041913032531738e-01 -7.623173296451568604e-03
1.047670990228652954e-01 -6.869399547576904297e-01 9.103390388190746307e-03
-7.381713390350341797e-02 -3.568936288356781006e-01 -7.688506972044706345e-03
6.549629848450422287e-03 -1.370783746242523193e-01 -1.607664488255977631e-02
-4.483940824866294861e-02 4.568655788898468018e-01 1.355513650923967361e-02
9.093429893255233765e-02 -1.387485861778259277e-01 -1.353397034108638763e-02
-5.406879633665084839e-02 -3.892161548137664795e-01 1.010539289563894272e-02
1.344578862190246582e-01 -6.524330973625183105e-01 -7.389375939965248108e-03
3.476919978857040405e-02 2.934597134590148926e-01 1.300031598657369614e-02
5.300739780068397522e-02 -2.819286286830902100e-01 -1.513265632092952728e-02
-1.495822146534919739e-02 -4.652674198150634766e-01 -1.126586645841598511e-02
3.127688542008399963e-02 5.461604595184326172e-01 4.677904769778251648e-03
-7.857771962881088257e-02 -7.794181257486343384e-02 1.363652478903532028e-02
-4.643267765641212463e-02 -6.918369233608245850e-02 1.561264693737030029e-02
1.370189189910888672e-01 -7.264197468757629395e-01 5.440030246973037720e-03
1.081964597105979919e-01 -7.373809218406677246e-01 7.437467109411954880e-03
3.969417512416839600e-02 2.336243093013763428e-01 -1.345606427639722824e-02
1.102525815367698669e-01 1.209497675299644470e-01 -7.400824688374996185e-03
5.543204396963119507e-02 4.346382617950439453e-01 -6.056956481188535690e-03
9.460840374231338501e-02 9.119689464569091797e-02 -1.069449912756681442e-02
-8.158423751592636108e-02 -3.992371261119842529e-01 3.862040815874934196e-03
-1.547250896692276001e-02 -5.806483626365661621e-01 -7.416073698550462723e-03
5.063862726092338562e-02 5.045369863510131836e-01 7.084915414452552795e-04
-1.125478073954582214e-01 2.217959165573120117e-01 -1.254860684275627136e-02
1.585605144500732422e-01 -2.853288650512695312e-01 5.721851252019405365e-03
9.469734132289886475e-02 2.442966103553771973e-01 -6.272133905440568924e-03
1.565305292606353760e-01 -4.042506515979766846e-01 7.118583656847476959e-03
1.613439470529556274e-01 -2.207682132720947266e-01 -2.753166714683175087e-03
4.541396722197532654e-02 -3.987920582294464111e-01 1.476575993001461029e-02
1.355212777853012085e-01 -2.042666673660278320e-01 -9.247373789548873901e-03
2.789521217346191406e-02 -7.207904458045959473e-01 -5.435831844806671143e-03
3.450270742177963257e-02 -3.198292553424835205e-01 1.549859810620546341e-02
3.863665834069252014e-02 -5.442507266998291016e-01 -1.203486230224370956e-02
5.108090490102767944e-02 -7.262235283851623535e-01 -7.044638041406869888e-03
4.721099883317947388e-02 4.487260580062866211e-01 7.119380403310060501e-03
5.491536483168601990e-02 -5.619629621505737305e-01 -1.193950045853853226e-02
1.615256071090698242e-01 -6.493899226188659668e-01 2.940195146948099136e-03
-1.965696923434734344e-02 -3.646104633808135986e-01 1.357582304626703262e-02
4.484909772872924805e-02 -2.751097083091735840e-01 1.571108959615230560e-02
-3.170005977153778076e-02 -4.553121030330657959e-01 1.066065113991498947e-02
7.405180949717760086e-03 -6.390560865402221680e-01 -7.493703160434961319e-03
-8.891576528549194336e-02 7.963839769363403320e-01 -2.677170094102621078e-03
-8.589665591716766357e-02 -4.552564397454261780e-02 -1.294062286615371704e-02
-5.684430897235870361e-02 -1.256955862045288086e-01 1.463339664041996002e-02
-6.691993772983551025e-02 1.034784615039825439e-01 1.544574089348316193e-02
5.869134888052940369e-02 -5.437968373298645020e-01 -1.229318883270025253e-02
-4.652338102459907532e-02 3.238501548767089844e-01 1.515606045722961426e-02
-2.853507734835147858e-02 -4.625068306922912598e-01 1.076384540647268295e-02
-5.224455147981643677e-02 1.905676126480102539e-01 -1.553576253354549408e-02
1.822602003812789917e-02 -5.259076952934265137e-01 -1.175755169242620468e-02
3.866897895932197571e-02 1.156409457325935364e-01 -1.488891523331403732e-02
-7.261369377374649048e-02 -3.088858723640441895e-01 1.002029888331890106e-02
-6.277609616518020630e-02 7.704873681068420410e-01 -3.489843569695949554e-03
5.242074280977249146e-02 -1.369168758392333984e-01 -1.548127084970474243e-02
1.000026836991310120e-01 2.365600690245628357e-02 -1.116814650595188141e-02
6.889636814594268799e-02 -6.205460429191589355e-01 -1.078832708299160004e-02
-1.532280296087265015e-01 8.622995764017105103e-02 -4.244742449373006821e-03
-8.399981260299682617e-02 7.320022583007812500e-01 -6.881434004753828049e-03
1.167753487825393677e-01 -7.152791023254394531e-01 7.701310794800519943e-03
1.039234455674886703e-03 2.861064076423645020e-01 1.485028490424156189e-02
-4.463439434766769409e-02 6.345217823982238770e-01 9.492138400673866272e-03
-3.418638184666633606e-02 9.087982028722763062e-02 -1.602573320269584656e-02
8.304452523589134216e-03 -3.079968094825744629e-01 1.535769645124673843e-02
1.308681368827819824e-01 -4.948636293411254883e-01 -9.963341988623142242e-03
-9.179832786321640015e-02 6.979936957359313965e-01 8.315647020936012268e-03
3.341692313551902771e-02 -1.229554787278175354e-01 1.631053723394870758e-02
1.687406096607446671e-03 -1.215211227536201477e-01 1.649816334247589111e-02
2.156822197139263153e-02 -3.535904586315155029e-01 -1.463431864976882935e-02
1.159510761499404907e-02 1.402836143970489502e-01 1.593329757452011108e-02
-1.643997430801391602e-01 6.050431728363037109e-01 4.081489983946084976e-03
7.942384481430053711e-02 -4.019674062728881836e-01 1.414330024272203445e-02
1.623098552227020264e-01 -4.463485777378082275e-01 5.817588884383440018e-03
-9.878627210855484009e-02 -3.317823112010955811e-01 -8.613002719357609749e-04
1.102587133646011353e-01 -7.310128808021545410e-01 -7.020155433565378189e-03
9.877048432826995850e-04 1.650257110595703125e-01 -1.573042944073677063e-02
-1.004649624228477478e-01 2.348905801773071289e-01 1.381029468029737473e-02
-5.632324144244194031e-02 -4.653041660785675049e-01 -6.180960685014724731e-03
1.058492511510848999e-01 -2.275704443454742432e-01 -1.271541137248277664e-02
-1.414255499839782715e-01 5.916327238082885742e-01 -7.960746996104717255e-03
-7.389570772647857666e-02 -6.222813203930854797e-02 -1.370176021009683609e-02
1.125818863511085510e-02 -4.356074035167694092e-01 1.376585755497217178e-02
-8.020276203751564026e-03 -5.568619370460510254e-01 9.772202000021934509e-03
1.154748871922492981e-01 -6.212180480360984802e-02 1.069722417742013931e-02
-6.742697209119796753e-02 6.127621233463287354e-02 1.531385444104671478e-02
7.980800420045852661e-02 1.352835297584533691e-01 1.183093804866075516e-02
-1.433899700641632080e-01 3.280599415302276611e-01 9.897078387439250946e-03
-1.294182427227497101e-02 2.733145356178283691e-01 1.536068879067897797e-02
4.762498289346694946e-02 -7.069844603538513184e-01 8.293245919048786163e-03
7.103537023067474365e-02 3.543978631496429443e-01 -6.708426866680383682e-03
-6.111691147089004517e-02 5.492888689041137695e-01 -1.191685814410448074e-02
1.250643134117126465e-01 -2.722696661949157715e-01 1.136455871164798737e-02
1.248784884810447693e-01 -6.560440659523010254e-01 -8.162022568285465240e-03
7.407142221927642822e-02 -1.122739613056182861e-01 1.481017377227544785e-02
7.470844686031341553e-02 2.422166466712951660e-01 -9.958232752978801727e-03
6.151631474494934082e-02 -1.462503969669342041e-01 -1.516423653811216354e-02
4.428369551897048950e-02 1.953786313533782959e-01 -1.369887776672840118e-02
-7.507184147834777832e-02 -1.808921694755554199e-01 -1.202522311359643936e-02
-2.035748213529586792e-02 6.550037860870361328e-01 -6.769270170480012894e-03
-2.905208058655261993e-02 -3.753747940063476562e-01 1.278859190642833710e-02
-5.551787093281745911e-02 -3.655077219009399414e-01 -1.005084626376628876e-02
1.886637415736913681e-03 2.277614772319793701e-01 -1.521775592118501663e-02
-1.241431534290313721e-01 1.390758529305458069e-02 9.793041273951530457e-03
-9.503196179866790771e-02 -3.527068495750427246e-01 -1.143398985732346773e-04
-3.760537132620811462e-02 -4.161808267235755920e-02 -1.567384600639343262e-02
5.644993856549263000e-02 -7.656434774398803711e-01 -5.278401076793670654e-03
-1.736679300665855408e-02 -8.038131892681121826e-02 1.641073264181613922e-02
-5.845406278967857361e-02 7.351536750793457031e-01 -5.794960074126720428e-03
8.603236079216003418e-02 -4.176447987556457520e-01 1.379194483160972595e-02
6.912521272897720337e-02 -1.854561865329742432e-01 -1.487528812140226364e-02
1.231352984905242920e-02 4.687982499599456787e-01 1.076627522706985474e-02
-7.697647809982299805e-02 -4.115311801433563232e-01 -4.025937523692846298e-03
9.782624244689941406e-02 1.324019394814968109e-03 1.196925435215234756e-02
-1.246156319975852966e-01 5.631750226020812988e-01 -9.880334138870239258e-03
-7.508891820907592773e-02 5.503722429275512695e-01 -1.188945956528186798e-02
-1.133492887020111084e-01 1.388614773750305176e-01 1.250181905925273895e-02
-8.954680711030960083e-02 -3.563430011272430420e-01 4.287227056920528412e-03
3.299633972346782684e-03 5.496276617050170898e-01 -8.875441737473011017e-03
-7.234456017613410950e-03 1.412548720836639404e-01 -1.598112657666206360e-02
7.359208911657333374e-02 2.624343037605285645e-01 9.722061455249786377e-03
4.184491932392120361e-02 1.638714075088500977e-01 -1.423908118158578873e-02
-6.313489377498626709e-02 -2.741046249866485596e-01 -1.143257785588502884e-02
7.944678515195846558e-02 -2.108190655708312988e-01 1.475226506590843201e-02
-1.204079762101173401e-02 -1.289426088333129883e-01 -1.588796824216842651e-02
-4.193684086203575134e-02 -2.749451994895935059e-01 1.367660518735647202e-02
-7.763867825269699097e-02 4.003103971481323242e-01 -1.379497628659009933e-02
9.518890082836151123e-02 -7.706885337829589844e-01 -5.926493555307388306e-03
-5.335287749767303467e-02 1.062764525413513184e-01 -1.558027230203151703e-02
1.346469223499298096e-01 -5.359540581703186035e-01 9.638855233788490295e-03
8.777844160795211792e-02 3.432610332965850830e-01 6.577351596206426620e-04
1.692004650831222534e-01 -4.313540756702423096e-01 3.491994226351380348e-03
-1.212024465203285217e-01 7.315478920936584473e-01 6.079054903239011765e-03
5.307327210903167725e-02 3.358815312385559082e-01 1.034240052103996277e-02
-1.052180081605911255e-01 4.784457385540008545e-01 1.230630837380886078e-02
-2.049664966762065887e-02 -1.315243691205978394e-01 -1.568018272519111633e-02
2.385379001498222351e-02 2.792059481143951416e-01 -1.373499352484941483e-02
9.567335247993469238e-02 1.803410351276397705e-01 -8.422060869634151459e-03
-3.192789107561111450e-02 2.642029523849487305e-01 1.564995385706424713e-02
1.379959881305694580e-01 -3.961902111768722534e-02 -5.629911553114652634e-03
-7.395823299884796143e-02 6.123388409614562988e-01 -1.062226016074419022e-02
1.576314866542816162e-02 -2.229911386966705322e-01 -1.569662429392337799e-02
-1.491462439298629761e-01 1.001329347491264343e-01 6.453394889831542969e-03
8.779026567935943604e-03 -5.412756204605102539e-01 -1.090902835130691528e-02
2.137113735079765320e-02 -4.692433774471282959e-01 1.351604424417018890e-02
6.515517830848693848e-02 2.975399196147918701e-01 -9.744172915816307068e-03
-5.665421858429908752e-02 -4.235859811305999756e-01 -8.001216687262058258e-03
1.473118513822555542e-01 -7.530559897422790527e-01 9.769628522917628288e-04
-1.128957420587539673e-01 1.920278370380401611e-01 -1.242183614522218704e-02
-9.127759188413619995e-02 -2.775208950042724609e-01 7.964988239109516144e-03
-1.306220516562461853e-02 6.582652926445007324e-01 5.707215517759323120e-03
-1.410313509404659271e-02 -6.171299815177917480e-01 6.334771402180194855e-03
9.039849787950515747e-02 -3.456546664237976074e-01 -1.360300090163946152e-02
4.065693169832229614e-02 1.183177605271339417e-01 1.501934882253408432e-02
-1.235974207520484924e-01 3.524012565612792969e-01 1.196907181292772293e-02
-6.848579645156860352e-02 -1.915115676820278168e-02 1.484733913093805313e-02
1.483627706766128540e-01 -4.163042306900024414e-01 -8.220933377742767334e-03
-3.824146091938018799e-02 3.898004591464996338e-01 -1.421049889177083969e-02
-5.745364725589752197e-02 -5.082961320877075195e-01 -2.550065284594893456e-03
-3.010091744363307953e-02 4.800423383712768555e-01 1.284272596240043640e-02
-7.405135780572891235e-02 3.115703165531158447e-01 -1.451323367655277252e-02
-2.319547720253467560e-02 -5.748621821403503418e-01 -6.567609496414661407e-03
1.392839401960372925e-01 -2.860356308519840240e-02 -4.798682406544685364e-03
-6.390966475009918213e-02 -2.950722873210906982e-01 -1.088949106633663177e-02
-6.770630180835723877e-02 9.823685139417648315e-02 1.540216244757175446e-02
-1.871708407998085022e-02 2.082497477531433105e-01 1.597968302667140961e-02
-3.379376977682113647e-02 -4.740112721920013428e-01 9.865482337772846222e-03
2.385021746158599854e-02 5.622749328613281250e-01 -5.225954577326774597e-03
3.529886156320571899e-02 -1.100573167204856873e-01 1.627558656036853790e-02
-1.432308107614517212e-01 5.242662429809570312e-01 8.973871357738971710e-03
-5.549158528447151184e-02 2.095601260662078857e-01 1.572385057806968689e-02
-4.467853158712387085e-02 -1.199973151087760925e-01 -1.488350890576839447e-02
-9.682934731245040894e-02 7.650340199470520020e-01 -5.247216671705245972e-03
-3.727284446358680725e-02 6.481701135635375977e-01 -8.500262163579463959e-03
5.906855687499046326e-02 -3.793156743049621582e-01 -1.437358651310205460e-02
-1.611375957727432251e-01 2.878300845623016357e-01 6.560152396559715271e-03
-4.260429739952087402e-02 6.140089631080627441e-01 -9.928547777235507965e-03
4.556874185800552368e-02 -1.029131039977073669e-01 -1.566790789365768433e-02
7.540753483772277832e-02 -7.542801648378372192e-02 1.455191709101200104e-02
9.992588311433792114e-02 -3.673665523529052734e-01 -1.300613209605216980e-02
-1.223952323198318481e-01 8.022500574588775635e-02 -1.054803282022476196e-02
-1.672788858413696289e-01 2.626967728137969971e-01 4.284274298697710037e-03
1.075322851538658142e-01 -1.501251757144927979e-01 1.250840816646814346e-02
-5.267823487520217896e-02 5.662986040115356445e-01 1.161199621856212616e-02
-4.585075378417968750e-02 6.566647887229919434e-01 8.775282651185989380e-03
-1.490715146064758301e-01 4.455278813838958740e-01 8.917855098843574524e-03
-1.471590399742126465e-01 6.934658288955688477e-01 -4.578309599310159683e-03
1.222805352881550789e-03 6.052819490432739258e-01 6.742737255990505219e-03
-3.753796685487031937e-03 -2.510281503200531006e-01 -1.517935749143362045e-02
5.241185426712036133e-02 -2.501173913478851318e-01 1.568081416189670563e-02
-1.441894322633743286e-01 1.058406010270118713e-01 -7.323454599827528000e-03
-3.771216422319412231e-02 -2.558393478393554688e-01 1.421783771365880966e-02
1.437775790691375732e-05 -7.505997270345687866e-02 1.660903543233871460e-02
4.085201397538185120e-02 2.812619879841804504e-02 1.570114307105541229e-02
9.666839987039566040e-02 -7.633082270622253418e-01 6.805653218179941177e-03
-6.025057286024093628e-02 -4.890442490577697754e-01 -3.458571853116154671e-03
-1.452890187501907349e-01 7.310249209403991699e-01 3.156580729410052299e-03
-6.152666639536619186e-03 4.397984445095062256e-01 -1.252074539661407471e-02
1.009160354733467102e-01 -1.138698384165763855e-01 1.286499109119176865e-02
-2.335460670292377472e-02 -2.176412045955657959e-01 1.534296572208404541e-02
3.111361898481845856e-02 1.412058472633361816e-01 -1.500021759420633316e-02
-1.210128292441368103e-01 3.506912887096405029e-01 -1.186596695333719254e-02
-7.201008498668670654e-02 -3.374015986919403076e-01 -8.682054467499256134e-03
-8.670392446219921112e-03 4.445380866527557373e-01 1.270859502255916595e-02
5.772864073514938354e-02 -9.120638668537139893e-02 -1.521937362849712372e-02
-1.163052394986152649e-01 7.333319187164306641e-01 -6.147330626845359802e-03
-1.597496420145034790e-01 4.572477638721466064e-01 7.176332641392946243e-03
-9.673602879047393799e-02 4.839543104171752930e-01 -1.235955767333507538e-02
3.121533431112766266e-02 -5.567967891693115234e-01 -1.155727449804544449e-02
-7.950396835803985596e-02 -4.148882031440734863e-01 3.212754847481846809e-03
7.506305724382400513e-02 3.393484055995941162e-01 -6.527966354042291641e-03
5.489680171012878418e-02 -2.221259772777557373e-01 -1.531674806028604507e-02
5.249715596437454224e-02 -5.368986129760742188e-01 1.290242746472358704e-02
-1.251654177904129028e-01 5.874972343444824219e-01 9.681209921836853027e-03
-1.427767723798751831e-01 3.713536262512207031e-01 -9.637586772441864014e-03
-3.638695459812879562e-03 -6.685582548379898071e-02 1.660738699138164520e-02
8.779872953891754150e-02 1.477412581443786621e-01 1.063199993222951889e-02
-8.229363709688186646e-02 -1.893235743045806885e-01 1.162472460418939590e-02
-7.588654756546020508e-02 9.932158142328262329e-02 1.501678116619586945e-02
1.313038021326065063e-01 -6.626224517822265625e-02 8.179472759366035461e-03
-3.603269159793853760e-02 2.174166738986968994e-01 1.594966277480125427e-02
-2.365047484636306763e-02 -6.193543076515197754e-01 -3.325274679809808731e-03
1.053621321916580200e-01 1.585145294666290283e-01 -7.201089523732662201e-03
1.360051035881042480e-01 -1.613616049289703369e-01 8.941212669014930725e-03
-1.614431291818618774e-02 6.189845800399780273e-01 -8.030976168811321259e-03
1.294488161802291870e-01 -5.269541740417480469e-01 1.023044437170028687e-02
1.564377099275588989e-01 -3.172822892665863037e-01 -6.352757569402456284e-03
2.891091071069240570e-02 -4.836516678333282471e-01 1.346433721482753754e-02
1.331236511468887329e-01 -4.262166917324066162e-01 -1.014758553355932236e-02
-1.131383329629898071e-01 6.323141455650329590e-01 -9.309310466051101685e-03
8.378602564334869385e-03 -2.764585614204406738e-01 -1.520216371864080429e-02
-1.395260840654373169e-01 1.532873809337615967e-01 -8.931796066462993622e-03
1.051431968808174133e-01 2.262605726718902588e-01 4.071940667927265167e-03
6.802179664373397827e-02 3.172241747379302979e-01 8.861479349434375763e-03
7.277579605579376221e-02 -8.106921315193176270e-01 -2.827831078320741653e-03
-1.078167557716369629e-01 1.230156347155570984e-01 1.291747018694877625e-02
3.972987830638885498e-02 4.857784807682037354e-01 -6.569117773324251175e-03
-2.449126541614532471e-02 6.434846520423889160e-01 -7.734073791652917862e-03
-5.885899811983108521e-02 -4.930283427238464355e-01 4.221813753247261047e-03
-2.946502715349197388e-02 -3.693657815456390381e-01 -1.234540529549121857e-02
1.216086596250534058e-01 -4.293602705001831055e-01 1.161280926316976547e-02
1.456091850996017456e-01 -3.857061862945556641e-01 9.009952656924724579e-03
-4.808898642659187317e-02 3.372096419334411621e-01 -1.478153839707374573e-02
-1.164258420467376709e-01 6.607177853584289551e-01 8.659841492772102356e-03
-9.608902782201766968e-02 -4.742462188005447388e-02 -1.196230109781026840e-02
4.015193134546279907e-02 1.102312654256820679e-02 -1.552521251142024994e-02
5.558556690812110901e-02 -5.502630472183227539e-01 -1.216454338282346725e-02
5.644391477108001709e-02 -1.414392292499542236e-01 -1.534884050488471985e-02
2.980838902294635773e-02 9.979618340730667114e-02 -1.538151036947965622e-02
-6.785293668508529663e-02 6.857362389564514160e-02 1.531804166734218597e-02
-1.059745922684669495e-01 -2.442595064640045166e-01 5.869324784725904465e-03
1.159569993615150452e-01 6.039746850728988647e-02 -8.003829978406429291e-03
3.759719431400299072e-02 -5.127127170562744141e-01 1.314060389995574951e-02
8.336494863033294678e-02 -6.746211647987365723e-01 9.955602698028087616e-03
-9.097962640225887299e-03 -4.476826190948486328e-01 -1.206077449023723602e-02
-1.569852530956268311e-01 9.375900775194168091e-02 3.256169380620121956e-03
8.941408246755599976e-02 -2.907480001449584961e-01 -1.382161397486925125e-02
-2.914338745176792145e-02 5.828514099121093750e-01 -1.021846383810043335e-02
-3.871057927608489990e-02 -3.162592351436614990e-01 -1.269425079226493835e-02
1.538303494453430176e-01 -1.036970764398574829e-01 5.214488191995769739e-05
-1.596021354198455811e-01 4.019873738288879395e-01 7.372608873993158340e-03
4.885052144527435303e-02 1.927612721920013428e-01 1.363676320761442184e-02
-3.584030643105506897e-02 -6.643725931644439697e-02 -1.560636982321739197e-02
6.303109973669052124e-02 -8.299248665571212769e-02 -1.495947130024433136e-02
-1.197292283177375793e-01 6.978759765625000000e-01 7.409652229398488998e-03
-6.250357627868652344e-02 -4.832447171211242676e-01 -3.128607058897614479e-03
-8.464051783084869385e-02 6.883100867271423340e-01 -8.533035404980182648e-03
-7.819096744060516357e-02 -2.362375259399414062e-01 1.112722791731357574e-02
1.372526884078979492e-01 -4.729951545596122742e-02 -6.088617257773876190e-03
-9.740006178617477417e-02 3.666240274906158447e-01 -1.331147085875272751e-02
7.563886791467666626e-02 -3.245893716812133789e-01 1.471739821135997772e-02
1.068952307105064392e-01 -4.975616037845611572e-01 1.214118953794240952e-02
1.194025501608848572e-01 5.651468038558959961e-02 -7.394070737063884735e-03
-4.184434562921524048e-02 6.236245855689048767e-03 -1.573117077350616455e-02
-2.233561500906944275e-02 1.004275381565093994e-01 1.646889746189117432e-02
9.972490370273590088e-02 -7.505085468292236328e-01 -6.700705271214246750e-03
1.266967952251434326e-01 -5.988811850547790527e-01 9.560065343976020813e-03
7.441353052854537964e-02 2.546958327293395996e-01 -9.666898287832736969e-03
-8.782886900007724762e-03 -6.149893403053283691e-01 -6.670621689409017563e-03
5.032579600811004639e-02 2.578586637973785400e-01 1.242710091173648834e-02
2.766085043549537659e-02 2.414274215698242188e-01 1.426981668919324875e-02
-1.018719449639320374e-01 4.092825353145599365e-01 -1.282381545752286911e-02
-7.977186888456344604e-02 3.303606808185577393e-01 -1.423071231693029404e-02
1.391455680131912231e-01 -2.353219985961914062e-01 -8.964714594185352325e-03
-2.927858941256999969e-02 4.296424984931945801e-01 1.370634976774454117e-02
-1.114500984549522400e-01 7.335036396980285645e-01 6.524967029690742493e-03
-1.888670213520526886e-02 5.202451944351196289e-01 -1.136908400803804398e-02
-6.553722172975540161e-02 -8.044381439685821533e-02 -1.408895757049322128e-02
7.203637063503265381e-02 -5.147294998168945312e-01 -1.266917120665311813e-02
2.716625668108463287e-02 4.989983141422271729e-01 -8.009017445147037506e-03
-2.175328880548477173e-02 7.121922373771667480e-01 2.445761812850832939e-03
-1.033456549048423767e-01 6.594035625457763672e-01 9.228640235960483551e-03
-1.331522017717361450e-01 1.857270300388336182e-01 -1.019568089395761490e-02
-3.703486640006303787e-03 2.414278686046600342e-01 -1.522900629788637161e-02
2.684982120990753174e-02 -9.053572267293930054e-02 -1.607597619295120239e-02
2.158428542315959930e-02 -2.723816037178039551e-01 1.582818850874900818e-02
-1.448849216103553772e-04 -7.016916871070861816e-01 -3.373224462848156691e-04
4.294997826218605042e-02 1.933001577854156494e-01 1.402665302157402039e-02
-1.175489574670791626e-01 5.611938834190368652e-01 -1.036582421511411667e-02
-2.978616207838058472e-02 6.062144637107849121e-01 -9.530132636427879333e-03
-7.191848009824752808e-02 7.818964123725891113e-01 3.303268225863575935e-03
1.318483948707580566e-01 -1.420142650604248047e-01 9.378023445606231689e-03
-1.698715686798095703e-01 4.200341999530792236e-01 -4.553303588181734085e-03
-8.896236121654510498e-02 4.146463572978973389e-01 -1.332934014499187469e-02
2.341758459806442261e-02 -7.136615514755249023e-01 5.967828445136547089e-03
7.203579414635896683e-03 1.442435383796691895e-01 1.601276732981204987e-02
8.302984759211540222e-03 3.421898186206817627e-01 1.375584583729505539e-02
7.415271550416946411e-02 3.981986343860626221e-01 2.653940580785274506e-03
-1.731653362512588501e-01 3.055395781993865967e-01 -1.680803601630032063e-03
-1.043598502874374390e-01 -2.039510011672973633e-01 7.938226684927940369e-03
-1.253542751073837280e-01 3.173514083027839661e-02 -9.440874680876731873e-03
-1.323573738336563110e-01 1.688244342803955078e-01 -1.015862636268138885e-02
7.723391801118850708e-02 -2.916592657566070557e-01 -1.438400056213140488e-02
1.258539408445358276e-01 -3.300094902515411377e-01 1.141228433698415756e-02
-1.030613854527473450e-01 6.371842026710510254e-01 -9.608377702534198761e-03
5.836243554949760437e-02 1.796297430992126465e-01 1.310984045267105103e-02
-3.932990506291389465e-02 6.688074469566345215e-01 7.897456176578998566e-03
-1.396224796772003174e-01 7.338218390941619873e-03 -5.998566281050443649e-03
-1.097658053040504456e-01 -1.991437375545501709e-01 -6.351773161441087723e-03
-8.182495087385177612e-02 6.422140598297119141e-01 -9.875446557998657227e-03
-1.171589195728302002e-01 6.183311939239501953e-01 -9.393388405442237854e-03
-1.222052201628684998e-01 6.817129254341125488e-01 7.754130288958549500e-03
9.843318164348602295e-02 -6.579836606979370117e-01 1.003424450755119324e-02
5.628016218543052673e-02 -7.350111007690429688e-02 1.554391067475080490e-02
-1.815314590930938721e-02 -5.792122483253479004e-01 7.725181058049201965e-03
3.485582396388053894e-02 5.134472995996475220e-02 1.579121686518192291e-02
-5.547840148210525513e-02 -7.223814725875854492e-02 -1.474201027303934097e-02
-7.553626596927642822e-02 1.200853362679481506e-01 1.508512813597917557e-02
-1.427873037755489349e-02 5.773071050643920898e-01 9.556683711707592010e-03
-1.477227658033370972e-01 6.152899861335754395e-01 6.992704235017299652e-03
3.292534127831459045e-02 6.361900269985198975e-02 1.578526198863983154e-02
-4.701994359493255615e-02 1.193283572793006897e-01 1.609726995229721069e-02
-3.077791817486286163e-02 -2.810734510421752930e-01 -1.376183796674013138e-02
1.114824637770652771e-01 -3.706629276275634766e-01 -1.224376354366540909e-02
-1.249589025974273682e-02 2.681091427803039551e-01 -1.516210194677114487e-02
-1.488364934921264648e-01 6.989205479621887207e-01 -4.037802107632160187e-03
-4.649478010833263397e-03 5.715814232826232910e-01 8.937408216297626495e-03
-9.792641550302505493e-02 7.751888036727905273e-01 -4.607488401234149933e-03
-1.713564842939376831e-01 4.318904578685760498e-01 -4.056537523865699768e-03
-8.102230727672576904e-02 -2.505105435848236084e-01 1.043467223644256592e-02
-6.251371651887893677e-02 -5.119448900222778320e-02 -1.452622562646865845e-02
-1.107785627245903015e-01 -9.389747679233551025e-02 9.792643599212169647e-03
1.055451333522796631e-01 2.735163271427154541e-02 -1.040416583418846130e-02
-1.713083088397979736e-01 4.610528647899627686e-01 4.318607971072196960e-03
1.359657496213912964e-01 2.539066225290298462e-02 -3.477152902632951736e-03
1.534035615622997284e-02 2.019396722316741943e-01 1.528949290513992310e-02
1.064629033207893372e-01 -4.486989676952362061e-01 -1.215233374387025833e-02
-2.171535417437553406e-02 -2.403327226638793945e-01 1.517497003078460693e-02
-1.342268437147140503e-01 4.728007912635803223e-01 -1.011012122035026550e-02
-1.010300517082214355e-01 4.216870665550231934e-01 -1.277268771082162857e-02
4.312385618686676025e-02 -1.899165213108062744e-01 1.604123413562774658e-02
1.327976882457733154e-01 -1.978915333747863770e-01 -9.597801603376865387e-03
-1.736552268266677856e-01 3.672069609165191650e-01 3.116697771474719048e-03
8.917632699012756348e-02 -6.546671390533447266e-01 1.035572029650211334e-02
-2.293201535940170288e-02 2.504991292953491211e-01 1.570547558367252350e-02
1.487432867288589478e-01 -1.142460778355598450e-01 4.812027327716350555e-03
1.661350578069686890e-01 -3.737693727016448975e-01 -4.018030595034360886e-03
3.361955750733613968e-04 5.667803287506103516e-01 8.625052869319915771e-03
8.573882281780242920e-02 -6.567494273185729980e-01 -9.835503995418548584e-03
2.820026129484176636e-02 5.775227546691894531e-01 2.376223448663949966e-03
-1.332064121961593628e-01 4.418740868568420410e-01 -1.042207423597574234e-02
-1.082519143819808960e-01 3.074155151844024658e-01 -1.290157344192266464e-02
-5.011233314871788025e-02 7.508958578109741211e-01 -3.843153826892375946e-03
6.008448079228401184e-02 -1.197092011570930481e-01 -1.518557686358690262e-02
1.568412780761718750e-01 -4.800326824188232422e-01 -6.559159606695175171e-03
-2.035077475011348724e-02 2.239785790443420410e-01 1.588405482470989227e-02
4.313228651881217957e-02 1.639815866947174072e-01 1.439128629863262177e-02
-5.590321496129035950e-02 7.461152672767639160e-01 -4.877963103353977203e-03
-1.214492097496986389e-01 -9.153140708804130554e-04 -9.484015405178070068e-03
-6.055143475532531738e-02 -1.084949746727943420e-01 1.457958575338125229e-02
-7.665248215198516846e-02 -3.440056443214416504e-01 -7.672447245568037033e-03
9.380252659320831299e-02 -8.088511228561401367e-01 -3.636292181909084320e-03
1.513876616954803467e-01 -6.264067888259887695e-01 6.148818880319595337e-03
7.319493591785430908e-02 -5.051124691963195801e-01 1.326644886285066605e-02
1.170120909810066223e-01 -1.997452974319458008e-01 1.187533605843782425e-02
7.505686581134796143e-02 -3.263526856899261475e-01 -1.432704646140336990e-02
6.956276018172502518e-03 6.049512624740600586e-01 -5.764438770711421967e-03
1.734220422804355621e-02 -6.937148571014404297e-01 6.438082084059715271e-03
-1.081353425979614258e-01 -5.598622560501098633e-02 1.090310420840978622e-02
3.590781614184379578e-02 -7.303613424301147461e-01 -5.710585042834281921e-03
-3.087264485657215118e-02 6.909958124160766602e-01 -5.929449107497930527e-03
5.277523770928382874e-02 -3.487389087677001953e-01 -1.470991224050521851e-02
1.263927519321441650e-01 -2.185277938842773438e-01 -1.062078494578599930e-02
-6.721591204404830933e-02 -4.756430983543395996e-01 2.110951580107212067e-03
-1.435192823410034180e-01 2.751580178737640381e-01 -9.351362474262714386e-03
-9.821993857622146606e-02 -7.002940773963928223e-02 1.188375987112522125e-02
3.677299246191978455e-02 1.628544330596923828e-01 1.475842576473951340e-02
4.284766688942909241e-02 -3.241048455238342285e-01 1.543106511235237122e-02
-6.460724025964736938e-02 -2.846528403460979462e-02 1.500261854380369186e-02
-1.081585213541984558e-01 -1.256952881813049316e-01 9.485036134719848633e-03
-3.181352093815803528e-02 3.259365856647491455e-01 1.509684603661298752e-02
1.087026000022888184e-01 -6.795274019241333008e-01 9.118727408349514008e-03
1.478473544120788574e-01 -2.845663428306579590e-01 -7.879447191953659058e-03
-8.605343103408813477e-02 1.300762295722961426e-01 1.454253122210502625e-02
-9.848768264055252075e-02 1.489005982875823975e-01 1.378978881984949112e-02
-5.055862665176391602e-02 -1.940711140632629395e-01 -1.377065945416688919e-02
4.765200242400169373e-02 -4.728339612483978271e-01 1.387531030923128128e-02
2.577757090330123901e-02 5.696480870246887207e-01 -4.152427893131971359e-03
3.968383744359016418e-02 -2.915375530719757080e-01 1.567438617348670959e-02
-1.756329461932182312e-02 6.047126650810241699e-01 -8.726386353373527527e-03
-1.078979447484016418e-01 3.621123135089874268e-01 -1.275771483778953552e-02
-9.895525872707366943e-03 -6.276893019676208496e-01 6.413681432604789734e-03
6.948815286159515381e-02 1.311863362789154053e-01 1.290796417742967606e-02
-1.226439327001571655e-01 3.855838775634765625e-01 1.192822121083736420e-02
1.118023134768009186e-02 -7.197214365005493164e-01 3.093842649832367897e-03
5.825072526931762695e-02 3.414225280284881592e-01 9.514803066849708557e-03
1.058409437537193298e-01 -7.138019800186157227e-01 -7.771305274218320847e-03
6.651833653450012207e-02 1.036709323525428772e-01 1.353813149034976959e-02
-1.624275743961334229e-01 4.228133857250213623e-01 -6.444648839533329010e-03
-8.489208668470382690e-02 1.383740641176700592e-02 1.401695050299167633e-02
5.721548572182655334e-02 -1.045944988727569580e-01 -1.527135819196701050e-02
-2.900875918567180634e-02 -1.714374423027038574e-01 -1.510396599769592285e-02
4.979479592293500900e-03 -4.676487445831298828e-01 1.293847337365150452e-02
9.407456219196319580e-02 -3.654879927635192871e-01 -1.333180628716945648e-02
1.630716174840927124e-01 -5.860411524772644043e-01 -3.910285420715808868e-03
-2.792038954794406891e-02 6.535083651542663574e-01 -7.587011437863111496e-03
1.090563759207725525e-01 -8.006611466407775879e-01 4.330599214881658554e-03
-2.311475761234760284e-02 -4.224741458892822266e-01 -1.167598087340593338e-02
6.204284727573394775e-02 1.313154995441436768e-01 1.352230086922645569e-02
-8.727425336837768555e-02 -5.493235588073730469e-02 1.317006349563598633e-02
9.233588725328445435e-02 -4.741559177637100220e-02 1.306890137493610382e-02
-2.684205584228038788e-02 6.107498705387115479e-02 1.648755185306072235e-02
-1.003406792879104614e-01 -2.515604496002197266e-01 -6.466899067163467407e-03
-1.099349632859230042e-01 6.188601851463317871e-01 9.935362264513969421e-03
-1.178403273224830627e-01 8.043743669986724854e-02 1.154718641191720963e-02
-8.933797478675842285e-02 4.026328027248382568e-01 1.367879938334226608e-02
5.700346454977989197e-02 -4.938852488994598389e-01 1.358370017260313034e-02
-1.068615019321441650e-01 -2.042412757873535156e-01 -6.843773182481527328e-03
-2.372549474239349365e-02 6.142866611480712891e-01 8.953868411481380463e-03
1.243047192692756653e-01 -3.479436337947845459e-01 1.157291140407323837e-02
-4.927045479416847229e-02 1.587077677249908447e-01 -1.566595956683158875e-02
3.807747736573219299e-02 -5.747381448745727539e-01 1.191011350601911545e-02
-7.022989541292190552e-02 1.728145778179168701e-01 -1.501121651381254196e-02
-2.988935448229312897e-02 -3.864001929759979248e-01 -1.196421310305595398e-02
7.787518948316574097e-02 4.266076534986495972e-02 -1.312173902988433838e-02
-8.810518682003021240e-02 1.792041957378387451e-01 -1.415959466248750687e-02
2.776601165533065796e-02 3.139920830726623535e-01 1.311567891389131546e-02
-3.531474247574806213e-02 -5.963149666786193848e-01 -1.151999807916581631e-03
-1.314393728971481323e-01 3.424285948276519775e-01 1.126905530691146851e-02
6.292361766099929810e-02 -3.453568816184997559e-01 -1.456014066934585571e-02
-7.121843844652175903e-02 -3.286561965942382812e-01 9.637201204895973206e-03
-4.897573217749595642e-02 6.479182243347167969e-01 -9.116503410041332245e-03
2.101541683077812195e-02 3.139536082744598389e-01 1.354034617543220520e-02
1.196436583995819092e-01 3.979071602225303650e-02 -7.809450384229421616e-03
-6.309890002012252808e-02 -7.719155400991439819e-02 1.471390668302774429e-02
-1.142567992210388184e-01 3.467040657997131348e-01 -1.239186897873878479e-02
-9.069914370775222778e-02 -8.632283657789230347e-02 1.244530547410249710e-02
9.376944974064826965e-03 -5.923514440655708313e-02 -1.626043021678924561e-02
-7.104420661926269531e-02 -3.959785401821136475e-01 -6.554022431373596191e-03
5.987794604152441025e-03 -6.015584468841552734e-01 9.460102766752243042e-03
-4.769304394721984863e-02 -5.555583834648132324e-01 -2.377911296207457781e-04
7.299429923295974731e-02 -1.423630714416503906e-01 -1.464225072413682938e-02
-1.481129080057144165e-01 6.535744294524192810e-03 -2.669175621122121811e-03
3.232826292514801025e-02 6.603576987981796265e-02 -1.551065966486930847e-02
9.256044775247573853e-02 7.439385354518890381e-02 -1.124133076518774033e-02
1.309022307395935059e-01 -3.005723953247070312e-01 -1.045946497470140457e-02
1.322070956230163574e-01 -1.165474355220794678e-01 8.937844075262546539e-03
-4.350953176617622375e-02 -4.193693026900291443e-02 -1.546965166926383972e-02
-1.729230284690856934e-01 4.169331789016723633e-01 3.789979033172130585e-03
2.244029194116592407e-02 -6.591117382049560547e-01 -8.013533428311347961e-03
-1.660118252038955688e-01 4.413796365261077881e-01 5.920576397329568863e-03
6.750610470771789551e-02 2.350448071956634521e-01 1.118688285350799561e-02
-1.346218734979629517e-01 -6.476617604494094849e-02 -4.833946935832500458e-03
-8.677119016647338867e-02 4.478411078453063965e-01 1.333112735301256180e-02
-9.459463506937026978e-02 2.406750619411468506e-01 1.416216511279344559e-02
5.177135113626718521e-03 -5.234666466712951660e-01 -1.115301623940467834e-02
-1.060828790068626404e-01 7.872480899095535278e-02 1.276586297899484634e-02
3.363695368170738220e-02 4.396412894129753113e-02 -1.558923348784446716e-02
-1.479811519384384155e-01 6.296061873435974121e-01 6.635579746216535568e-03
-2.024671435356140137e-02 1.769837737083435059e-01 1.617666333913803101e-02
4.211639240384101868e-02 8.962263166904449463e-02 -1.494638156145811081e-02
-1.226162761449813843e-01 -1.623552143573760986e-01 -4.182684235274791718e-03
8.045127987861633301e-02 -7.483159303665161133e-01 7.553434930741786957e-03
1.337283998727798462e-01 -6.782909035682678223e-01 7.337996270507574081e-03
-1.408770866692066193e-02 -3.463438153266906738e-01 1.415192242711782455e-02
-5.336961150169372559e-02 4.638476073741912842e-01 -1.332064811140298843e-02
-1.361798122525215149e-02 -1.231176480650901794e-01 -1.588805392384529114e-02
-3.901927173137664795e-02 5.810245275497436523e-01 1.085048820823431015e-02
6.372977793216705322e-02 -4.205509424209594727e-01 1.437722798436880112e-02
4.310714453458786011e-02 -3.889050483703613281e-01 1.487082708626985550e-02
9.733868762850761414e-03 6.360859274864196777e-01 -1.951236044988036156e-03
-6.265039090067148209e-03 -4.837247431278228760e-01 -1.141857821494340897e-02
-2.491260692477226257e-02 4.301633834838867188e-01 -1.340003591030836105e-02
-1.318110674619674683e-01 4.511476755142211914e-01 1.077983528375625610e-02
6.870451569557189941e-02 -5.940456390380859375e-01 1.187675260007381439e-02
-6.810363382101058960e-02 4.442405104637145996e-01 1.374353468418121338e-02
1.278223469853401184e-02 9.364812076091766357e-02 1.619571633636951447e-02
1.429263949394226074e-01 -3.664470613002777100e-01 9.382398799061775208e-03
3.600458800792694092e-02 -1.560597717761993408e-01 -1.586085185408592224e-02
1.433681249618530273e-01 -6.229845285415649414e-01 -6.968266330659389496e-03
-8.969544619321823120e-02 5.214715003967285156e-02 -1.352334767580032349e-02
-7.309640944004058838e-02 6.782340407371520996e-01 -8.786320686340332031e-03
-1.465651690959930420e-01 2.926861494779586792e-02 -4.570481367409229279e-03
-1.500407606363296509e-02 -8.624017238616943359e-02 1.642976514995098114e-02
-9.148519486188888550e-02 3.651072084903717041e-01 -1.358853839337825775e-02
2.794343046844005585e-02 -1.179056391119956970e-01 1.640313677489757538e-02
1.611449867486953735e-01 -1.897186338901519775e-01 -7.891443092375993729e-04
1.421832479536533356e-02 -3.362743556499481201e-02 -1.622999459505081177e-02
-8.416219055652618408e-02 2.364008128643035889e-01 1.469981949776411057e-02
7.269714027643203735e-02 -6.118929386138916016e-01 -1.097033638507127762e-02
-1.148104965686798096e-01 6.971091628074645996e-01 -7.532770745456218719e-03
-1.450296938419342041e-01 4.527106881141662598e-01 -9.090538136661052704e-03
2.831531688570976257e-02 4.469365477561950684e-01 9.872723370790481567e-03
-8.874788135290145874e-02 1.359271109104156494e-01 1.439677923917770386e-02
-5.666001141071319580e-02 -5.016816258430480957e-01 -3.605207195505499840e-03
1.605251617729663849e-02 -7.164530158042907715e-01 -3.988686483353376389e-03
1.373827308416366577e-01 -4.973396658897399902e-01 -9.277148172259330750e-03
1.501987278461456299e-01 -3.504437208175659180e-01 8.173882029950618744e-03
-1.386846452951431274e-01 5.206136703491210938e-01 9.496368467807769775e-03
-5.626645684242248535e-02 -1.648522913455963135e-01 -1.376820821315050125e-02
-3.410849347710609436e-02 -1.014710143208503723e-01 -1.545563153922557831e-02
-1.429993212223052979e-01 1.834354102611541748e-01 -8.704867213964462280e-03
-2.553591877222061157e-02 -3.212848305702209473e-01 -1.344610191881656647e-02
-1.704354584217071533e-01 5.309678316116333008e-01 -3.572723362594842911e-03
1.359318196773529053e-01 -5.215248465538024902e-01 9.645482525229454041e-03
1.279314905405044556e-01 -4.028466045856475830e-01 1.113715395331382751e-02
-1.170559898018836975e-01 1.952777057886123657e-02 -1.044479385018348694e-02
4.159463569521903992e-02 -7.609013915061950684e-01 4.849424585700035095e-03
-7.955090701580047607e-02 1.671374142169952393e-01 -1.459715422242879868e-02
-1.124422699213027954e-01 1.447570025920867920e-01 -1.222366746515035629e-02
5.839067045599222183e-03 -3.650459647178649902e-01 1.463707443326711655e-02
-1.695583015680313110e-02 -1.251625120639801025e-01 1.621999964118003845e-02
6.505205482244491577e-02 -2.221065200865268707e-02 1.484478265047073364e-02
1.159603074193000793e-01 -8.043813109397888184e-01 3.507217392325401306e-03
-1.281115859746932983e-01 2.756583094596862793e-01 1.159047335386276245e-02
8.329875022172927856e-02 -4.112734198570251465e-01 -1.350948680192232132e-02
-7.813263218849897385e-04 -4.878430813550949097e-02 -1.627858169376850128e-02
-2.284001186490058899e-02 3.044913113117218018e-01 1.521246228367090225e-02
-5.532293394207954407e-02 -4.352507293224334717e-01 8.340513333678245544e-03
-3.960620239377021790e-02 -3.421805799007415771e-01 -1.213308610022068024e-02
-1.460431218147277832e-01 1.181427612900733948e-01 7.599357515573501587e-03
