1.031540334224700928e-01 -1.305873692035675049e-01 -1.325452029705047607e-01
-4.736933708190917969e-01 -5.227426066994667053e-02 -7.426089048385620117e-02
-1.218467727303504944e-01 5.030467361211776733e-02 -1.673382818698883057e-01
-3.685309886932373047e-01 -1.141027212142944336e-01 -7.709806412458419800e-02
-3.747672140598297119e-01 -4.186488315463066101e-02 1.266458332538604736e-01
-4.211491346359252930e-01 -7.263495773077011108e-02 9.073481708765029907e-02
-5.075259804725646973e-01 6.074237078428268433e-02 -2.203288301825523376e-02
1.621151417493820190e-01 2.231609448790550232e-02 -1.713870912790298462e-01
5.058501362800598145e-01 -7.331198453903198242e-02 2.196954190731048584e-02
2.881236970424652100e-01 2.235443145036697388e-02 1.550644338130950928e-01
4.278604984283447266e-01 4.750793799757957458e-02 1.037123277783393860e-01
-1.441479921340942383e-01 -1.908462308347225189e-02 -1.750946044921875000e-01
-2.534746527671813965e-01 1.470579952001571655e-01 -5.867787078022956848e-02
3.786188960075378418e-01 -1.145607456564903259e-01 7.335685938596725464e-02
4.404062926769256592e-01 -1.158279925584793091e-01 -1.041497010737657547e-02
2.566386945545673370e-02 1.171420514583587646e-02 -1.808490157127380371e-01
1.758187077939510345e-02 9.897861629724502563e-03 1.840578466653823853e-01
-4.867135584354400635e-01 4.894869402050971985e-02 6.910127401351928711e-02
3.847347199916839600e-02 -1.861987411975860596e-01 -2.882010862231254578e-02
7.437024265527725220e-02 -5.622711032629013062e-03 -1.807210445404052734e-01
5.109823346138000488e-01 5.022565275430679321e-02 -3.275565803050994873e-02
-2.692184448242187500e-01 4.401694610714912415e-02 1.554332077503204346e-01
-4.523758888244628906e-01 -9.473587572574615479e-02 -4.232597723603248596e-02
4.654466211795806885e-01 4.886964336037635803e-02 -7.769404351711273193e-02
-2.426080256700515747e-01 7.811036705970764160e-02 -1.388621479272842407e-01
1.494625061750411987e-01 -1.547585278749465942e-01 8.916892856359481812e-02
3.707794845104217529e-01 -7.179430872201919556e-02 1.160936579108238220e-01
-6.512837857007980347e-02 -1.836649477481842041e-01 2.436622977256774902e-02
-4.253999292850494385e-01 1.118529886007308960e-01 2.703628316521644592e-02
3.576870560646057129e-01 -4.798443615436553955e-02 1.313540041446685791e-01
-4.584031552076339722e-02 -1.452903896570205688e-01 1.117391958832740784e-01
-1.037336215376853943e-01 1.407969370484352112e-02 -1.771436035633087158e-01
-2.557013332843780518e-01 -1.062635928392410278e-01 1.217257082462310791e-01
-9.817291796207427979e-02 -1.150506511330604553e-01 -1.443075537681579590e-01
-2.118914723396301270e-01 -1.718606203794479370e-01 7.271202630363404751e-04
-9.929343312978744507e-02 -1.793799549341201782e-01 3.581772372126579285e-02
3.091875910758972168e-01 -1.232124790549278259e-01 9.232112020254135132e-02
-3.293561339378356934e-01 -9.990885108709335327e-02 1.061551645398139954e-01
-1.399753242731094360e-02 -1.170983761548995972e-01 -1.471307128667831421e-01
3.087669610977172852e-01 -1.475162506103515625e-01 -5.940045416355133057e-02
3.007014095783233643e-02 1.433655321598052979e-01 1.161763891577720642e-01
-3.880162835121154785e-01 -1.263509839773178101e-01 -3.465101867914199829e-02
-1.522231549024581909e-01 -5.429159849882125854e-02 -1.686499416828155518e-01
4.057439975440502167e-03 -1.282080411911010742e-01 -1.383744925260543823e-01
2.035254836082458496e-01 -4.160771518945693970e-02 1.655958294868469238e-01
-4.044879972934722900e-01 6.042852252721786499e-02 -1.021969243884086609e-01
2.970595061779022217e-01 1.291867643594741821e-01 -7.149933278560638428e-02
2.697516977787017822e-01 5.141005665063858032e-02 1.519618928432464600e-01
4.273123443126678467e-01 -1.932681305333971977e-03 1.152290478348731995e-01
1.227048560976982117e-01 1.518811583518981934e-01 -8.218423277139663696e-02
4.059194624423980713e-01 1.155166700482368469e-01 2.962976321578025818e-02
-2.031579017639160156e-01 -1.300803199410438538e-02 1.704340130090713501e-01
-3.835813999176025391e-01 -4.644152522087097168e-02 1.218777447938919067e-01
2.466612160205841064e-01 1.390665769577026367e-01 8.518257737159729004e-02
-4.617362618446350098e-01 8.685654401779174805e-02 4.740673303604125977e-02
3.280462026596069336e-01 3.899084404110908508e-02 -1.380903422832489014e-01
-3.612677156925201416e-01 -1.361089795827865601e-01 -3.175643831491470337e-02
-4.900356829166412354e-01 4.891373217105865479e-02 -5.911114811897277832e-02
-1.382393240928649902e-01 1.408859193325042725e-01 -9.848067164421081543e-02
1.745797544717788696e-01 6.643856316804885864e-02 1.620252281427383423e-01
1.804835535585880280e-02 -4.423746094107627869e-02 1.781328767538070679e-01
-1.042255312204360962e-01 1.126444563269615173e-01 1.434840559959411621e-01
-1.816116459667682648e-02 1.788862943649291992e-01 -1.872171461582183838e-02
2.849325835704803467e-01 1.281130760908126831e-01 8.882362395524978638e-02
1.107942312955856323e-01 -7.693196088075637817e-02 1.625389605760574341e-01
6.743157655000686646e-02 -1.795935779809951782e-01 4.571138322353363037e-02
2.751903235912322998e-01 -1.647665351629257202e-01 -4.251421429216861725e-03
-4.294553697109222412e-01 -1.137633621692657471e-01 -1.173568703234195709e-02
-5.138888359069824219e-01 6.018707156181335449e-02 -1.801718026399612427e-04
4.458327591419219971e-01 4.889047145843505859e-02 9.380453824996948242e-02
-5.160077661275863647e-02 -1.781343370676040649e-01 4.994750767946243286e-02
1.609920859336853027e-01 1.285939365625381470e-01 1.204047724604606628e-01
-2.240856587886810303e-01 1.655897200107574463e-01 3.674958832561969757e-03
1.810725629329681396e-01 1.266274005174636841e-01 -1.083733215928077698e-01
2.697305940091609955e-02 -1.424500048160552979e-01 -1.242650374770164490e-01
2.177104055881500244e-01 -8.806212805211544037e-03 1.687099933624267578e-01
1.986789405345916748e-01 -1.701042950153350830e-01 4.158862307667732239e-02
2.152385711669921875e-01 -5.580752715468406677e-02 -1.619858145713806152e-01
4.649555981159210205e-01 -5.674174055457115173e-02 -8.476494252681732178e-02
4.090657830238342285e-01 2.328319288790225983e-02 1.199239119887351990e-01
-4.059684276580810547e-02 1.721027046442031860e-01 -4.723548889160156250e-02
-2.032700777053833008e-01 8.864015340805053711e-03 -1.676670908927917480e-01
-2.284462936222553253e-02 1.391128078103065491e-02 -1.805184930562973022e-01
2.631161510944366455e-01 2.471913956105709076e-02 1.597223132848739624e-01
3.182787001132965088e-01 1.199536174535751343e-01 8.719427138566970825e-02
1.425936371088027954e-01 -1.749495416879653931e-01 4.571518674492835999e-02
1.633998006582260132e-01 1.715717613697052002e-01 9.061726741492748260e-03
3.478978276252746582e-01 -1.447055786848068237e-01 2.679185941815376282e-02
-1.508280783891677856e-01 1.331733316183090210e-01 -1.067055538296699524e-01
-3.038036525249481201e-01 3.517177700996398926e-02 1.501607000827789307e-01
-8.585388958454132080e-02 1.789102852344512939e-01 9.541735984385013580e-03
-3.747508823871612549e-01 -1.304911077022552490e-01 -3.669559583067893982e-02
-3.036306798458099365e-01 -7.487712055444717407e-02 -1.344309300184249878e-01
-1.539283432066440582e-02 7.541810721158981323e-02 1.692881584167480469e-01
-3.784533143043518066e-01 1.310269236564636230e-01 3.759678918868303299e-03
-5.382533073425292969e-01 2.362343668937683105e-02 -1.118531543761491776e-02
3.198237717151641846e-01 1.018565893173217773e-01 1.082651168107986450e-01
-2.982976138591766357e-01 1.421873271465301514e-01 -4.783058166503906250e-02
-3.177708759903907776e-02 1.349863857030868530e-01 1.265006959438323975e-01
-2.163040786981582642e-01 1.230869740247726440e-01 1.184659227728843689e-01
-1.709265708923339844e-01 1.723314225673675537e-01 1.038147602230310440e-02
-1.476368606090545654e-01 9.371694922447204590e-02 1.525529623031616211e-01
9.766561537981033325e-02 -1.715214401483535767e-01 -7.474039494991302490e-02
-2.811326980590820312e-01 -1.595569700002670288e-01 -6.537024863064289093e-03
4.584821462631225586e-01 6.116975098848342896e-02 7.755742222070693970e-02
2.396854460239410400e-01 -1.374739110469818115e-01 9.516579657793045044e-02
4.825359955430030823e-02 -1.122151017189025879e-01 -1.502629369497299194e-01
4.268137514591217041e-01 9.035575389862060547e-02 -6.004674732685089111e-02
-2.439726144075393677e-01 1.526233106851577759e-01 -4.900522157549858093e-02
3.655230998992919922e-01 -1.716525666415691376e-02 1.361759155988693237e-01
4.186542928218841553e-01 1.377945765852928162e-03 1.187196820974349976e-01
-4.957290291786193848e-01 7.544197887182235718e-02 1.043460797518491745e-03
-1.767679117619991302e-02 1.338414102792739868e-01 1.279765665531158447e-01
-1.034017205238342285e-01 1.561004370450973511e-01 9.247404336929321289e-02
2.998769581317901611e-01 -1.146627590060234070e-01 -1.118088737130165100e-01
3.560589998960494995e-02 1.763616353273391724e-01 4.465413093566894531e-02
-1.616120524704456329e-02 -2.798943594098091125e-02 1.816068738698959351e-01
2.534319162368774414e-01 -1.681140512228012085e-01 8.128510788083076477e-03
1.200835779309272766e-01 -9.960979223251342773e-02 -1.542393267154693604e-01
7.119158655405044556e-02 -1.868100017309188843e-01 -6.967185065150260925e-03
-1.969962865114212036e-01 -1.048874408006668091e-01 -1.391678154468536377e-01
2.621164321899414062e-01 -1.594593673944473267e-01 4.414864629507064819e-02
-3.689230680465698242e-01 -1.617128588259220123e-02 1.348385959863662720e-01
-5.912407115101814270e-02 -1.369785070419311523e-01 1.207181736826896667e-01
2.584582865238189697e-01 -1.327547430992126465e-01 -1.042033433914184570e-01
-1.236041039228439331e-01 1.139466762542724609e-01 1.407201290130615234e-01
3.094752132892608643e-01 1.278902441263198853e-01 7.851874828338623047e-02
1.842070072889328003e-01 1.328063458204269409e-01 -1.000835746526718140e-01
3.679568171501159668e-01 1.185708791017532349e-01 -5.201388522982597351e-02
-1.561530083417892456e-01 -9.952791780233383179e-02 -1.487093567848205566e-01
-3.504093289375305176e-01 -1.409535109996795654e-01 -2.327058464288711548e-02
2.232666760683059692e-01 8.715134114027023315e-02 -1.363916546106338501e-01
-5.164104700088500977e-01 -5.819173064082860947e-03 5.942467600107192993e-02
1.685691922903060913e-01 -1.679379791021347046e-01 -6.882383674383163452e-02
-2.143553346395492554e-01 -1.715622544288635254e-01 -6.803577300161123276e-03
2.731485366821289062e-01 -2.325714938342571259e-02 -1.580554991960525513e-01
1.952306926250457764e-02 1.177466660737991333e-01 -1.324381232261657715e-01
3.643517792224884033e-01 1.292168796062469482e-01 3.350101038813591003e-02
-1.560510694980621338e-02 -1.666251271963119507e-01 8.027927577495574951e-02
4.962992072105407715e-01 -8.377350121736526489e-02 -1.525992434471845627e-02
-5.278814435005187988e-01 4.380710422992706299e-02 1.232773903757333755e-02
-4.896655082702636719e-01 6.241886317729949951e-02 5.377019196748733521e-02
3.662682175636291504e-01 -1.392195969820022583e-01 2.756458148360252380e-02
4.591971933841705322e-01 -4.289539530873298645e-02 9.223411977291107178e-02
3.616770803928375244e-01 4.690266773104667664e-02 -1.252622604370117188e-01
6.560594588518142700e-02 2.045265957713127136e-02 1.820579469203948975e-01
-1.736669093370437622e-01 -1.100705042481422424e-01 1.341260820627212524e-01
-5.044950246810913086e-01 6.328335404396057129e-02 3.075630590319633484e-02
-4.987997114658355713e-01 -5.201218649744987488e-02 -5.258638784289360046e-02
-3.290227614343166351e-04 -8.995731920003890991e-02 1.597435027360916138e-01
3.870711922645568848e-01 -1.140865683555603027e-01 -7.623931765556335449e-02
-4.369669854640960693e-01 -8.204209059476852417e-02 -7.473271340131759644e-02
-2.523176670074462891e-01 -1.352611482143402100e-01 9.037401527166366577e-02
6.869250535964965820e-02 -1.664586067199707031e-01 -8.838248252868652344e-02
-3.261954188346862793e-01 1.451695859432220459e-01 -6.847787648439407349e-03
-5.123298168182373047e-01 -4.085856303572654724e-02 -4.675826802849769592e-02
1.908984184265136719e-01 -1.758040040731430054e-01 -3.021632879972457886e-02
1.359442323446273804e-01 1.545676402747631073e-02 -1.749938577413558960e-01
1.988635063171386719e-01 1.053580418229103088e-01 1.358052790164947510e-01
4.382312670350074768e-02 1.718521118164062500e-01 -4.660544916987419128e-02
-4.998535215854644775e-01 -7.354865968227386475e-02 -2.696390263736248016e-03
-2.336257696151733398e-02 1.807280331850051880e-01 9.969811886548995972e-03
-8.400275558233261108e-02 -1.333144009113311768e-01 -1.298409551382064819e-01
3.026354312896728516e-01 1.095190569758415222e-01 -9.718783944845199585e-02
-4.486720263957977295e-01 -4.584105685353279114e-02 -9.333552420139312744e-02
9.679813683032989502e-02 -1.030723452568054199e-01 1.485623866319656372e-01
-2.135218977928161621e-01 -1.142872869968414307e-01 1.237056702375411987e-01
-1.712617091834545135e-02 -1.876343041658401489e-01 -9.377576410770416260e-03
-9.159741550683975220e-02 7.073952257633209229e-02 -1.611605286598205566e-01
4.284642934799194336e-01 -6.603281199932098389e-02 9.581036120653152466e-02
-4.735535085201263428e-01 -9.553139097988605499e-03 9.133844077587127686e-02
-3.875723853707313538e-02 -1.788345277309417725e-01 -5.946488678455352783e-02
4.280881583690643311e-01 -2.095823921263217926e-02 1.133448407053947449e-01
3.530215620994567871e-01 1.347015500068664551e-01 2.085935324430465698e-02
2.596512734889984131e-01 -1.576246917247772217e-01 5.085379630327224731e-02
-2.912859618663787842e-01 5.837270524352788925e-03 1.561633646488189697e-01
-4.830703139305114746e-01 1.355984807014465332e-02 -8.086497336626052856e-02
-3.513532280921936035e-01 9.010738134384155273e-02 1.109187081456184387e-01
-3.506733477115631104e-01 -1.360808908939361572e-01 3.799163550138473511e-02
-6.287224590778350830e-02 3.358536586165428162e-02 -1.757669597864151001e-01
5.378660559654235840e-01 1.053535565733909607e-02 -3.010784834623336792e-02
-1.911029666662216187e-01 1.605569198727607727e-02 -1.684060692787170410e-01
3.722219467163085938e-01 -1.682870276272296906e-02 1.341638565063476562e-01
5.385199785232543945e-01 1.086430810391902924e-02 3.003249689936637878e-02
3.366966843605041504e-01 9.568519890308380127e-02 1.080760285258293152e-01
2.962695360183715820e-01 -1.054095104336738586e-01 1.148872300982475281e-01
3.035436011850833893e-02 1.041233986616134644e-01 1.530232876539230347e-01
-9.629759937524795532e-02 1.766623705625534058e-01 -1.717029139399528503e-02
1.274135559797286987e-01 1.366809159517288208e-01 1.160371452569961548e-01
4.510316252708435059e-01 6.589733809232711792e-02 7.849026471376419067e-02
5.063995122909545898e-01 -5.467123910784721375e-02 -5.291602760553359985e-02
3.981478810310363770e-01 -1.745824702084064484e-02 1.254564076662063599e-01
1.868180930614471436e-01 8.186164498329162598e-02 -1.456258893013000488e-01
1.832147501409053802e-02 -1.877167373895645142e-01 2.872537821531295776e-03
-1.839470714330673218e-01 1.697212159633636475e-01 2.752587944269180298e-02
-2.642967104911804199e-01 1.320317387580871582e-01 -8.245781809091567993e-02
2.615594863891601562e-01 7.419105619192123413e-02 -1.371988654136657715e-01
1.444776356220245361e-01 1.318006962537765503e-01 -1.082051172852516174e-01
-1.976020634174346924e-01 1.547324806451797485e-01 7.555315643548965454e-02
-3.178524374961853027e-01 6.334125250577926636e-02 -1.299192905426025391e-01
-1.887361854314804077e-01 -9.978160262107849121e-02 -1.439462751150131226e-01
2.559781670570373535e-01 -6.545989215373992920e-02 1.490528881549835205e-01
-2.060448974370956421e-01 1.671901047229766846e-01 -1.065500732511281967e-02
1.596523821353912354e-01 1.065639331936836243e-01 1.409598886966705322e-01
-3.729023635387420654e-01 -1.331507265567779541e-01 -2.779823914170265198e-02
-1.881214231252670288e-01 -8.851693570613861084e-02 -1.506578475236892700e-01
1.100867912173271179e-01 -1.529270410537719727e-01 -1.063952744007110596e-01
1.736854910850524902e-01 -1.523403972387313843e-01 8.859589695930480957e-02
2.605819404125213623e-01 -1.476593911647796631e-01 7.266846299171447754e-02
3.476155698299407959e-01 -1.477139294147491455e-01 8.269451558589935303e-03
2.367701977491378784e-01 1.380896717309951782e-01 9.020523726940155029e-02
-4.489312693476676941e-02 -1.630287766456604004e-01 -9.463574737310409546e-02
4.535949826240539551e-01 -3.151807468384504318e-03 1.032749637961387634e-01
3.610377013683319092e-01 -8.425612747669219971e-02 1.113952621817588806e-01
-3.983802199363708496e-01 -1.053449735045433044e-01 -7.155878096818923950e-02
-1.517043709754943848e-01 -1.435134410858154297e-01 -1.100832372903823853e-01
1.275667250156402588e-01 -1.519349403679370880e-03 1.791202723979949951e-01
-1.622706353664398193e-01 1.377734690904617310e-01 -9.898798912763595581e-02
8.658484369516372681e-02 1.599479466676712036e-01 8.533304929733276367e-02
4.204736649990081787e-02 1.186426430940628052e-01 1.415446102619171143e-01
-1.356550455093383789e-01 1.262734979391098022e-01 1.282584369182586670e-01
-2.862554490566253662e-01 -1.034102737903594971e-01 1.163827851414680481e-01
3.945277929306030273e-01 2.188261598348617554e-02 -1.229794695973396301e-01
1.005891934037208557e-01 1.487568467855453491e-01 -9.056878089904785156e-02
5.382785797119140625e-01 -2.185804583132266998e-02 -3.155177086591720581e-02
4.351043701171875000e-01 -8.710779994726181030e-02 -7.984415441751480103e-02
3.121418356895446777e-01 1.165035516023635864e-01 -8.494917303323745728e-02
-4.042791128158569336e-01 1.682405360043048859e-02 -1.188950389623641968e-01
2.507561147212982178e-01 -1.501867026090621948e-01 7.146020233631134033e-02
1.332448869943618774e-01 -1.828309595584869385e-01 -1.783987134695053101e-02
-1.199897602200508118e-01 1.307219415903091431e-01 -1.135329455137252808e-01
2.676312625408172607e-01 1.551148891448974609e-01 2.221263572573661804e-02
2.349278479814529419e-01 -4.432198405265808105e-02 -1.617533415555953979e-01
-3.141414821147918701e-01 1.458152681589126587e-01 3.590799868106842041e-02
1.261814087629318237e-01 -1.579626463353633881e-02 -1.776109039783477783e-01
6.485764682292938232e-02 -1.896671764552593231e-02 -1.809713542461395264e-01
3.320636153221130371e-01 -4.438196495175361633e-02 1.397690474987030029e-01
-5.348327010869979858e-02 -5.630314350128173828e-03 -1.812071204185485840e-01
2.924560904502868652e-01 -4.944926872849464417e-02 1.476987749338150024e-01
-3.603646159172058105e-02 1.709992289543151855e-01 -5.094429478049278259e-02
-1.095125526189804077e-01 6.383203435689210892e-03 1.806136965751647949e-01
2.050122916698455811e-01 1.290402710437774658e-01 -1.005954593420028687e-01
2.948780059814453125e-01 1.425115168094635010e-01 5.398752540349960327e-02
1.008678376674652100e-01 -1.278945952653884888e-01 1.280852258205413818e-01
1.972497999668121338e-01 3.661468625068664551e-02 1.681831032037734985e-01
1.214487925171852112e-01 1.153036803007125854e-01 1.385589540004730225e-01
2.425535172224044800e-01 1.494533270597457886e-01 6.513340771198272705e-02
-2.346952110528945923e-01 -1.651333421468734741e-01 2.786494046449661255e-02
-1.472693830728530884e-01 -1.784454733133316040e-01 -2.841310948133468628e-02
-5.204437971115112305e-01 -3.915583714842796326e-02 3.808571025729179382e-02
-3.599694073200225830e-01 -1.392612755298614502e-01 -1.207619346678256989e-02
4.222481250762939453e-01 -7.268884032964706421e-02 -9.846232086420059204e-02
4.196940362453460693e-01 1.078868359327316284e-01 -2.893153205513954163e-02
5.267792940139770508e-01 3.269593045115470886e-02 3.371468186378479004e-02
1.220991909503936768e-01 -1.624566912651062012e-01 -8.976290374994277954e-02
2.494388222694396973e-01 -1.459636911749839783e-02 -1.627494990825653076e-01
7.638145983219146729e-02 1.668457537889480591e-01 7.104040682315826416e-02
-3.930900990962982178e-01 1.173879131674766541e-01 -4.029837623238563538e-02
-3.205792903900146484e-01 9.266047924757003784e-02 -1.095098853111267090e-01
-2.383658289909362793e-01 -1.633068770170211792e-01 3.338263183832168579e-02
2.783946096897125244e-01 1.747531071305274963e-02 1.576833575963973999e-01
1.552061438560485840e-01 -1.813807934522628784e-01 -4.006684757769107819e-03
2.237655408680438995e-02 1.093295663595199585e-01 1.495281308889389038e-01
2.757680416107177734e-01 8.285956084728240967e-02 -1.284845173358917236e-01
-1.178573966026306152e-01 -1.794552654027938843e-01 -3.892285004258155823e-02
-1.284022182226181030e-01 -7.175847887992858887e-02 1.629420816898345947e-01
2.483800351619720459e-01 1.573777198791503906e-01 -1.973631978034973145e-02
-3.763097822666168213e-01 9.375131130218505859e-02 9.750740975141525269e-02
-1.839578747749328613e-01 -7.833690941333770752e-02 -1.562535315752029419e-01
3.752330839633941650e-01 2.931009046733379364e-02 1.306849122047424316e-01
-2.849318087100982666e-01 -6.991285085678100586e-02 -1.414118856191635132e-01
3.236008882522583008e-01 -1.528790146112442017e-01 1.648331806063652039e-02
4.278025403618812561e-02 5.041053146123886108e-02 -1.716815382242202759e-01
-8.029486984014511108e-02 -1.851809918880462646e-01 -1.237498782575130463e-02
-1.304776966571807861e-01 -9.780977666378021240e-02 -1.526990830898284912e-01
4.199196398258209229e-01 3.111666254699230194e-02 -1.103468984365463257e-01
8.739945478737354279e-03 -1.855455636978149414e-01 -3.478697314858436584e-02
5.427322983741760254e-01 -3.418275620788335800e-03 2.557421475648880005e-02
-1.248682141304016113e-01 -1.762065440416336060e-01 -5.032975971698760986e-02
-3.319521844387054443e-01 1.393714845180511475e-01 4.415977373719215393e-02
-1.622171103954315186e-01 -1.145882159471511841e-01 -1.373815536499023438e-01
1.882230788469314575e-01 -1.719106286764144897e-01 3.976454585790634155e-02
4.999986886978149414e-01 -7.029080390930175781e-02 -4.246398434042930603e-02
1.513332724571228027e-01 -5.194675549864768982e-02 -1.706686764955520630e-01
2.847230434417724609e-02 4.471971467137336731e-02 -1.738392561674118042e-01
-4.363052248954772949e-01 -6.185395270586013794e-02 9.076268970966339111e-02
2.626741230487823486e-01 8.887743949890136719e-02 1.349701732397079468e-01
-1.004532203078269958e-01 -2.201783657073974609e-02 1.794362068176269531e-01
-1.463978886604309082e-01 7.333119213581085205e-02 1.632553637027740479e-01
1.693033427000045776e-01 -1.375076472759246826e-01 -1.177570968866348267e-01
2.106253057718276978e-02 4.035468399524688721e-02 1.802866011857986450e-01
-7.688090670853853226e-03 -1.859869211912155151e-01 2.027947828173637390e-02
2.922148406505584717e-01 1.508603543043136597e-01 4.800705239176750183e-03
-7.781859487295150757e-02 -1.741542965173721313e-01 5.788650736212730408e-02
2.725791633129119873e-01 1.536960303783416748e-01 -1.369385141879320145e-02
-2.470944821834564209e-01 1.576526761054992676e-01 -3.028028085827827454e-02
-2.240533381700515747e-01 4.429863300174474716e-03 1.682761609554290771e-01
3.878403455018997192e-02 1.775934100151062012e-01 3.772520273923873901e-02
-4.127050936222076416e-01 -2.602318488061428070e-02 1.175381243228912354e-01
-2.363280951976776123e-01 1.581451296806335449e-01 4.962607845664024353e-02
2.471273690462112427e-01 -1.031816229224205017e-01 -1.343024671077728271e-01
-5.420839190483093262e-01 2.161053940653800964e-03 1.902711391448974609e-02
-1.587308794260025024e-01 -1.422251388430595398e-02 1.755685061216354370e-01
-3.561315536499023438e-01 -1.376517564058303833e-01 2.558680996298789978e-02
2.146154791116714478e-01 -3.491054521873593330e-03 1.693868935108184814e-01
3.415067791938781738e-01 -1.228178143501281738e-01 7.995907962322235107e-02
2.931545674800872803e-01 7.529644668102264404e-02 -1.292950212955474854e-01
-1.212620660662651062e-01 1.753645092248916626e-01 2.989019453525543213e-02
2.470933347940444946e-01 9.656044840812683105e-02 1.330385953187942505e-01
-1.796497590839862823e-02 1.143690124154090881e-01 -1.355245411396026611e-01
2.399944961071014404e-01 -2.363054640591144562e-02 1.637355834245681763e-01
-3.074557781219482422e-01 -8.429849147796630859e-02 1.253606975078582764e-01
-6.129520386457443237e-02 -1.860562860965728760e-01 -1.459390670061111450e-02
-6.468777358531951904e-02 8.737277984619140625e-02 -1.536747515201568604e-01
-5.421086549758911133e-01 -5.602874793112277985e-03 1.802478730678558350e-02
-2.353169918060302734e-01 -1.491712033748626709e-01 7.294439524412155151e-02
-2.497804909944534302e-01 -3.107339143753051758e-02 1.604195982217788696e-01
3.526865839958190918e-01 1.511130295693874359e-02 1.400153636932373047e-01
-5.610274150967597961e-02 -1.668010950088500977e-01 -8.687239885330200195e-02
-3.574066162109375000e-01 1.366831064224243164e-01 -8.084579370915889740e-03
2.660574913024902344e-01 -3.403205424547195435e-02 1.572517454624176025e-01
3.848427832126617432e-01 1.211828440427780151e-01 -2.877842262387275696e-02
8.429890871047973633e-02 -1.376510858535766602e-01 1.192628964781761169e-01
1.707649789750576019e-02 -3.977090120315551758e-02 -1.798520684242248535e-01
4.691918194293975830e-02 -3.207648545503616333e-02 1.803010553121566772e-01
-4.109314084053039551e-01 1.915782690048217773e-02 1.207209378480911255e-01
-3.809851408004760742e-01 1.204881519079208374e-01 -4.340464249253273010e-02
4.252570495009422302e-02 1.329044997692108154e-02 -1.803342849016189575e-01
-7.790955156087875366e-02 -1.670510768890380859e-01 -8.400133252143859863e-02
4.331524074077606201e-01 -1.187054961919784546e-01 6.992323789745569229e-03
7.170885801315307617e-02 -1.637675315141677856e-01 -9.303998202085494995e-02
3.348668664693832397e-02 1.347571164369583130e-01 -1.145630553364753723e-01
1.201066672801971436e-01 1.570232957601547241e-01 8.587697148323059082e-02
3.048110604286193848e-01 -1.549438685178756714e-01 -3.847441822290420532e-02
-3.351496458053588867e-01 1.305817365646362305e-01 -5.330865085124969482e-02
-1.349411755800247192e-01 -4.685908555984497070e-02 1.715113520622253418e-01
5.366562604904174805e-01 1.768930442631244659e-02 -2.734380587935447693e-02
-1.643441617488861084e-01 -1.779529303312301636e-01 -1.387964375317096710e-02
3.375919759273529053e-01 -7.333771884441375732e-02 1.258484423160552979e-01
-3.313844799995422363e-01 -6.248043384402990341e-03 -1.436878144741058350e-01
-2.044612467288970947e-01 -1.357412934303283691e-01 1.024431735277175903e-01
3.728643357753753662e-01 -5.273662507534027100e-02 -1.273532509803771973e-01
1.567060500383377075e-02 1.787734329700469971e-01 3.350177779793739319e-02
4.847689270973205566e-01 -7.990583032369613647e-02 -4.706975445151329041e-02
1.055741384625434875e-01 -1.757251322269439697e-01 5.204083770513534546e-02
1.656881719827651978e-01 -1.233541220426559448e-01 -1.322894096374511719e-01
-5.031880736351013184e-02 -1.411384437233209610e-04 -1.811116784811019897e-01
-8.804580569267272949e-02 7.643592357635498047e-02 -1.585463583469390869e-01
-3.494476079940795898e-01 -1.184510514140129089e-01 7.601642608642578125e-02
-2.332762032747268677e-01 -1.558049172163009644e-01 -6.755166500806808472e-02
-2.271978706121444702e-01 7.108470797538757324e-02 -1.455281376838684082e-01
-4.768738150596618652e-01 -4.044817760586738586e-03 -8.651968836784362793e-02
-2.403214126825332642e-01 1.335329115390777588e-01 -8.755140006542205811e-02
-2.282661050558090210e-01 -1.655179113149642944e-01 -3.995949029922485352e-02
2.812848091125488281e-01 -1.195811480283737183e-02 1.575338542461395264e-01
4.778082072734832764e-01 -2.746078558266162872e-02 -8.794672042131423950e-02
-4.041890427470207214e-02 -1.501216292381286621e-01 1.057348921895027161e-01
-2.653927505016326904e-01 -9.162037074565887451e-02 1.309115737676620483e-01
2.328481823205947876e-01 -5.388442426919937134e-03 1.665785014629364014e-01
-2.924135886132717133e-03 -1.878609955310821533e-01 -4.563448019325733185e-03
4.459699392318725586e-01 1.002250686287879944e-01 -9.856880642473697662e-03
4.055917561054229736e-01 -1.246939748525619507e-01 3.213128820061683655e-02
2.895244359970092773e-01 1.025819405913352966e-01 -1.086373180150985718e-01
2.666817605495452881e-01 -1.625152528285980225e-01 -3.972800076007843018e-02
1.520037651062011719e-01 1.306461095809936523e-01 1.195446103811264038e-01
1.742034256458282471e-01 9.242331981658935547e-02 1.487905830144882202e-01
-4.057447314262390137e-01 5.403955280780792236e-02 -1.053160205483436584e-01
-3.298709169030189514e-02 4.997397586703300476e-02 -1.720047444105148315e-01
1.700502187013626099e-01 1.188523843884468079e-01 -1.187430918216705322e-01
1.495839506387710571e-01 1.174693368375301361e-02 -1.742836683988571167e-01
-2.870006561279296875e-01 -1.562600135803222656e-01 2.119809016585350037e-02
5.752040445804595947e-02 1.245513707399368286e-01 1.355239599943161011e-01
2.037095129489898682e-01 -1.759441941976547241e-01 -1.104751043021678925e-02
1.950968801975250244e-01 1.339875608682632446e-01 1.073825880885124207e-01
-4.596474468708038330e-01 -6.900478899478912354e-02 7.024469226598739624e-02
-6.197181344032287598e-02 1.519618630409240723e-01 -8.999631553888320923e-02
-1.570941656827926636e-01 1.536328345537185669e-01 -7.449623942375183105e-02
1.231447830796241760e-01 1.389350369572639465e-02 1.791241466999053955e-01
-8.712116628885269165e-02 1.415924727916717529e-01 1.158830821514129639e-01
4.994221776723861694e-02 -1.697205752134323120e-01 7.329694181680679321e-02
-2.299977988004684448e-01 -9.584801644086837769e-02 1.353712230920791626e-01
-3.123716115951538086e-01 -1.317313313484191895e-02 -1.482912600040435791e-01
1.762678176164627075e-01 1.436987072229385376e-01 9.772429615259170532e-02
8.748169988393783569e-03 8.907512575387954712e-02 1.626036912202835083e-01
-5.355669260025024414e-01 1.453000679612159729e-02 -2.703265100717544556e-02
4.122300744056701660e-01 8.972965925931930542e-02 7.832366973161697388e-02
6.927852518856525421e-04 -1.663299798965454102e-01 8.120079338550567627e-02
2.887581288814544678e-01 9.719644486904144287e-02 1.221805885434150696e-01
-1.856643706560134888e-01 -1.318508833646774292e-01 1.110497936606407166e-01
3.509536087512969971e-01 -9.152303636074066162e-02 -1.147031337022781372e-01
-2.792929708957672119e-01 -3.492745384573936462e-02 1.539042890071868896e-01
1.731205917894840240e-02 -6.677778065204620361e-02 -1.732790023088455200e-01
3.103152476251125336e-02 2.497935481369495392e-02 1.826438903808593750e-01
2.261020541191101074e-01 -3.839895129203796387e-02 -1.642304658889770508e-01
2.219159752130508423e-01 -2.799153886735439301e-02 -1.662512570619583130e-01
1.405191570520401001e-01 9.524177014827728271e-02 -1.426422446966171265e-01
-4.796390235424041748e-01 3.436075523495674133e-02 8.230458945035934448e-02
3.332934081554412842e-01 1.407900899648666382e-01 1.361251901835203171e-02
3.810886442661285400e-01 -1.381196379661560059e-01 5.189281888306140900e-03
-1.109572798013687134e-01 -1.661709845066070557e-01 7.156059145927429199e-02
-2.618434131145477295e-01 1.399982124567031860e-01 8.284360915422439575e-02
4.207757115364074707e-02 1.790843009948730469e-01 2.611923962831497192e-02
1.819868981838226318e-01 -1.583292335271835327e-01 -8.583191782236099243e-02
1.809408068656921387e-01 1.517758965492248535e-01 -6.989415735006332397e-02
4.135271310806274414e-01 -7.795368134975433350e-02 9.460692107677459717e-02
1.798253357410430908e-01 1.550223678350448608e-01 7.585894316434860229e-02
2.259396016597747803e-02 -3.232355788350105286e-02 -1.808617264032363892e-01
-9.095685929059982300e-02 1.013353615999221802e-01 1.526273936033248901e-01
2.639208436012268066e-01 -1.667898893356323242e-01 -1.134115271270275116e-03
-8.421819657087326050e-02 1.788958758115768433e-01 1.476711826398968697e-03
4.123935997486114502e-01 -8.601292967796325684e-02 -9.348993748426437378e-02
1.942721456289291382e-01 -1.758641451597213745e-01 1.602509431540966034e-02
-3.290187418460845947e-01 1.105680987238883972e-01 -8.841545134782791138e-02
1.424140930175781250e-01 1.690285801887512207e-01 -3.356110677123069763e-02
-4.198810458183288574e-01 1.104533970355987549e-01 4.149609059095382690e-02
5.198772549629211426e-01 -6.503298133611679077e-02 -4.501434043049812317e-03
8.864498138427734375e-02 6.201897561550140381e-02 -1.653034090995788574e-01
1.371540129184722900e-01 1.538567841053009033e-01 -7.595455646514892578e-02
-4.986111223697662354e-01 6.283363699913024902e-02 4.187897965312004089e-02
-5.082308053970336914e-01 6.460801512002944946e-02 1.497666444629430771e-02
3.598909825086593628e-02 1.472302526235580444e-01 -9.817069023847579956e-02
1.663592159748077393e-01 1.710653603076934814e-01 -1.154280267655849457e-03
3.737323284149169922e-01 -1.239527463912963867e-01 -6.866227090358734131e-02
2.697670459747314453e-01 -1.175641641020774841e-01 1.105826795101165771e-01
1.897797882556915283e-01 -8.353763073682785034e-02 1.509836018085479736e-01
3.768297731876373291e-01 5.752752348780632019e-02 -1.147910878062248230e-01
-2.148991972208023071e-01 -2.399681322276592255e-02 1.673547625541687012e-01
-2.019791491329669952e-02 -1.073430180549621582e-01 1.484729349613189697e-01
-2.970739006996154785e-01 -5.217524990439414978e-02 -1.452028602361679077e-01
3.683481514453887939e-01 1.016704738140106201e-01 8.820932358503341675e-02
-1.577311754226684570e-01 -1.702396720647811890e-01 -5.895975232124328613e-02
-1.833064705133438110e-01 5.140484496951103210e-02 1.670407801866531372e-01
3.887807130813598633e-01 -1.078866720199584961e-01 7.694711536169052124e-02
5.034642666578292847e-02 1.786737143993377686e-01 2.733171358704566956e-02
-4.477640613913536072e-02 -7.764808088541030884e-02 -1.684308201074600220e-01
1.566953808069229126e-01 -1.789311319589614868e-01 -3.378858789801597595e-02
9.221235662698745728e-02 5.626688897609710693e-02 -1.674138158559799194e-01
-1.245265901088714600e-01 -4.987007752060890198e-02 1.715128719806671143e-01
-2.910239994525909424e-01 8.075825124979019165e-02 1.354939937591552734e-01
-3.866678774356842041e-01 -9.004336595535278320e-02 9.234029054641723633e-02
4.447831511497497559e-01 1.733981445431709290e-02 1.057001426815986633e-01
-7.407344132661819458e-02 -1.842337101697921753e-01 1.736970618367195129e-02
-3.574595153331756592e-01 1.019852608442306519e-01 -8.682918548583984375e-02
4.973911941051483154e-01 -4.722734913229942322e-02 -6.684853881597518921e-02
-2.946324050426483154e-01 -1.077019497752189636e-01 1.100037544965744019e-01
-3.422911465167999268e-01 -1.438385099172592163e-01 -1.905425265431404114e-02
2.966078817844390869e-01 -1.410148888826370239e-01 7.049436122179031372e-02
1.093296408653259277e-01 1.257724463939666748e-01 -1.193792149424552917e-01
-5.255187153816223145e-01 -1.955155096948146820e-02 4.514764621853828430e-02
-2.659482359886169434e-01 1.311628967523574829e-01 9.557542949914932251e-02
2.268799245357513428e-01 9.537771344184875488e-02 1.380825042724609375e-01
-1.719475537538528442e-01 1.373480707406997681e-01 -9.787110984325408936e-02
1.182742044329643250e-01 -5.921346321702003479e-02 -1.715642362833023071e-01
1.753360964357852936e-02 -1.248146444559097290e-01 -1.412629336118698120e-01
1.876623742282390594e-02 -8.051331341266632080e-02 -1.681455820798873901e-01
1.678587347269058228e-01 -1.291592270135879517e-01 1.192609295248985291e-01
3.410897254943847656e-01 -1.443251669406890869e-01 3.548518568277359009e-02
-2.335590273141860962e-01 -7.835200056433677673e-03 1.664061844348907471e-01
4.118348360061645508e-01 -9.579585865139961243e-03 -1.208010390400886536e-01
-1.843864470720291138e-01 -6.340783834457397461e-02 1.603624373674392700e-01
3.086416423320770264e-01 1.075363531708717346e-01 1.063707545399665833e-01
3.209279775619506836e-01 -1.507947742938995361e-01 -3.992892056703567505e-02
1.763949543237686157e-01 -6.252595037221908569e-02 -1.650852113962173462e-01
-4.063993692398071289e-01 6.856898963451385498e-02 1.042706966400146484e-01
4.462994933128356934e-01 -9.148888289928436279e-02 -6.721817702054977417e-02
-7.018786668777465820e-02 -7.518496364355087280e-02 1.654353886842727661e-01
3.185224235057830811e-01 4.613309353590011597e-02 1.424705833196640015e-01
-3.833596408367156982e-01 3.198794275522232056e-02 -1.227943077683448792e-01
-8.207435160875320435e-02 -1.757155209779739380e-01 5.272065475583076477e-02
5.164006352424621582e-02 -1.839712262153625488e-01 2.974861487746238708e-02
-2.960084080696105957e-01 -1.279568672180175781e-01 8.572538942098617554e-02
-1.115019768476486206e-01 -1.775565892457962036e-01 -4.955034330487251282e-02
-3.867837190628051758e-01 1.187579482793807983e-01 -4.262357205152511597e-02
3.338876366615295410e-01 -1.383693069219589233e-01 -6.531708687543869019e-02
3.085493743419647217e-01 -8.039345592260360718e-02 -1.341427117586135864e-01
2.425559163093566895e-01 6.770435720682144165e-02 -1.445445269346237183e-01
-1.926396191120147705e-01 9.547260403633117676e-02 -1.360687464475631714e-01
-4.142104983329772949e-01 -9.054124355316162109e-03 1.198851168155670166e-01
5.074498429894447327e-02 1.793822795152664185e-01 -4.279577173292636871e-03
3.006668984889984131e-01 -7.782378047704696655e-02 -1.374225467443466187e-01
4.969190061092376709e-01 9.746793657541275024e-03 7.644374668598175049e-02
3.125319480895996094e-01 1.146253868937492371e-01 9.679032117128372192e-02
1.380285769701004028e-01 -7.004605233669281006e-02 -1.664971560239791870e-01
2.426866739988327026e-01 -6.290825456380844116e-02 1.525401771068572998e-01
2.172149717807769775e-02 -1.031010691076517105e-02 1.836667656898498535e-01
1.119360476732254028e-01 1.192037388682365417e-01 1.361539959907531738e-01
1.490580439567565918e-01 1.517698019742965698e-01 9.011290967464447021e-02
3.500103354454040527e-01 -7.342218607664108276e-02 1.220289766788482666e-01
-1.469147503376007080e-01 3.607045486569404602e-02 -1.693737804889678955e-01
4.195430129766464233e-02 1.376027017831802368e-01 1.227014139294624329e-01
-5.729147046804428101e-02 -1.829784661531448364e-01 3.009657934308052063e-02
-8.526659756898880005e-02 -7.552761584520339966e-02 -1.672872304916381836e-01
-2.424010783433914185e-01 1.504492908716201782e-01 6.901985406875610352e-02
3.717683851718902588e-01 1.298513263463973999e-01 1.915197353810071945e-03
2.994364202022552490e-01 1.185111179947853088e-01 9.683252125978469849e-02
-4.867512583732604980e-01 -5.671025067567825317e-02 -6.029987335205078125e-02
-1.335545480251312256e-01 1.652741283178329468e-01 -5.295841395854949951e-02
-5.031402707099914551e-01 -3.148032352328300476e-02 -6.204341351985931396e-02
1.850963234901428223e-01 -1.771258115768432617e-01 1.457273773849010468e-02
-2.155903577804565430e-01 -6.151736713945865631e-03 1.692347824573516846e-01
4.423157870769500732e-01 9.123697131872177124e-02 5.238145962357521057e-02
1.665701121091842651e-01 9.505394101142883301e-02 1.481588482856750488e-01
4.717184007167816162e-01 1.336533576250076294e-02 9.224144369363784790e-02
5.318471193313598633e-01 -4.924969375133514404e-02 -1.469159964472055435e-02
1.765855997800827026e-01 2.165156975388526917e-02 -1.699381619691848755e-01
1.717619001865386963e-01 9.981510788202285767e-02 1.442301124334335327e-01
5.013568401336669922e-01 2.050930075347423553e-02 7.020958513021469116e-02
6.591370701789855957e-02 8.724501729011535645e-02 -1.536163538694381714e-01
3.555598258972167969e-01 9.631521999835968018e-03 -1.378048509359359741e-01
-2.573858797550201416e-01 6.265502423048019409e-02 1.516181230545043945e-01
-2.023271769285202026e-01 4.018022865056991577e-02 -1.617134213447570801e-01
5.259555950760841370e-02 -5.732498690485954285e-02 1.734916418790817261e-01
4.823291599750518799e-01 6.952641904354095459e-02 4.647176340222358704e-02
-7.789150346070528030e-03 9.911870211362838745e-02 -1.474822759628295898e-01
-4.476605355739593506e-01 -1.056151464581489563e-01 1.742609078064560890e-03
-4.325162768363952637e-01 7.379489392042160034e-02 8.699573576450347900e-02
-3.912543952465057373e-01 -1.260857284069061279e-01 2.538679912686347961e-02
-1.899175345897674561e-01 -1.080324426293373108e-01 -1.380904316902160645e-01
1.871463656425476074e-02 -4.591818526387214661e-02 -1.787278801202774048e-01
4.303435683250427246e-01 6.369145214557647705e-02 9.273469448089599609e-02
-1.057996153831481934e-01 -4.542132467031478882e-02 -1.748706549406051636e-01
3.267622292041778564e-01 6.366909295320510864e-02 -1.273246854543685913e-01
-7.571471482515335083e-02 -1.393626071512699127e-02 1.817500144243240356e-01
-1.718198508024215698e-01 -1.164141297340393066e-02 -1.724679172039031982e-01
-1.170428544282913208e-01 1.768811196088790894e-01 -8.073167409747838974e-04
2.790535390377044678e-01 8.216966688632965088e-02 1.354410201311111450e-01
-4.333612322807312012e-01 -9.058039635419845581e-02 6.441590934991836548e-02
-2.253192663192749023e-01 -1.630752384662628174e-01 4.263068363070487976e-02
1.820700019598007202e-01 1.651464551687240601e-01 4.470097646117210388e-02
-2.683739736676216125e-02 -1.114239916205406189e-02 1.835357099771499634e-01
2.171889841556549072e-01 -1.735675781965255737e-01 9.621385484933853149e-03
-1.479110866785049438e-02 4.844981059432029724e-02 1.785445660352706909e-01
-2.731870114803314209e-01 1.021373793482780457e-01 -1.146741136908531189e-01
-1.167596131563186646e-01 1.764065325260162354e-01 2.321936562657356262e-02
3.528337553143501282e-02 1.602445840835571289e-01 -7.614237070083618164e-02
-1.342559307813644409e-01 4.913024604320526123e-04 1.787205785512924194e-01
-1.746350824832916260e-01 1.709095239639282227e-01 -1.150923408567905426e-02
-3.532790541648864746e-01 -4.876926168799400330e-02 -1.310985833406448364e-01
4.383770748972892761e-02 1.180271655321121216e-01 -1.314975917339324951e-01
4.233182221651077271e-02 8.702582120895385742e-02 1.629731506109237671e-01
1.863648146390914917e-01 1.194762885570526123e-01 -1.153754219412803650e-01
4.943129122257232666e-01 4.979122802615165710e-02 -5.401047691702842712e-02
2.835907340049743652e-01 1.498832851648330688e-01 3.555638715624809265e-02
5.226634144783020020e-01 2.699249982833862305e-02 4.528922587633132935e-02
-7.456386834383010864e-02 1.692021787166595459e-01 -5.263134464621543884e-02
3.546747192740440369e-02 -1.877201944589614868e-01 -8.687346242368221283e-03
-3.382606804370880127e-01 2.031265199184417725e-02 1.440557241439819336e-01
4.088410735130310059e-02 -5.922151729464530945e-02 -1.752303093671798706e-01
1.144272238016128540e-01 5.314960330724716187e-02 1.727766394615173340e-01
-5.226755738258361816e-01 4.785382654517889023e-03 -4.891402274370193481e-02
-1.597775667905807495e-01 1.472019851207733154e-01 -8.540356159210205078e-02
2.255583107471466064e-01 -1.364641785621643066e-01 1.000168025493621826e-01
-3.829310834407806396e-01 1.015549302101135254e-01 -7.514443248510360718e-02
-2.610650360584259033e-01 -1.135527342557907104e-01 1.136742457747459412e-01
-4.117758870124816895e-01 9.323109686374664307e-02 -6.935688853263854980e-02
5.316056609153747559e-01 -3.878538310527801514e-02 -3.228193894028663635e-02
1.309732645750045776e-01 1.551839858293533325e-01 8.741616457700729370e-02
1.715470552444458008e-01 -8.883120864629745483e-02 -1.549162566661834717e-01
9.043773263692855835e-02 1.063159331679344177e-01 -1.388906687498092651e-01
-6.109496206045150757e-02 2.914977259933948517e-02 1.813518702983856201e-01
2.696198225021362305e-01 -1.171708777546882629e-01 -1.178553625941276550e-01
-1.058717817068099976e-01 -1.802295297384262085e-01 2.965436130762100220e-02
8.359406143426895142e-02 1.576255112886428833e-01 9.023628383874893188e-02
4.278390407562255859e-01 1.080382764339447021e-01 -1.266602706164121628e-02
-1.662022434175014496e-02 1.706446260213851929e-01 6.712739914655685425e-02
-3.292956054210662842e-01 -1.465605348348617554e-01 -2.546953782439231873e-02
2.078782021999359131e-01 -5.731001961976289749e-03 1.702577620744705200e-01
4.985382556915283203e-01 5.946444720029830933e-02 -3.642713651061058044e-02
-9.738166630268096924e-02 -1.104569882154464722e-01 1.424102187156677246e-01
-3.615639731287956238e-02 -1.157667860388755798e-01 1.416810601949691772e-01
-1.504753679037094116e-01 -1.791897416114807129e-01 8.245827630162239075e-03
-1.614511162042617798e-01 -1.785066723823547363e-01 -3.907169215381145477e-03
3.602969646453857422e-01 -9.339304268360137939e-02 -1.099756509065628052e-01
-1.802018135786056519e-01 -1.634223163127899170e-01 6.082604452967643738e-02
-6.588988006114959717e-02 1.797292232513427734e-01 3.734114114195108414e-03
-5.807210132479667664e-02 4.514984413981437683e-02 -1.728009134531021118e-01
1.181623563170433044e-01 -1.815838366746902466e-01 2.579926326870918274e-02
-1.229169517755508423e-01 3.027447499334812164e-02 -1.728936731815338135e-01
4.397341012954711914e-01 -7.605379819869995117e-02 -8.685669302940368652e-02
-4.971547424793243408e-01 1.713229157030582428e-02 7.495088875293731689e-02
1.808637231588363647e-01 -5.715227872133255005e-02 1.638296097517013550e-01
8.436866104602813721e-02 1.779264509677886963e-01 -2.319282619282603264e-03
-2.627897560596466064e-01 -7.006803900003433228e-02 1.443168073892593384e-01
1.703702844679355621e-02 -1.294675171375274658e-01 1.302924454212188721e-01
3.393553793430328369e-01 7.721963524818420410e-02 1.215917915105819702e-01
-2.751850187778472900e-01 -1.607839316129684448e-01 -1.359082292765378952e-03
4.221667721867561340e-02 -9.315077215433120728e-02 1.574091017246246338e-01
1.221890300512313843e-01 -1.837966740131378174e-01 -1.554882247000932693e-02
2.934839725494384766e-01 -1.570096611976623535e-01 -4.030818119645118713e-02
-2.027347832918167114e-01 -8.461257070302963257e-02 1.473196744918823242e-01
-4.565176665782928467e-01 -8.467467129230499268e-02 -5.594932660460472107e-02
-4.433895945549011230e-01 -7.264333218336105347e-02 -7.947244495153427124e-02
-5.270499587059020996e-01 -1.930906996130943298e-02 -4.068768396973609924e-02
2.421875000000000000e-01 -8.030486106872558594e-02 1.443952322006225586e-01
-8.826502412557601929e-02 2.572995144873857498e-04 -1.793671995401382446e-01
4.584201574325561523e-01 -3.151673451066017151e-02 9.670299291610717773e-02
-4.159908294677734375e-01 -5.503801256418228149e-02 -1.053433716297149658e-01
1.486463844776153564e-01 -1.593676060438156128e-01 -9.089792519807815552e-02
3.559509217739105225e-01 -1.357249766588211060e-01 -5.660058930516242981e-02
-1.043511852622032166e-01 -7.781896740198135376e-02 -1.650196462869644165e-01
-3.533391058444976807e-01 1.245610415935516357e-01 6.684964895248413086e-02
-1.375824064016342163e-01 1.446512788534164429e-01 1.060717403888702393e-01
5.037586092948913574e-01 2.566511742770671844e-03 -7.123627513647079468e-02
5.369807127863168716e-03 -7.207201421260833740e-02 1.686248332262039185e-01
4.530811011791229248e-01 6.067957729101181030e-02 8.158034831285476685e-02
-6.754744052886962891e-02 1.656707674264907837e-01 -6.271661818027496338e-02
-4.837913513183593750e-01 -6.440352648496627808e-02 -5.551268905401229858e-02
-5.130734443664550781e-01 5.392473191022872925e-02 -2.489400282502174377e-02
1.183523908257484436e-01 -1.366636306047439575e-01 -1.251794099807739258e-01
-4.415978491306304932e-01 9.048640727996826172e-02 -5.155964195728302002e-02
5.077265202999114990e-02 9.095752239227294922e-02 -1.519567221403121948e-01
-2.265218496322631836e-01 5.600288137793540955e-02 -1.525837779045104980e-01
-6.362752616405487061e-02 1.170840580016374588e-03 1.830713599920272827e-01
-1.573979258537292480e-01 -2.863197028636932373e-02 -1.729563176631927490e-01
4.992599189281463623e-01 3.642215952277183533e-02 -6.085656583309173584e-02
-4.156949520111083984e-01 -7.662098854780197144e-02 -9.219914674758911133e-02
3.654595017433166504e-01 -1.025571897625923157e-01 9.402338415384292603e-02
2.598853595554828644e-02 -5.740606039762496948e-02 1.740978509187698364e-01
-5.148749351501464844e-01 -5.582761764526367188e-02 -2.283262088894844055e-02
-1.407860964536666870e-01 1.749463975429534912e-01 -2.689723391085863113e-03
-3.547089099884033203e-01 -1.183044537901878357e-01 -7.856433838605880737e-02
5.582826957106590271e-02 1.387455500662326813e-02 1.829606443643569946e-01
-2.181395292282104492e-01 -1.708368659019470215e-01 2.729804720729589462e-03
-2.503018677234649658e-01 -1.652629673480987549e-01 6.156901828944683075e-03
3.588566780090332031e-01 -1.427851021289825439e-01 2.113275974988937378e-02
1.548839658498764038e-01 1.329431682825088501e-01 -1.051911562681198120e-01
3.497964441776275635e-01 1.249104887247085571e-01 -5.078747123479843140e-02
