-3.850021958351135254e-02 6.373666524887084961e-01 -3.615582287311553955e-01
-2.813223004341125488e-01 -1.579098701477050781e-01 5.051664710044860840e-01
-6.640265882015228271e-02 9.641570597887039185e-02 7.904480099678039551e-01
-5.714059621095657349e-02 4.968196749687194824e-01 -5.875586867332458496e-01
6.947214715182781219e-03 -1.057954132556915283e-02 -8.395619392395019531e-01
-3.407660722732543945e-01 -3.319969177246093750e-01 -4.088339954614639282e-02
9.093167632818222046e-02 -5.428634285926818848e-01 4.384656250476837158e-01
-1.793294697999954224e-01 -6.382418870925903320e-01 1.823883056640625000e-01
-1.833816468715667725e-01 -6.552169322967529297e-01 -1.583118364214897156e-02
-1.610292941331863403e-01 -4.479159712791442871e-01 -5.750503540039062500e-01
-1.275140941143035889e-01 2.428154349327087402e-01 6.921471357345581055e-01
2.783181071281433105e-01 1.576689928770065308e-01 4.890991449356079102e-01
1.881410032510757446e-01 5.779333412647247314e-02 -7.096196413040161133e-01
-1.122661083936691284e-01 6.458926796913146973e-01 7.296988368034362793e-02
2.479834407567977905e-01 -1.829090565443038940e-01 5.069480538368225098e-01
-3.167886734008789062e-01 2.146358191967010498e-01 -2.576118707656860352e-01
-3.228307962417602539e-01 5.694527179002761841e-02 -3.731017708778381348e-01
-1.498835980892181396e-01 -5.437597036361694336e-01 4.612886011600494385e-01
-2.544783055782318115e-01 -3.885034238919615746e-03 5.767276287078857422e-01
-3.575606048107147217e-01 -2.182037681341171265e-01 3.151755407452583313e-02
-7.665851712226867676e-02 -7.047385573387145996e-01 7.881421595811843872e-02
-2.983187437057495117e-01 -4.563955068588256836e-01 1.480619162321090698e-01
-3.541020750999450684e-01 -2.414190173149108887e-01 -8.532376587390899658e-02
-2.352610081434249878e-01 4.721869230270385742e-01 -1.826823949813842773e-01
-1.411735266447067261e-01 -6.899788975715637207e-02 7.517610788345336914e-01
-4.105460830032825470e-03 7.101343274116516113e-01 -3.239521756768226624e-02
-1.436836123466491699e-01 -2.672782242298126221e-01 7.028338909149169922e-01
-2.499335706233978271e-01 6.892970949411392212e-02 5.703726410865783691e-01
2.814063131809234619e-01 -1.757567971944808960e-01 -4.130605757236480713e-01
3.096677362918853760e-01 -7.171981036663055420e-02 -3.669824600219726562e-01
3.101251721382141113e-01 -1.629242673516273499e-02 -3.913216590881347656e-01
5.897840484976768494e-02 -1.038183942437171936e-01 -8.118726611137390137e-01
-1.172624155879020691e-02 6.451063752174377441e-01 3.165684044361114502e-01
2.949405908584594727e-01 -2.879781424999237061e-01 -1.677173078060150146e-01
-3.393948376178741455e-01 -3.222953081130981445e-01 9.890247881412506104e-02
3.306634426116943359e-01 1.824718117713928223e-01 -2.873056828975677490e-01
-5.727266892790794373e-02 -6.086007356643676758e-01 4.229541718959808350e-01
-2.650995254516601562e-01 -5.286886096000671387e-01 1.599547266960144043e-01
-1.537011116743087769e-01 4.248705804347991943e-01 5.059887766838073730e-01
-9.830957651138305664e-02 -3.069511950016021729e-01 7.177417278289794922e-01
2.620025575160980225e-01 -2.692893147468566895e-01 -3.933534324169158936e-01
-2.734704911708831787e-01 -4.079858064651489258e-01 -3.836927115917205811e-01
3.115163147449493408e-01 3.125765323638916016e-01 -2.995776236057281494e-01
2.389117479324340820e-01 1.755383759737014771e-01 -6.068731546401977539e-01
3.274591267108917236e-01 3.329227268695831299e-01 -1.403040587902069092e-01
-3.318797945976257324e-01 1.021404266357421875e-01 -2.925476431846618652e-01
1.588721722364425659e-01 -5.387743115425109863e-01 -2.819759845733642578e-01
-2.837246954441070557e-01 -2.640053033828735352e-01 4.574813842773437500e-01
-3.074627816677093506e-01 2.936588525772094727e-01 1.096057072281837463e-01
-1.573993265628814697e-01 1.660676598548889160e-01 -7.300158739089965820e-01
3.520286381244659424e-01 1.024829782545566559e-02 3.522332757711410522e-02
2.849413156509399414e-01 -3.099500834941864014e-01 1.934884935617446899e-01
2.751241922378540039e-01 4.954122006893157959e-01 -1.734411716461181641e-01
-2.940765023231506348e-01 3.586703911423683167e-02 4.596492648124694824e-01
-3.018566668033599854e-01 3.192310929298400879e-01 -1.241372227668762207e-01
2.142757028341293335e-01 4.180921018123626709e-01 -5.196359157562255859e-01
1.720554828643798828e-01 6.463569402694702148e-01 1.393158584833145142e-01
2.394582778215408325e-01 3.572939634323120117e-01 -5.164964199066162109e-01
-3.313213288784027100e-01 1.655581742525100708e-01 1.794120222330093384e-01
3.519838750362396240e-01 2.362815896049141884e-03 6.372286938130855560e-03
2.282352447509765625e-01 -2.873354852199554443e-01 4.781102538108825684e-01
3.293142318725585938e-01 2.469996064901351929e-01 -2.532502412796020508e-01
-9.426994249224662781e-03 -6.591620445251464844e-01 2.951634526252746582e-01
-2.044813483953475952e-01 -6.295887827873229980e-01 8.881177753210067749e-02
-2.717622369527816772e-02 3.470620214939117432e-01 6.981674432754516602e-01
-3.537955880165100098e-01 -8.676290512084960938e-02 -2.174250185489654541e-01
-1.319324374198913574e-01 1.719459891319274902e-01 7.204869985580444336e-01
7.760184258222579956e-02 -1.597943603992462158e-01 -7.853513956069946289e-01
2.445611208677291870e-01 -1.984583139419555664e-01 5.060442090034484863e-01
-3.051692247390747070e-01 3.130229115486145020e-01 5.108776688575744629e-02
1.683226525783538818e-01 -2.168327569961547852e-01 6.516118645668029785e-01
-1.508595496416091919e-01 2.878220677375793457e-01 6.365903615951538086e-01
1.276157498359680176e-01 5.190228223800659180e-01 -5.421793460845947266e-01
-2.248785197734832764e-01 -1.250128448009490967e-01 -6.627608537673950195e-01
-1.937058120965957642e-01 -3.147129714488983154e-01 6.201491355895996094e-01
3.085420429706573486e-01 -4.135508835315704346e-02 3.734082877635955811e-01
-2.981981635093688965e-01 3.345991298556327820e-02 4.465406537055969238e-01
3.474816083908081055e-01 2.720924839377403259e-02 1.417658179998397827e-01
2.880102396011352539e-01 1.872866600751876831e-01 4.502916634082794189e-01
-1.383973360061645508e-01 -2.032353878021240234e-01 -7.522734999656677246e-01
-1.548919975757598877e-01 -3.767259716987609863e-01 -6.443587541580200195e-01
1.625549048185348511e-02 6.964703202247619629e-01 1.570615619421005249e-01
-2.916198968887329102e-02 6.620992422103881836e-01 2.493907362222671509e-01
3.295804560184478760e-01 3.428328037261962891e-01 2.882478013634681702e-02
-3.004482090473175049e-01 3.318966925144195557e-01 1.272771973162889481e-02
-1.725102663040161133e-01 -5.709927678108215332e-01 3.810193836688995361e-01
1.972030550241470337e-01 -4.914053082466125488e-01 2.522905468940734863e-01
3.738475218415260315e-02 6.912533640861511230e-01 1.887649446725845337e-01
-2.028061300516128540e-01 9.515062719583511353e-02 6.541125774383544922e-01
-2.437622398138046265e-01 2.164593189954757690e-01 -5.506626367568969727e-01
1.568548232316970825e-01 -4.239737391471862793e-01 4.965577721595764160e-01
-1.787416636943817139e-01 2.240270227193832397e-01 6.362166404724121094e-01
-1.706961095333099365e-01 -1.010253429412841797e-01 7.180852293968200684e-01
-4.238619469106197357e-03 6.890565156936645508e-01 -2.264362573623657227e-01
1.759895086288452148e-01 -3.760441765189170837e-02 6.994798183441162109e-01
2.600792646408081055e-01 -2.916034460067749023e-01 -3.725933730602264404e-01
-2.280975878238677979e-01 2.842171192169189453e-01 4.949250817298889160e-01
-3.147366642951965332e-01 -4.158434867858886719e-01 1.192096844315528870e-01
2.062633484601974487e-01 4.437956959009170532e-02 6.597885489463806152e-01
1.753160804510116577e-01 -5.430323481559753418e-01 -1.899952739477157593e-01
-3.515944480895996094e-01 1.051576808094978333e-01 -1.321630552411079407e-04
3.209456801414489746e-02 -6.892648935317993164e-01 -6.733438372611999512e-02
1.397517621517181396e-01 6.857869029045104980e-01 -9.322158060967922211e-03
1.934439390897750854e-01 2.248776145279407501e-02 -7.001687884330749512e-01
-3.615103960037231445e-01 -1.777217239141464233e-01 -2.141505107283592224e-02
2.802723273634910583e-02 -5.028066635131835938e-01 5.617132186889648438e-01
-1.613736599683761597e-01 -6.483128070831298828e-01 2.019287794828414917e-01
6.209504790604114532e-03 7.120215892791748047e-01 -5.611842498183250427e-04
-3.243632018566131592e-01 -4.775501787662506104e-02 -3.953792154788970947e-01
-2.743647620081901550e-02 7.088254392147064209e-02 -8.361347317695617676e-01
1.555305626243352890e-02 3.623493909835815430e-01 6.955630779266357422e-01
-2.932369112968444824e-01 3.518685102462768555e-01 -7.910032570362091064e-02
-1.126251444220542908e-01 -4.739810153841972351e-02 -8.027276992797851562e-01
-1.723031550645828247e-01 4.560405015945434570e-02 -7.420718073844909668e-01
2.924748361110687256e-01 -1.805334389209747314e-01 -3.612264394760131836e-01
1.458188295364379883e-01 3.020711839199066162e-01 6.700108647346496582e-01
1.931366771459579468e-01 6.410833001136779785e-01 -5.934274196624755859e-02
-2.328233569860458374e-01 2.165486365556716919e-01 -5.771628618240356445e-01
-6.496135890483856201e-02 4.339098334312438965e-01 -6.493658423423767090e-01
6.291922926902770996e-02 -6.648528575897216797e-01 1.408687382936477661e-01
-2.304693758487701416e-01 -5.959696769714355469e-01 -1.126054599881172180e-01
-3.539467155933380127e-01 6.381223350763320923e-02 8.329353481531143188e-02
3.079284727573394775e-01 1.725992858409881592e-01 -4.056358933448791504e-01
-1.783910840749740601e-01 -2.391702532768249512e-01 6.763739585876464844e-01
1.979983150959014893e-01 -4.187129139900207520e-01 4.020226001739501953e-01
2.734457254409790039e-01 -2.056255340576171875e-01 -4.171068966388702393e-01
-3.119344711303710938e-01 -4.413994848728179932e-01 -1.397889479994773865e-02
1.601762771606445312e-01 -4.231865108013153076e-01 -4.949713647365570068e-01
-4.679628461599349976e-02 6.391353011131286621e-01 2.953922748565673828e-01
-3.180685937404632568e-01 -2.055769599974155426e-02 3.858009278774261475e-01
-2.152619510889053345e-01 -2.786438167095184326e-02 -6.862388253211975098e-01
1.952600777149200439e-01 -2.679384350776672363e-01 -5.817161798477172852e-01
8.672729134559631348e-03 -2.078187465667724609e-01 7.802091240882873535e-01
1.587698459625244141e-01 3.760521113872528076e-01 -6.433551907539367676e-01
1.670949906110763550e-01 4.589869976043701172e-01 -5.612729787826538086e-01
3.252285420894622803e-01 3.545437157154083252e-01 -1.038500741124153137e-01
1.371510028839111328e-01 3.922292292118072510e-01 6.193708181381225586e-01
2.329304069280624390e-01 -2.744826115667819977e-02 6.038051843643188477e-01
1.413122564554214478e-01 3.533642888069152832e-01 6.434634923934936523e-01
-2.757839262485504150e-01 2.087799310684204102e-01 4.208813607692718506e-01
-2.588387727737426758e-01 4.106850922107696533e-01 -2.252688258886337280e-01
-2.894226908683776855e-01 -4.889595806598663330e-01 1.071496829390525818e-01
3.142325580120086670e-01 -2.247091829776763916e-01 1.293606907129287720e-01
-2.767340540885925293e-01 3.882884085178375244e-01 -1.395729929208755493e-01
-1.783899813890457153e-01 5.693680644035339355e-01 -1.568187326192855835e-01
3.288089036941528320e-01 3.446625769138336182e-01 -7.081753760576248169e-02
8.566209673881530762e-02 3.085061013698577881e-01 -7.466309666633605957e-01
3.330906629562377930e-01 -6.419450044631958008e-02 -2.290934324264526367e-01
2.671177387237548828e-01 1.481271535158157349e-01 -5.456172823905944824e-01
2.628863751888275146e-01 -3.894760310649871826e-01 1.330430954694747925e-01
5.526717752218246460e-02 5.417141914367675781e-01 -5.605154633522033691e-01
-1.781362742185592651e-01 3.493614494800567627e-01 -5.864222645759582520e-01
-1.309616714715957642e-01 6.130864620208740234e-01 1.673447191715240479e-01
2.206473797559738159e-01 -5.238776095211505890e-03 -6.500611901283264160e-01
3.147353231906890869e-01 -1.157702654600143433e-01 2.959337234497070312e-01
-3.071883916854858398e-01 -4.549815058708190918e-01 -2.058080211281776428e-02
2.607415914535522461e-01 -3.179163439199328423e-03 5.433203577995300293e-01
-2.965409159660339355e-01 8.711959421634674072e-02 -4.672744870185852051e-01
1.647052019834518433e-01 -4.906966686248779297e-01 -3.758002817630767822e-01
-3.603517711162567139e-01 1.522100251168012619e-02 3.146205469965934753e-02
-2.593418359756469727e-01 -5.598565936088562012e-01 -1.463556755334138870e-02
-2.029007822275161743e-01 -5.316722989082336426e-01 3.881008625030517578e-01
2.825891077518463135e-01 -3.292145133018493652e-01 1.573951840400695801e-01
-1.984903365373611450e-01 -6.212716698646545410e-01 1.750421971082687378e-01
-3.604846298694610596e-01 1.837714761495590210e-02 -5.044003576040267944e-02
-3.271495997905731201e-01 -9.732573479413986206e-02 -3.824525177478790283e-01
-2.135685384273529053e-01 -5.565412640571594238e-01 3.135843873023986816e-01
3.410817384719848633e-01 -5.705250799655914307e-02 1.439271271228790283e-01
2.502948790788650513e-02 -4.773568212985992432e-01 5.930102467536926270e-01
-2.037758380174636841e-01 -5.302458405494689941e-01 -3.989319503307342529e-01
3.176248669624328613e-01 1.981723010540008545e-01 3.288697600364685059e-01
-1.598147861659526825e-02 1.535227000713348389e-01 7.921243906021118164e-01
-1.524725705385208130e-01 1.216295734047889709e-01 -7.499357461929321289e-01
-1.767251491546630859e-01 -6.219263076782226562e-01 -2.568874657154083252e-01
-3.041617274284362793e-01 -2.787425816059112549e-01 3.783028125762939453e-01
-3.351886868476867676e-01 1.067231502383947372e-02 2.933856844902038574e-01
1.940352022647857666e-01 -1.106543689966201782e-01 6.555393934249877930e-01
-5.580262094736099243e-02 1.115506738424301147e-01 7.917712330818176270e-01
7.744416594505310059e-03 -6.738660931587219238e-01 2.276799976825714111e-01
-3.337072432041168213e-01 1.864110827445983887e-01 1.084677875041961670e-01
4.639108851552009583e-02 -3.544077277183532715e-01 -7.009546756744384766e-01
2.634138464927673340e-01 5.247157812118530273e-01 1.201013699173927307e-01
-2.245991080999374390e-01 -2.891363799571990967e-01 5.834619998931884766e-01
-3.407393991947174072e-01 -2.438891977071762085e-01 -2.389484941959381104e-01
2.023644000291824341e-01 6.267412900924682617e-01 -1.114281341433525085e-01
-3.049826622009277344e-01 -1.247731409966945648e-02 4.347482323646545410e-01
-5.955761298537254333e-02 -6.955706477165222168e-01 -1.643372923135757446e-01
-1.418153941631317139e-01 -6.789481639862060547e-01 1.028657034039497375e-01
3.493587076663970947e-01 1.727824807167053223e-01 9.566611051559448242e-02
-2.275873869657516479e-01 -2.636087238788604736e-01 -6.119788885116577148e-01
2.856833636760711670e-01 -3.377090692520141602e-01 7.321047037839889526e-02
-2.850378453731536865e-01 -4.721287786960601807e-01 2.024168372154235840e-01
-2.950533628463745117e-01 -3.165922462940216064e-01 3.835123777389526367e-01
2.354969084262847900e-01 9.503362327814102173e-02 -6.257908940315246582e-01
2.353672385215759277e-01 -4.298203587532043457e-01 -2.209555357694625854e-01
-1.588030606508255005e-01 -1.200305446982383728e-01 7.292828559875488281e-01
-2.952356338500976562e-01 -3.785808980464935303e-01 3.183574378490447998e-01
1.945113688707351685e-01 -5.163553953170776367e-01 1.804373711347579956e-01
2.206641882658004761e-01 2.626186311244964600e-01 5.845620036125183105e-01
-3.110356628894805908e-01 -4.287239611148834229e-01 1.150631085038185120e-01
3.076325953006744385e-01 -1.209864020347595215e-01 -3.419312536716461182e-01
-3.477952629327774048e-02 5.206663608551025391e-01 5.270470976829528809e-01
-3.181156516075134277e-02 7.011891603469848633e-01 -4.393897950649261475e-02
-1.040465384721755981e-01 6.432971954345703125e-01 1.389873921871185303e-01
-1.634009927511215210e-01 -5.987986922264099121e-01 -3.481142222881317139e-01
1.313869953155517578e-01 -5.715372562408447266e-01 2.847201228141784668e-01
3.159850463271141052e-02 5.606110095977783203e-01 4.924403429031372070e-01
2.791333794593811035e-01 4.158090054988861084e-01 -3.277604877948760986e-01
-1.559004485607147217e-01 -5.594897270202636719e-01 4.284732341766357422e-01
-2.423288822174072266e-01 2.555273473262786865e-01 4.831496775150299072e-01
1.772954761981964111e-01 -5.622227787971496582e-01 -8.851861581206321716e-03
3.391632437705993652e-01 -1.118062362074851990e-01 5.815315991640090942e-02
-3.410963714122772217e-01 -2.901644706726074219e-01 -1.738356947898864746e-01
1.911311224102973938e-02 4.589937254786491394e-02 8.118503689765930176e-01
-2.733104825019836426e-01 -5.010938644409179688e-01 1.965045779943466187e-01
-3.007385134696960449e-01 -4.684121012687683105e-01 -7.492676377296447754e-02
3.112456798553466797e-01 3.869531750679016113e-01 1.501596570014953613e-01
-7.319128513336181641e-02 6.147778034210205078e-01 -3.700589835643768311e-01
-5.830490216612815857e-02 6.582376956939697266e-01 2.139896005392074585e-01
-3.447827696800231934e-01 -2.494508177042007446e-01 -1.987569928169250488e-01
-3.247647583484649658e-01 -3.029715716838836670e-01 2.587719559669494629e-01
1.218647733330726624e-01 6.533545255661010742e-01 -2.964934408664703369e-01
-3.495392501354217529e-01 -1.791925877332687378e-01 1.942272931337356567e-01
-3.519831001758575439e-01 3.105019219219684601e-02 -1.900409311056137085e-01
-1.681077629327774048e-01 3.908914029598236084e-01 5.187617540359497070e-01
2.026377916336059570e-01 -3.544754385948181152e-01 4.756484925746917725e-01
-1.114213019609451294e-01 -5.921472907066345215e-01 -4.297171533107757568e-01
-3.261083960533142090e-01 2.273191809654235840e-01 -1.332684755325317383e-01
1.367633491754531860e-01 1.003564447164535522e-01 7.450240254402160645e-01
2.535790205001831055e-01 2.226452380418777466e-01 5.328459739685058594e-01
-2.979170680046081543e-01 1.523609459400177002e-01 -4.237046241760253906e-01
1.739505678415298462e-02 -7.211215049028396606e-02 -8.319396972656250000e-01
-2.874749302864074707e-01 -4.863165318965911865e-01 1.391313225030899048e-01
3.074522614479064941e-01 -2.173641473054885864e-01 -2.227283716201782227e-01
1.073595583438873291e-01 6.895505785942077637e-01 1.282324343919754028e-01
-2.840550541877746582e-01 -1.383430957794189453e-01 -5.292019844055175781e-01
-1.995434165000915527e-01 5.198188424110412598e-01 1.919182538986206055e-01
1.345731914043426514e-01 -5.810107588768005371e-01 2.434312254190444946e-01
-3.191883265972137451e-01 1.027536615729331970e-01 3.260056972503662109e-01
-2.717664539813995361e-01 1.131406798958778381e-02 -5.649399161338806152e-01
-3.218947052955627441e-01 -2.153111696243286133e-01 -3.684080839157104492e-01
-2.571400403976440430e-01 2.815669476985931396e-01 -4.564591646194458008e-01
2.643466889858245850e-01 3.642535507678985596e-01 4.109343588352203369e-01
-3.419836759567260742e-01 -3.115993440151214600e-01 -1.126869767904281616e-01
-2.646157741546630859e-01 -3.737460374832153320e-01 4.317820668220520020e-01
7.163794338703155518e-02 -3.704085350036621094e-01 -6.707113385200500488e-01
1.153209581971168518e-01 6.759439110755920410e-01 -2.270267754793167114e-01
1.099648997187614441e-01 -5.006588101387023926e-01 4.764800369739532471e-01
3.510730862617492676e-01 1.539848446846008301e-01 8.309680968523025513e-02
-3.508524000644683838e-01 -2.696640491485595703e-01 -7.121226191520690918e-02
-3.522758185863494873e-01 -4.782480746507644653e-02 -2.277016937732696533e-01
2.483759969472885132e-01 1.060985997319221497e-01 -5.971043109893798828e-01
8.021184802055358887e-02 7.087804675102233887e-01 3.735818341374397278e-02
4.249570518732070923e-02 -5.727664232254028320e-01 4.476619362831115723e-01
1.520781517028808594e-01 6.540641784667968750e-01 1.783907562494277954e-01
-8.271530270576477051e-02 6.646058559417724609e-01 -1.596807837486267090e-01
5.537554621696472168e-02 -6.787036657333374023e-01 4.543108120560646057e-02
3.010869622230529785e-01 3.741422593593597412e-01 -2.790091931819915771e-01
-1.231497526168823242e-01 -2.673490941524505615e-01 -7.384712100028991699e-01
2.128620892763137817e-01 -3.194099068641662598e-01 -4.941564202308654785e-01
3.427984118461608887e-01 2.339733839035034180e-01 1.146633252501487732e-01
-1.927603185176849365e-01 3.543393909931182861e-01 5.085387229919433594e-01
2.428682744503021240e-01 4.273394644260406494e-01 4.059847593307495117e-01
-2.396705746650695801e-01 -1.578685194253921509e-01 6.027935147285461426e-01
-1.654538214206695557e-01 -6.545678377151489258e-01 1.590324640274047852e-01
2.554483413696289062e-01 5.278859138488769531e-01 1.684889346361160278e-01
8.425695449113845825e-02 7.085879445075988770e-01 2.391179278492927551e-02
-3.325829207897186279e-01 1.718090772628784180e-01 1.558695137500762939e-01
3.386424779891967773e-01 -3.447951376438140869e-02 1.930370777845382690e-01
-3.160458207130432129e-01 -3.577820956707000732e-01 2.393172234296798706e-01
-2.685151696205139160e-01 -2.653543353080749512e-01 4.994806647300720215e-01
3.427300751209259033e-01 -6.549834460020065308e-02 1.074978336691856384e-01
8.648347109556198120e-02 7.062798738479614258e-01 -9.977395832538604736e-02
2.940167188644409180e-01 4.032030403614044189e-01 -2.726671397686004639e-01
2.833757996559143066e-01 -2.951437532901763916e-01 -2.454981654882431030e-01
6.816577911376953125e-02 3.760746419429779053e-01 -7.146605253219604492e-01
4.639061540365219116e-02 8.360654860734939575e-02 -8.291186690330505371e-01
-3.523530960083007812e-01 7.069133967161178589e-02 9.784176945686340332e-02
2.751674056053161621e-01 4.486785233020782471e-01 2.571094632148742676e-01
-3.239769116044044495e-02 3.650175333023071289e-01 6.834377646446228027e-01
-9.735738486051559448e-02 -5.763968229293823242e-01 4.620484113693237305e-01
2.585281133651733398e-01 -3.695318102836608887e-01 -2.386044710874557495e-01
3.060883283615112305e-01 -2.734647691249847412e-01 -5.481646955013275146e-02
-2.496530264616012573e-01 3.665112853050231934e-01 3.256743550300598145e-01
3.104588389396667480e-01 3.729676306247711182e-01 -2.188220918178558350e-01
-3.484203815460205078e-01 1.195698902010917664e-01 4.884818196296691895e-02
6.325192004442214966e-02 -5.203864574432373047e-01 -5.130025744438171387e-01
6.023468449711799622e-02 4.502149671316146851e-02 -8.262797594070434570e-01
-8.765697479248046875e-02 -1.058687418699264526e-01 7.873989939689636230e-01
3.041917383670806885e-01 3.381951451301574707e-01 2.807186841964721680e-01
-2.971608936786651611e-01 -2.670542597770690918e-01 4.119595587253570557e-01
-2.440448105335235596e-01 5.104168877005577087e-02 -6.226183176040649414e-01
2.054715454578399658e-01 -3.570140898227691650e-01 -4.707496762275695801e-01
3.058082759380340576e-01 2.876217365264892578e-01 -3.523379266262054443e-01
2.526007890701293945e-01 3.307815790176391602e-01 -5.035142302513122559e-01
3.134326934814453125e-01 -1.816143095493316650e-01 -2.373163253068923950e-01
3.621457144618034363e-02 -3.652897179126739502e-01 -6.982954144477844238e-01
-1.635081917047500610e-01 5.889179706573486328e-01 1.019092723727226257e-01
-2.935078442096710205e-01 -3.361231982707977295e-01 3.718909025192260742e-01
-3.137806355953216553e-01 1.782156825065612793e-01 -3.259074091911315918e-01
9.592246264219284058e-03 -4.198789894580841064e-01 6.556662917137145996e-01
1.552868038415908813e-01 -3.677231669425964355e-01 5.619114637374877930e-01
-3.604571223258972168e-01 -5.271569825708866119e-03 -1.017234772443771362e-01
-2.435826510190963745e-01 -5.847474932670593262e-01 2.168152108788490295e-02
3.417930006980895996e-01 2.699300646781921387e-01 -7.234757393598556519e-02
1.499792486429214478e-01 -1.014992445707321167e-01 7.200736403465270996e-01
-2.847765982151031494e-01 -1.514516919851303101e-01 -5.241557359695434570e-01
2.988258600234985352e-01 2.519058287143707275e-01 3.808380067348480225e-01
2.142174839973449707e-01 -4.766810238361358643e-01 -2.037156224250793457e-01
1.969338208436965942e-01 -4.779238998889923096e-01 2.898267507553100586e-01
-3.012211918830871582e-01 1.587606221437454224e-01 3.654172420501708984e-01
2.216216176748275757e-01 4.430832564830780029e-01 -4.773235321044921875e-01
-3.555104732513427734e-01 -6.719312816858291626e-02 1.678481698036193848e-01
2.949942946434020996e-01 2.534028589725494385e-01 3.945707082748413086e-01
3.523274660110473633e-01 6.740511208772659302e-02 -1.027654185891151428e-01
-6.190717965364456177e-02 5.118126273155212402e-01 5.182481408119201660e-01
-1.500961184501647949e-01 -4.892880097031593323e-03 -7.713939547538757324e-01
4.872547835111618042e-02 7.112492322921752930e-01 6.213712692260742188e-02
3.121275603771209717e-01 1.679633259773254395e-01 -3.891492784023284912e-01
1.554646641016006470e-01 4.205319881439208984e-01 -6.127153635025024414e-01
3.188297152519226074e-01 -1.711588352918624878e-01 -2.102933079004287720e-01
2.882094383239746094e-01 3.610526621341705322e-01 3.284692764282226562e-01
3.355446457862854004e-01 -1.416127681732177734e-01 1.054615247994661331e-02
-2.598503828048706055e-01 -5.148233771324157715e-01 2.340924739837646484e-01
-1.037612855434417725e-01 5.426022410392761230e-01 -4.687757492065429688e-01
2.975169420242309570e-01 -2.911767959594726562e-01 1.202920302748680115e-01
1.111053209751844406e-02 -2.583041787147521973e-01 -7.742228507995605469e-01
-2.366015315055847168e-02 1.053879335522651672e-01 8.023681640625000000e-01
1.369573175907135010e-01 6.876510567963123322e-03 7.493376135826110840e-01
3.304468095302581787e-01 2.275499701499938965e-01 2.370064109563827515e-01
-3.160035014152526855e-01 2.176241427659988403e-01 2.160106748342514038e-01
3.230133950710296631e-01 2.544594109058380127e-01 -2.883367240428924561e-01
2.031497806310653687e-01 -6.830531358718872070e-02 6.518250703811645508e-01
-2.225742340087890625e-01 -1.052653193473815918e-01 -6.697755455970764160e-01
-9.055384248495101929e-02 -1.252318918704986572e-01 -8.057982921600341797e-01
-1.875329464673995972e-01 -6.495344638824462891e-01 5.610504746437072754e-02
2.105959653854370117e-01 -4.208270907402038574e-01 -3.595720529556274414e-01
2.765885740518569946e-02 -6.481083631515502930e-01 2.920134663581848145e-01
-1.829181611537933350e-01 -5.157075524330139160e-01 -4.623775780200958252e-01
-1.662938445806503296e-01 -1.438522525131702423e-02 7.248750329017639160e-01
-3.015679717063903809e-01 -4.590357244014739990e-01 -1.185977160930633545e-01
-3.829377517104148865e-02 -6.191161870956420898e-01 -4.057112038135528564e-01
-2.452774941921234131e-01 2.715715765953063965e-01 4.603145122528076172e-01
1.853677034378051758e-01 -2.806732952594757080e-01 5.823121070861816406e-01
2.720621526241302490e-01 5.172662734985351562e-01 -9.727597236633300781e-02
1.220758035778999329e-01 -3.680626153945922852e-01 -6.190592050552368164e-01
1.630043834447860718e-01 4.638941586017608643e-01 5.236818194389343262e-01
-2.753403186798095703e-01 -3.240470290184020996e-01 4.429238736629486084e-01
2.560972273349761963e-01 -1.849192231893539429e-01 -4.929410219192504883e-01
4.551307857036590576e-02 5.324265360832214355e-01 5.304412841796875000e-01
-1.826170384883880615e-01 5.737587213516235352e-01 -1.496543362736701965e-02
-2.433609366416931152e-01 3.512900173664093018e-01 3.733375668525695801e-01
1.512632817029953003e-01 -3.242160379886627197e-01 6.069453358650207520e-01
-4.418268054723739624e-02 -4.833921790122985840e-01 6.013914346694946289e-01
-3.140726685523986816e-01 1.775054186582565308e-01 2.842253148555755615e-01
3.218872249126434326e-01 1.380108296871185303e-01 3.296056687831878662e-01
-2.870175242424011230e-01 -4.754933714866638184e-02 -5.288950204849243164e-01
3.178665041923522949e-01 2.664197385311126709e-01 2.821418046951293945e-01
2.829188406467437744e-01 4.386151954531669617e-02 4.861574470996856689e-01
3.078904449939727783e-01 3.181398808956146240e-01 -3.132942616939544678e-01
-1.406604982912540436e-02 2.398644089698791504e-01 -7.961751818656921387e-01
-1.784424781799316406e-01 4.719630181789398193e-01 -4.324418306350708008e-01
7.061543315649032593e-02 -4.860160052776336670e-01 5.479539036750793457e-01
-1.153858527541160583e-01 1.934009641408920288e-01 -7.634197473526000977e-01
3.275027871131896973e-01 -1.788524240255355835e-01 -7.621555775403976440e-02
-7.841536402702331543e-02 -5.325258970260620117e-01 -5.423166155815124512e-01
-3.445348143577575684e-01 4.678155109286308289e-02 2.098165750503540039e-01
-1.804577112197875977e-01 -4.984163939952850342e-01 -4.902074337005615234e-01
-2.202706336975097656e-01 -5.902896523475646973e-01 -2.049236297607421875e-01
1.801435947418212891e-01 -5.295553207397460938e-01 -2.156113982200622559e-01
-2.564820051193237305e-01 2.230060249567031860e-01 4.704621434211730957e-01
3.170056641101837158e-01 -1.747610569000244141e-01 2.105030268430709839e-01
-2.142605632543563843e-01 4.370211660861968994e-01 -3.842082321643829346e-01
1.263040304183959961e-01 -5.933797955513000488e-01 2.313153445720672607e-01
3.483341038227081299e-01 1.813870966434478760e-01 -1.254387497901916504e-01
2.120852023363113403e-01 -2.913123071193695068e-01 5.163852572441101074e-01
-1.220620125532150269e-01 -6.814802885055541992e-01 1.546266376972198486e-01
2.862448394298553467e-01 -3.249491453170776367e-01 -1.362174302339553833e-01
-2.140080481767654419e-01 -1.044541075825691223e-01 6.569970250129699707e-01
-2.485447078943252563e-01 4.260394275188446045e-01 -2.497464716434478760e-01
2.189813852310180664e-01 -1.337623409926891327e-02 6.335743069648742676e-01
-1.578272432088851929e-01 5.438749194145202637e-01 2.948038876056671143e-01
-3.272943794727325439e-01 6.029567494988441467e-02 3.120457530021667480e-01
2.731378972530364990e-01 -1.989437639713287354e-01 4.147716760635375977e-01
-1.014573201537132263e-01 4.424467682838439941e-01 -6.070355176925659180e-01
-1.960373222827911377e-01 5.543284416198730469e-01 -5.278347432613372803e-02
3.414019048213958740e-01 4.221079871058464050e-02 2.092487215995788574e-01
-2.882869839668273926e-01 -2.036064304411411285e-02 4.907970428466796875e-01
-2.874157726764678955e-01 -2.121047303080558777e-02 -5.259433388710021973e-01
2.019401341676712036e-01 -2.530754208564758301e-01 5.696729421615600586e-01
3.127952814102172852e-01 -2.215777188539505005e-01 -1.634267866611480713e-01
2.062818109989166260e-01 -2.300090044736862183e-01 5.763978958129882812e-01
-2.091469168663024902e-01 -1.874526441097259521e-01 6.497227549552917480e-01
4.756107553839683533e-02 -5.113177299499511719e-01 -5.409484505653381348e-01
2.488204985857009888e-01 2.115953713655471802e-01 5.483495593070983887e-01
2.957633435726165771e-01 4.092963635921478271e-01 -2.510541379451751709e-01
4.908918589353561401e-02 7.048071026802062988e-01 1.155551150441169739e-01
-2.591452300548553467e-01 -2.372913211584091187e-01 5.360516905784606934e-01
1.452647000551223755e-01 -5.316367149353027344e-01 -3.448680043220520020e-01
2.969608083367347717e-02 2.374143302440643311e-01 7.637761235237121582e-01
-2.000840380787849426e-02 -6.569457054138183594e-01 -3.079152405261993408e-01
2.065868526697158813e-01 -4.562146961688995361e-01 3.004552125930786133e-01
2.655050754547119141e-01 -2.981998324394226074e-01 -3.393825590610504150e-01
1.896139383316040039e-01 2.996543645858764648e-01 6.169662475585937500e-01
-1.285089701414108276e-01 5.711032748222351074e-01 3.109436035156250000e-01
-1.260237395763397217e-01 -6.824988722801208496e-01 -1.396973431110382080e-01
-1.079856827855110168e-01 5.842256173491477966e-02 -8.027494549751281738e-01
-3.093074262142181396e-01 8.643314242362976074e-02 -4.187049865722656250e-01
-3.612938225269317627e-01 1.005444303154945374e-02 -3.416734747588634491e-03
8.575022965669631958e-02 -6.361566781997680664e-01 -2.061876803636550903e-01
-1.187875941395759583e-01 4.536147713661193848e-01 5.269746780395507812e-01
3.097539395093917847e-02 5.214723944664001465e-01 5.456410646438598633e-01
1.313712000846862793e-01 4.874599725008010864e-02 -7.777683138847351074e-01
1.594541519880294800e-01 -1.032446473836898804e-01 7.080346345901489258e-01
-1.925946772098541260e-01 5.596614480018615723e-01 -1.056971400976181030e-02
2.761668264865875244e-01 1.341158747673034668e-01 5.004684329032897949e-01
-2.059621661901473999e-01 1.055045239627361298e-02 6.676132678985595703e-01
1.401806324720382690e-01 -3.809603750705718994e-01 -5.802843570709228516e-01
-4.382444918155670166e-02 -5.914927721023559570e-01 -4.590902924537658691e-01
9.005025029182434082e-02 3.233840763568878174e-01 7.013297080993652344e-01
-1.912016570568084717e-01 -3.544199168682098389e-01 -6.158109903335571289e-01
-2.551643252372741699e-01 4.129957258701324463e-01 1.960292011499404907e-01
-1.506548076868057251e-01 4.984749555587768555e-01 4.065100252628326416e-01
-1.197339668869972229e-01 3.947678506374359131e-01 -6.330010294914245605e-01
-1.014976352453231812e-01 -6.962158679962158203e-01 1.064365431666374207e-01
3.173134922981262207e-01 -2.155247628688812256e-01 1.153678074479103088e-01
1.442525684833526611e-01 6.199194192886352539e-01 -3.478774130344390869e-01
-2.879404127597808838e-01 -3.722897469997406006e-01 3.557834625244140625e-01
1.553971171379089355e-01 -2.561274170875549316e-01 6.484453678131103516e-01
-5.623008124530315399e-03 -2.846392095088958740e-01 7.495422959327697754e-01
2.653760612010955811e-01 1.288787275552749634e-01 -5.532301068305969238e-01
2.982710301876068115e-01 1.815455108880996704e-01 -4.405274987220764160e-01
3.166783750057220459e-01 -2.212647646665573120e-01 -1.123485267162322998e-01
-6.539379805326461792e-02 2.817180939018726349e-02 8.008235692977905273e-01
5.052985623478889465e-02 5.557420849800109863e-01 -5.426675081253051758e-01
1.757683604955673218e-01 -1.143624633550643921e-01 -6.984161138534545898e-01
2.277980744838714600e-01 -1.896472126245498657e-01 -5.653904080390930176e-01
-1.550238430500030518e-01 -6.085278987884521484e-01 -3.409623205661773682e-01
-3.461644649505615234e-01 -2.499070614576339722e-01 -1.846979707479476929e-01
-2.954682707786560059e-01 3.244097530841827393e-01 1.390474289655685425e-01
-8.817161619663238525e-02 -7.050865888595581055e-01 3.797273337841033936e-02
-2.337505817413330078e-01 -5.329407453536987305e-01 2.998135983943939209e-01
7.723420858383178711e-02 -5.353764295578002930e-01 -4.729765653610229492e-01
-3.262811303138732910e-01 -3.868869543075561523e-01 -8.892967551946640015e-02
8.590407669544219971e-02 2.129808217287063599e-01 7.549809813499450684e-01
-3.552618324756622314e-01 -2.364028692245483398e-01 -6.962960213422775269e-02
-3.446722328662872314e-01 1.169962435960769653e-01 1.224223300814628601e-01
3.150790035724639893e-01 2.660829722881317139e-01 2.974803745746612549e-01
-1.903001815080642700e-01 -4.271077513694763184e-01 5.418105721473693848e-01
3.539308607578277588e-01 1.390998810529708862e-01 -2.823313325643539429e-02
-3.500071465969085693e-01 -1.676087528467178345e-01 -2.254456430673599243e-01
-1.515888869762420654e-01 5.978019237518310547e-01 -1.857228577136993408e-01
2.403747141361236572e-01 -4.468871355056762695e-01 -1.025625243782997131e-01
8.528725057840347290e-02 -5.915464162826538086e-01 -3.487277030944824219e-01
3.291184306144714355e-01 3.467054069042205811e-01 1.137197297066450119e-02
-2.065549343824386597e-01 4.320748746395111084e-01 -4.182331562042236328e-01
-2.765761613845825195e-01 -2.666723728179931641e-01 -4.995325207710266113e-01
-2.266328781843185425e-01 2.889229059219360352e-01 -5.369250178337097168e-01
3.080293834209442139e-01 3.937377631664276123e-01 -1.939010322093963623e-01
-6.683322042226791382e-02 5.959346294403076172e-01 3.722590804100036621e-01
1.782529950141906738e-01 -4.674019217491149902e-01 3.785761594772338867e-01
3.212753534317016602e-01 -2.019901722669601440e-01 9.906441718339920044e-02
2.064585238695144653e-01 -2.934916317462921143e-01 -5.356656312942504883e-01
8.890024572610855103e-02 5.697864294052124023e-01 -5.053648948669433594e-01
-5.671898275613784790e-02 6.762885451316833496e-01 -1.866718232631683350e-01
2.829066514968872070e-01 -3.483560085296630859e-01 -5.447280034422874451e-02
2.969210743904113770e-01 3.844628036022186279e-01 -2.868025302886962891e-01
-2.298071384429931641e-01 1.259507685899734497e-01 5.931847691535949707e-01
-3.557422757148742676e-01 -2.279144525527954102e-01 5.695956200361251831e-02
6.456121057271957397e-02 5.941581130027770996e-01 -4.790298640727996826e-01
-3.099162578582763672e-01 -7.345752418041229248e-02 -4.544406831264495850e-01
-2.719401940703392029e-02 -6.669286489486694336e-01 2.799646854400634766e-01
2.662163078784942627e-01 4.168418645858764648e-01 -3.784909546375274658e-01
2.158441096544265747e-01 -4.142500758171081543e-01 3.492154479026794434e-01
3.144381344318389893e-01 -2.339394837617874146e-01 -9.905365109443664551e-02
-3.547158241271972656e-01 6.511843204498291016e-02 -1.022964790463447571e-01
2.460673004388809204e-01 5.684128403663635254e-01 4.274817183613777161e-02
-3.246083110570907593e-02 4.918083548545837402e-01 -6.094126701354980469e-01
1.660897955298423767e-02 -3.039305508136749268e-01 -7.479152083396911621e-01
-2.590514719486236572e-01 4.387972652912139893e-01 2.508897706866264343e-02
-2.308711707592010498e-01 4.315106272697448730e-01 -3.296235799789428711e-01
-2.268922179937362671e-01 -5.190121531486511230e-01 -3.600628674030303955e-01
-3.503354489803314209e-01 -7.740924507379531860e-02 -2.469487041234970093e-01
2.496186643838882446e-01 -7.885326445102691650e-02 -5.677436590194702148e-01
-7.331760972738265991e-02 -5.771493911743164062e-01 -4.782294631004333496e-01
-3.185075521469116211e-01 -4.186119735240936279e-01 -5.644576624035835266e-02
-3.421333059668540955e-02 6.836871504783630371e-01 -2.047386914491653442e-01
1.137990206480026245e-01 4.411441385746002197e-01 5.982044339179992676e-01
2.252767980098724365e-01 3.675754368305206299e-01 5.077610015869140625e-01
2.167081534862518311e-01 4.892078042030334473e-01 -4.308794736862182617e-01
-4.138085246086120605e-02 6.096166968345642090e-01 3.734070658683776855e-01
-3.406293690204620361e-01 -3.204745948314666748e-01 8.437224477529525757e-02
-5.197596177458763123e-02 3.291274607181549072e-01 6.995757222175598145e-01
-2.480246722698211670e-01 3.763169646263122559e-01 3.155546188354492188e-01
-3.920897096395492554e-02 -6.642144322395324707e-01 -2.920276522636413574e-01
-4.140601307153701782e-02 -1.072135716676712036e-01 8.041430711746215820e-01
-2.072598785161972046e-01 -2.642606794834136963e-01 -6.459996104240417480e-01
-8.585168048739433289e-03 -6.577643752098083496e-01 -2.988180518150329590e-01
-1.619530469179153442e-01 2.525987327098846436e-01 -6.835784912109375000e-01
2.312463223934173584e-01 -4.328820705413818359e-01 2.358431071043014526e-01
-2.833380997180938721e-01 -4.892455041408538818e-01 -1.779121607542037964e-01
-1.514874994754791260e-01 -8.051361143589019775e-02 7.409705519676208496e-01
1.413444727659225464e-01 6.743406653404235840e-01 -1.597920507192611694e-01
-1.902756094932556152e-01 -5.564931631088256836e-01 3.723948299884796143e-01
-2.784793674945831299e-01 3.913350403308868408e-01 -8.725683391094207764e-02
-1.526126563549041748e-01 -2.528125047683715820e-01 7.002044320106506348e-01
1.896680146455764771e-02 -4.667260348796844482e-01 6.074080467224121094e-01
-1.286216080188751221e-01 5.458353757858276367e-01 3.669309318065643311e-01
4.101758077740669250e-02 6.633374094963073730e-01 -3.354495763778686523e-01
-2.717990577220916748e-01 3.010936379432678223e-01 3.333575427532196045e-01
1.972246021032333374e-01 4.006922841072082520e-01 5.329983234405517578e-01
3.469095826148986816e-01 -1.736548542976379395e-02 -1.268874406814575195e-01
-1.779584288597106934e-01 -3.403850272297859192e-02 7.114302515983581543e-01
-1.487459689378738403e-01 4.363332390785217285e-01 5.007637143135070801e-01
-1.404852867126464844e-01 1.486454904079437256e-02 -7.798777818679809570e-01
-5.325487628579139709e-02 -7.049928903579711914e-01 9.869994223117828369e-02
-2.083560973405838013e-01 -9.512066841125488281e-02 6.668739318847656250e-01
2.270036339759826660e-01 -2.049149423837661743e-01 -5.573081970214843750e-01
1.750696450471878052e-01 5.625748038291931152e-01 3.660772144794464111e-01
3.824615105986595154e-02 3.459240794181823730e-01 7.053011059761047363e-01
2.581059038639068604e-01 1.947884857654571533e-01 -5.575429201126098633e-01
3.292705416679382324e-01 -1.672871112823486328e-01 7.768306136131286621e-02
-3.194212615489959717e-01 -2.926137149333953857e-01 -3.219463229179382324e-01
-2.514343261718750000e-01 -3.359605669975280762e-01 -5.172541141510009766e-01
2.395984828472137451e-01 -4.502689540386199951e-01 -8.964258432388305664e-02
-1.451331377029418945e-01 4.515530765056610107e-01 4.876998066902160645e-01
-2.727240324020385742e-01 -3.136293292045593262e-01 4.582727253437042236e-01
2.078834176063537598e-01 6.110965013504028320e-01 1.272325664758682251e-01
-2.295439243316650391e-01 3.684270977973937988e-01 -4.414550960063934326e-01
-2.361117899417877197e-01 -3.249717652797698975e-01 -5.590703487396240234e-01
-1.850823871791362762e-02 6.263200640678405762e-01 -4.067391753196716309e-01
3.276335000991821289e-01 3.615209832787513733e-03 2.933969497680664062e-01
-1.811457425355911255e-01 5.745062828063964844e-01 -7.345201820135116577e-02
2.781771123409271240e-01 4.762980341911315918e-01 1.759907603263854980e-01
-3.144254684448242188e-01 -9.164201468229293823e-02 4.060971736907958984e-01
2.010870873928070068e-01 2.507914006710052490e-01 6.237999796867370605e-01
2.879434227943420410e-01 4.715220928192138672e-01 -1.425047665834426880e-01
2.922712564468383789e-01 3.889043629169464111e-01 -3.048178851604461670e-01
2.955918014049530029e-02 -4.581835567951202393e-01 -6.175780892372131348e-01
-5.590965598821640015e-02 5.869556665420532227e-01 4.038522839546203613e-01
-7.546903938055038452e-02 -5.853647589683532715e-01 4.589990675449371338e-01
2.445575445890426636e-01 -4.278021454811096191e-01 1.548825204372406006e-01
2.415259629487991333e-01 2.691584639251232147e-02 -6.113484501838684082e-01
3.504475951194763184e-01 1.340203732252120972e-02 8.478331565856933594e-02
-3.133909702301025391e-01 2.332213073968887329e-01 -2.508092820644378662e-01
-3.294818103313446045e-01 -1.881220340728759766e-01 -3.460697531700134277e-01
2.631560564041137695e-01 -3.603760898113250732e-01 2.274629622697830200e-01
9.776388853788375854e-02 -2.396320104598999023e-01 7.225740551948547363e-01
-9.034772403538227081e-03 7.087127566337585449e-01 -7.560483645647764206e-03
2.044900879263877869e-02 7.022373080253601074e-01 1.272333264350891113e-01
-2.283493131399154663e-01 4.047350585460662842e-01 -3.905721306800842285e-01
3.386056721210479736e-01 2.970493137836456299e-01 -2.812365069985389709e-02
7.801409810781478882e-02 1.876686885952949524e-02 -8.174806833267211914e-01
-7.599603384733200073e-02 -2.644216455519199371e-02 -8.246477246284484863e-01
-1.168315559625625610e-01 6.050292253494262695e-01 -3.004001975059509277e-01
-3.238151371479034424e-01 7.060965895652770996e-02 -3.609903752803802490e-01
3.351722359657287598e-01 3.318272903561592102e-02 -2.711825966835021973e-01
4.668274149298667908e-02 5.098758339881896973e-01 5.582976341247558594e-01
2.518071532249450684e-01 4.472530484199523926e-01 3.528480231761932373e-01
1.733066439628601074e-01 5.412493348121643066e-01 4.061266481876373291e-01
-2.669059932231903076e-01 2.548955082893371582e-01 -4.506079852581024170e-01
-1.617268472909927368e-01 -3.489493429660797119e-01 6.407102346420288086e-01
2.991653382778167725e-01 4.504081010818481445e-01 5.596467107534408569e-02
2.397971153259277344e-01 -2.366060465574264526e-01 -4.999440908432006836e-01
1.259644776582717896e-01 -4.682075679302215576e-01 4.961780905723571777e-01
1.261393129825592041e-01 1.267135888338088989e-01 7.504215240478515625e-01
1.427478156983852386e-03 -6.907554864883422852e-01 1.535353809595108032e-01
2.071494460105895996e-01 6.198098063468933105e-01 -1.218510642647743225e-01
-6.153500452637672424e-02 6.793652772903442383e-01 9.551869332790374756e-02
-4.371148720383644104e-02 -7.099401354789733887e-01 1.062243524938821793e-02
1.195305660367012024e-01 3.438569009304046631e-01 6.691473722457885742e-01
-2.370260506868362427e-01 4.401250779628753662e-01 -2.789317071437835693e-01
1.522809267044067383e-01 -6.665720790624618530e-02 -7.430529594421386719e-01
-2.609445154666900635e-01 1.317361295223236084e-01 -5.550982952117919922e-01
-2.621491551399230957e-01 4.931783303618431091e-02 -5.814464688301086426e-01
-1.655712872743606567e-01 -3.036911413073539734e-02 7.264627218246459961e-01
2.489774301648139954e-02 4.003261923789978027e-01 -7.069898247718811035e-01
1.788465082645416260e-01 5.383991003036499023e-01 -4.411627352237701416e-01
2.580871880054473877e-01 4.660372138023376465e-01 -3.364255130290985107e-01
-1.184482201933860779e-01 -4.837826788425445557e-01 5.687894225120544434e-01
1.667874604463577271e-01 4.126479383558034897e-03 7.158074975013732910e-01
8.468920737504959106e-02 2.744736969470977783e-01 -7.633484601974487305e-01
3.148422241210937500e-01 3.159982562065124512e-01 2.477859407663345337e-01
-1.745614856481552124e-01 5.845265388488769531e-01 -3.282342851161956787e-02
2.057253718376159668e-01 4.905843138694763184e-01 4.168761074542999268e-01
-2.581215202808380127e-01 -3.775148987770080566e-01 -4.643258750438690186e-01
-1.420898884534835815e-01 5.898067951202392578e-01 2.138226926326751709e-01
-1.238589212298393250e-01 7.440842688083648682e-02 7.566754817962646484e-01
-2.985007464885711670e-01 2.884372770786285400e-01 -2.528499066829681396e-01
3.324502110481262207e-01 5.760888010263442993e-02 -2.946116328239440918e-01
-3.289911746978759766e-01 -3.838396966457366943e-01 2.384114079177379608e-03
-2.486169487237930298e-01 1.349604129791259766e-02 -6.196379065513610840e-01
3.361259400844573975e-01 2.880679965019226074e-01 -1.313074380159378052e-01
4.158106446266174316e-02 -3.416988998651504517e-02 8.078223466873168945e-01
2.206391543149948120e-01 -4.507920444011688232e-01 2.462065964937210083e-01
-8.552177995443344116e-02 2.493353188037872314e-02 7.911911010742187500e-01
-2.142358124256134033e-01 3.710969388484954834e-01 4.373476505279541016e-01
2.655838429927825928e-01 9.193208068609237671e-02 5.347381830215454102e-01
-6.789224594831466675e-02 -7.058307528495788574e-01 -7.938712090253829956e-02
-3.045350685715675354e-02 4.151342511177062988e-01 6.437253952026367188e-01
-1.712116152048110962e-01 5.704458355903625488e-01 1.506331264972686768e-01
2.440389692783355713e-01 4.546612501144409180e-01 3.670866191387176514e-01
3.259292244911193848e-01 -1.680049449205398560e-01 -1.411263495683670044e-01
5.687762424349784851e-02 -1.432379186153411865e-01 -8.025506138801574707e-01
-3.188983798027038574e-01 2.533233463764190674e-01 1.036375761032104492e-01
-2.139044106006622314e-01 2.730999886989593506e-01 -5.795078277587890625e-01
3.492745757102966309e-01 5.268506705760955811e-02 -1.470460742712020874e-01
2.424937859177589417e-02 6.327574253082275391e-01 -4.108119010925292969e-01
3.037769496440887451e-01 -2.454527616500854492e-01 -1.953229606151580811e-01
3.030886948108673096e-01 -2.369996905326843262e-01 -2.195529639720916748e-01
8.763148635625839233e-02 -5.913937687873840332e-01 3.445850312709808350e-01
2.615746557712554932e-01 -3.817557096481323242e-01 -1.797177046537399292e-01
1.303243041038513184e-01 6.815614104270935059e-01 -1.563139408826828003e-01
-3.634407520294189453e-01 -1.402886658906936646e-01 -3.468560427427291870e-02
2.931589484214782715e-01 3.603129982948303223e-01 3.076030611991882324e-01
1.948503777384757996e-02 -4.546843767166137695e-01 -6.265050172805786133e-01
2.915925979614257812e-01 2.821077704429626465e-01 3.880800008773803711e-01
3.285706788301467896e-02 5.784670710563659668e-01 -5.113017559051513672e-01
-2.832606732845306396e-01 -2.764007151126861572e-01 4.516796767711639404e-01
-3.523196578025817871e-01 3.207889571785926819e-02 1.490742862224578857e-01
2.733044028282165527e-01 3.115350902080535889e-01 -4.578576683998107910e-01
-3.184011876583099365e-01 -2.073974311351776123e-01 -3.880963623523712158e-01
1.175812259316444397e-01 6.107338070869445801e-01 3.626703917980194092e-01
2.613034099340438843e-02 -5.626645684242248535e-01 4.787533879280090332e-01
3.307769298553466797e-01 -5.864440277218818665e-02 2.387374192476272583e-01
-2.780348062515258789e-01 -3.510324656963348389e-01 -4.314441680908203125e-01
2.067999392747879028e-01 2.548307366669178009e-02 6.584888696670532227e-01
