-2.862660028040409088e-02 -6.262143850326538086e-01 1.073919609189033508e-01
-1.314636617898941040e-01 1.712079346179962158e-02 5.548503398895263672e-01
4.484530910849571228e-02 1.850486546754837036e-01 -9.231057763099670410e-01
-9.139548242092132568e-02 -4.278421401977539062e-01 4.741697311401367188e-01
-2.419760078191757202e-02 6.439265608787536621e-01 -7.897904515266418457e-02
-9.675388038158416748e-02 -1.865943223237991333e-01 -7.940379381179809570e-01
6.300581991672515869e-02 5.940589308738708496e-01 -1.312982290983200073e-01
4.101729765534400940e-02 -1.734697371721267700e-01 9.281189441680908203e-01
-1.336385458707809448e-01 9.962800890207290649e-02 -5.973686575889587402e-01
-1.245259791612625122e-01 1.464807838201522827e-01 -6.499527096748352051e-01
9.690928459167480469e-02 -1.487316936254501343e-01 7.607619166374206543e-01
-1.481820642948150635e-01 -2.695667743682861328e-01 -4.450312256813049316e-02
1.353391408920288086e-01 2.448249906301498413e-01 -3.392902314662933350e-01
-1.192920207977294922e-01 2.596317827701568604e-01 5.169632434844970703e-01
1.420607119798660278e-01 4.586610011756420135e-03 4.507126808166503906e-01
5.239866301417350769e-02 3.195496797561645508e-01 8.187696933746337891e-01
-3.270792216062545776e-02 5.351081490516662598e-01 5.254304409027099609e-01
-9.260612726211547852e-02 -5.302336812019348145e-01 -1.080115735530853271e-01
1.532157063484191895e-01 -1.110241115093231201e-01 -4.656094312667846680e-02
-5.049373954534530640e-02 -3.901024758815765381e-01 7.192620038986206055e-01
7.741008698940277100e-02 4.437490105628967285e-01 -5.476428270339965820e-01
7.333110272884368896e-02 4.412206709384918213e-01 5.905873179435729980e-01
9.867462515830993652e-02 -4.804195165634155273e-01 -6.539589911699295044e-02
1.919804140925407410e-02 -2.734807431697845459e-01 -9.007501602172851562e-01
1.564068347215652466e-01 6.319112330675125122e-02 -2.107606455683708191e-02
1.175217330455780029e-01 3.730770200490951538e-02 -6.441118121147155762e-01
1.426858454942703247e-01 -2.480183988809585571e-01 2.847631275653839111e-02
-6.948849558830261230e-02 -5.767494440078735352e-01 -1.647009551525115967e-01
1.074441988021135330e-02 -5.579742193222045898e-01 4.698355495929718018e-01
1.313778460025787354e-01 -9.868590533733367920e-02 -4.938851892948150635e-01
1.011089682579040527e-01 -6.258004158735275269e-02 -7.415975332260131836e-01
-1.111076027154922485e-01 4.654725492000579834e-01 -1.685804128646850586e-01
1.198640763759613037e-01 -4.688971117138862610e-02 6.592844724655151367e-01
9.929579496383666992e-02 -4.801598489284515381e-01 -2.942634001374244690e-02
1.542850881814956665e-01 -9.605151414871215820e-02 -6.220303010195493698e-03
-1.185191273689270020e-01 3.834453225135803223e-01 -3.861367702484130859e-01
7.773539423942565918e-02 -2.894562184810638428e-01 -7.213681340217590332e-01
1.387606710195541382e-01 -1.628569960594177246e-01 -3.474851846694946289e-01
-1.522915959358215332e-01 1.609378904104232788e-01 1.945310086011886597e-01
-1.101550459861755371e-01 -6.960835307836532593e-02 -7.748925089836120605e-01
-1.533492952585220337e-01 -1.934632211923599243e-01 1.090934947133064270e-01
1.134770512580871582e-01 -3.057233989238739014e-02 -6.699970960617065430e-01
9.260466694831848145e-02 -3.851041197776794434e-01 5.282562971115112305e-01
-1.418007165193557739e-01 -3.171178698539733887e-01 2.279577404260635376e-02
1.138549298048019409e-01 -4.219510555267333984e-01 -5.423406139016151428e-02
-4.661571606993675232e-02 5.761653780937194824e-01 -3.972598016262054443e-01
-1.609122902154922485e-01 -6.440227478742599487e-02 -1.480767875909805298e-01
-9.599974751472473145e-02 5.006362795829772949e-01 2.082440853118896484e-01
9.993033111095428467e-02 -4.395278692245483398e-01 -2.861207723617553711e-01
-5.851210653781890869e-02 3.685648739337921143e-01 7.292604446411132812e-01
-1.430892795324325562e-01 -6.202594563364982605e-02 4.280613958835601807e-01
-4.475479200482368469e-02 4.014515280723571777e-01 7.288138866424560547e-01
1.500384062528610229e-01 -1.332601606845855713e-01 -1.443291306495666504e-01
-8.178302645683288574e-02 2.932803630828857422e-01 7.189399003982543945e-01
1.039935350418090820e-01 3.789817094802856445e-01 -4.753763675689697266e-01
1.256943047046661377e-01 6.370307505130767822e-02 -5.743185877799987793e-01
-1.559707075357437134e-01 1.739789731800556183e-02 -3.285740613937377930e-01
1.066111326217651367e-01 -2.685742378234863281e-01 -5.685338973999023438e-01
-1.416971832513809204e-01 2.811230123043060303e-01 1.773343831300735474e-01
-8.197449147701263428e-02 5.563410520553588867e-01 8.853890001773834229e-02
4.222204908728599548e-02 4.550875127315521240e-01 6.749775409698486328e-01
-1.601370871067047119e-01 3.534960001707077026e-02 1.083900481462478638e-01
-3.740168735384941101e-02 -5.110905170440673828e-01 5.475198626518249512e-01
-7.653705775737762451e-02 -3.989217877388000488e-01 6.114719510078430176e-01
5.482566729187965393e-02 5.210242867469787598e-01 -4.990919530391693115e-01
-1.455940771847963333e-02 5.448155403137207031e-01 -5.655125975608825684e-01
-1.041114181280136108e-01 -2.859029471874237061e-01 -6.730108857154846191e-01
-1.032368838787078857e-01 4.771108031272888184e-01 -2.751241922378540039e-01
-1.559087336063385010e-01 -1.401561349630355835e-01 -2.359905689954757690e-01
-1.262883692979812622e-01 3.555252254009246826e-01 2.687804698944091797e-01
5.281559750437736511e-02 2.661003544926643372e-02 9.497417807579040527e-01
-1.190508306026458740e-01 3.034098744392395020e-01 4.616893827915191650e-01
-6.188347563147544861e-02 5.922294259071350098e-01 -1.961122602224349976e-01
-4.787187650799751282e-02 6.228737831115722656e-01 -2.962169796228408813e-02
-9.506259858608245850e-02 -5.257573723793029785e-01 -1.954922825098037720e-02
-1.020857691764831543e-01 -4.537086784839630127e-01 -3.803271353244781494e-01
-9.610190987586975098e-03 -5.522546172142028809e-01 -5.118170380592346191e-01
1.060786843299865723e-01 4.004850983619689941e-01 -4.128761887550354004e-01
1.493336707353591919e-01 -1.282160729169845581e-01 2.321728765964508057e-01
-1.369652748107910156e-01 -3.021518513560295105e-02 5.021073222160339355e-01
-1.567614227533340454e-01 1.643577516078948975e-01 -7.809086889028549194e-02
-1.717526838183403015e-02 -4.105355441570281982e-01 -7.774448990821838379e-01
7.600645720958709717e-02 9.703513234853744507e-02 -8.593764901161193848e-01
-1.606445014476776123e-01 4.712583962827920914e-03 -1.963919997215270996e-01
1.357739418745040894e-01 3.060661256313323975e-04 -4.778411388397216797e-01
6.299880333244800568e-03 -2.685004174709320068e-01 9.029028415679931641e-01
5.647664144635200500e-02 -6.702202372252941132e-04 -9.327808618545532227e-01
-1.464016288518905640e-01 4.116496816277503967e-02 -4.797183871269226074e-01
8.385854959487915039e-02 -2.786024510860443115e-01 -7.021031975746154785e-01
7.285280525684356689e-02 -4.844616949558258057e-01 -4.196361601352691650e-01
-1.157122105360031128e-01 -2.380948513746261597e-02 6.748256087303161621e-01
9.088453650474548340e-02 5.512796342372894287e-02 -8.025681972503662109e-01
4.103299602866172791e-02 -1.276565939188003540e-01 -9.452878832817077637e-01
1.347490996122360229e-01 3.354485630989074707e-01 -1.081214472651481628e-01
-1.073020547628402710e-01 3.006510436534881592e-01 -6.358882188796997070e-01
-1.904883980751037598e-02 1.240925863385200500e-01 9.729170203208923340e-01
-1.108541041612625122e-01 -2.789060175418853760e-01 5.659946799278259277e-01
-6.414724886417388916e-02 -3.963061571121215820e-01 -7.155448198318481445e-01
1.135377436876296997e-01 5.194350704550743103e-02 -6.714214682579040527e-01
7.416491210460662842e-02 -4.293865263462066650e-01 -5.405179858207702637e-01
2.924196794629096985e-02 6.419053077697753906e-01 1.997664198279380798e-02
1.341773420572280884e-01 -2.228332757949829102e-01 -3.339428901672363281e-01
-1.085824668407440186e-01 1.934386789798736572e-02 7.191845774650573730e-01
1.197958290576934814e-01 -2.059570997953414917e-01 -5.251034498214721680e-01
1.219873130321502686e-01 -3.833596408367156982e-01 -4.927925765514373779e-02
1.107849031686782837e-01 -6.960611045360565186e-02 -6.792982220649719238e-01
-3.293875604867935181e-02 -5.184410884976387024e-02 9.699560403823852539e-01
-6.463421881198883057e-02 3.796798586845397949e-01 -7.455145716667175293e-01
1.232446879148483276e-01 1.493920385837554932e-01 -5.643815398216247559e-01
1.494561284780502319e-01 -4.446649923920631409e-02 3.165951669216156006e-01
1.185414046049118042e-01 -3.536419272422790527e-01 -2.885204553604125977e-01
-1.092545688152313232e-01 -2.515527307987213135e-01 6.057518124580383301e-01
7.343588769435882568e-02 -3.839340209960937500e-01 -6.236495971679687500e-01
1.081784814596176147e-01 3.323765695095062256e-01 5.480155348777770996e-01
-1.466406136751174927e-01 -1.070403456687927246e-01 -4.507597386837005615e-01
-1.525116264820098877e-01 2.182092666625976562e-01 -1.058235485106706619e-02
1.153818219900131226e-01 -4.338433966040611267e-02 6.919282078742980957e-01
-8.585135638713836670e-02 -3.280070424079895020e-01 -7.204980850219726562e-01
1.441015303134918213e-01 2.496513128280639648e-01 1.899220496416091919e-01
-3.631535172462463379e-02 -3.138636648654937744e-01 8.339562416076660156e-01
-1.987259835004806519e-02 -3.282544016838073730e-01 -8.697714805603027344e-01
4.833732917904853821e-02 1.593329757452011108e-01 -9.258216023445129395e-01
-5.453961715102195740e-02 4.410885870456695557e-01 6.421056985855102539e-01
2.554191090166568756e-02 6.438997387886047363e-01 4.457560926675796509e-02
-1.415303647518157959e-01 2.002423405647277832e-01 -4.283760190010070801e-01
-1.588679105043411255e-01 -2.062962390482425690e-02 -2.571482062339782715e-01
7.553738355636596680e-02 8.701962977647781372e-02 8.813926577568054199e-01
-1.571935117244720459e-01 -7.589325308799743652e-02 -2.768640518188476562e-01
-1.101176142692565918e-01 4.547847211360931396e-01 -2.607873380184173584e-01
1.206204444169998169e-01 2.907543480396270752e-01 -4.574258923530578613e-01
6.571266055107116699e-02 4.260078668594360352e-01 -6.373407244682312012e-01
4.411596059799194336e-02 6.260483860969543457e-01 -7.452885806560516357e-02
-6.718954443931579590e-02 8.826787024736404419e-02 8.878519535064697266e-01
-6.239302083849906921e-02 -4.547924101352691650e-01 5.794073939323425293e-01
-1.279322355985641479e-01 2.017913758754730225e-01 -5.799419879913330078e-01
1.163568943738937378e-01 -1.172084175050258636e-02 6.903075575828552246e-01
-4.896403104066848755e-02 -1.500360220670700073e-01 9.147007465362548828e-01
1.337841898202896118e-01 2.757902443408966064e-01 3.570085763931274414e-01
1.336412280797958374e-01 1.848987042903900146e-01 -4.327581822872161865e-01
-1.577384620904922485e-01 2.304585184901952744e-03 -2.892814874649047852e-01
1.469933837652206421e-01 1.305992603302001953e-01 3.310058712959289551e-01
-7.238711416721343994e-02 1.663616448640823364e-01 -8.984513282775878906e-01
1.441898345947265625e-01 8.556739985942840576e-02 -3.558062314987182617e-01
9.675866365432739258e-02 -4.031841754913330078e-01 -4.265496730804443359e-01
-1.297261416912078857e-01 2.323653995990753174e-01 4.480090141296386719e-01
1.528927534818649292e-01 -1.175564378499984741e-01 1.016376018524169922e-01
-8.474904298782348633e-02 -3.581950813531875610e-02 8.341861367225646973e-01
3.269304335117340088e-02 -5.757105946540832520e-01 3.581026494503021240e-01
5.848098918795585632e-02 3.222332298755645752e-01 8.006322383880615234e-01
-1.151354983448982239e-02 -4.776017367839813232e-01 6.531732678413391113e-01
-6.274931132793426514e-02 -5.818227529525756836e-01 -2.176505476236343384e-01
-1.542747020721435547e-01 1.593020856380462646e-01 -2.357940375804901123e-01
9.562419354915618896e-02 3.410605490207672119e-01 6.235933303833007812e-01
1.157151609659194946e-01 -4.132878184318542480e-01 9.770970046520233154e-02
-1.299098134040832520e-01 -1.185151040554046631e-01 -6.231398582458496094e-01
3.540096804499626160e-02 3.370070159435272217e-01 -8.378602266311645508e-01
1.450258791446685791e-01 -2.260773628950119019e-02 4.036739170551300049e-01
6.884483993053436279e-02 3.799695074558258057e-01 7.029702663421630859e-01
-2.534370869398117065e-02 6.334562897682189941e-01 -2.012720257043838501e-01
-2.978359535336494446e-02 4.342049360275268555e-01 7.172112464904785156e-01
1.396647691726684570e-01 2.442699819803237915e-01 3.141374886035919189e-01
-9.741120040416717529e-02 2.572734057903289795e-01 6.727450489997863770e-01
-1.423758715391159058e-01 -2.859424650669097900e-01 1.652870625257492065e-01
-1.419743597507476807e-01 -6.036541983485221863e-02 4.418079257011413574e-01
-1.532755047082901001e-01 -2.011573761701583862e-01 -1.795039474964141846e-01
3.231157362461090088e-02 -5.802105069160461426e-01 -3.415357768535614014e-01
-9.082289040088653564e-02 -5.257987380027770996e-01 -2.029317170381546021e-01
-1.350410431623458862e-01 -3.583302795886993408e-01 -1.377504020929336548e-01
-8.583800494670867920e-02 -4.261336624622344971e-01 -5.731870532035827637e-01
-1.173050552606582642e-01 3.043469786643981934e-01 4.767917692661285400e-01
-1.510921716690063477e-01 5.272661522030830383e-02 -4.084719419479370117e-01
-1.111712306737899780e-01 4.722144305706024170e-01 -3.239302895963191986e-03
9.898646175861358643e-02 3.196724504232406616e-02 7.926412224769592285e-01
5.691597983241081238e-02 -6.462426483631134033e-02 -9.239170551300048828e-01
9.488189220428466797e-02 -4.815532863140106201e-01 2.011769115924835205e-01
1.538103371858596802e-01 1.123109012842178345e-01 1.651379019021987915e-01
1.491428464651107788e-01 -1.610252261161804199e-01 -1.063928529620170593e-01
4.984158650040626526e-02 -2.553290724754333496e-01 -8.534334897994995117e-01
7.339584827423095703e-02 -4.632322192192077637e-01 4.906610250473022461e-01
1.362519562244415283e-01 -1.595551520586013794e-01 -3.878510892391204834e-01
-8.081708848476409912e-02 -5.559851527214050293e-01 -1.465975791215896606e-01
1.286643147468566895e-01 -1.490963697433471680e-01 -4.885976910591125488e-01
1.381112188100814819e-01 -1.149273067712783813e-01 -4.030533730983734131e-01
-9.651447832584381104e-02 5.199403762817382812e-01 -1.138617694377899170e-01
-1.403065174818038940e-01 -1.253664046525955200e-01 4.317401051521301270e-01
7.940891385078430176e-02 1.454834491014480591e-01 8.506833314895629883e-01
3.562128171324729919e-02 9.991450607776641846e-02 -9.706319570541381836e-01
1.118280440568923950e-01 2.704653739929199219e-01 -5.625844001770019531e-01
1.464698761701583862e-01 1.694654971361160278e-01 -2.460173666477203369e-01
1.537172496318817139e-01 -9.368346631526947021e-02 -6.990093737840652466e-02
8.843331038951873779e-02 5.175343155860900879e-01 2.710934281349182129e-01
8.834597468376159668e-02 3.342814743518829346e-01 -6.496098637580871582e-01
1.075954139232635498e-01 4.835655167698860168e-02 7.450190186500549316e-01
-1.083784550428390503e-01 -3.925163149833679199e-01 4.084253311157226562e-01
1.558092087507247925e-01 4.768798127770423889e-02 1.417502015829086304e-01
2.377757988870143890e-02 -5.018646717071533203e-01 -5.945420861244201660e-01
-1.244276911020278931e-01 4.157622158527374268e-01 -3.183615207672119141e-02
1.145855188369750977e-01 -3.898437321186065674e-01 -2.351997494697570801e-01
6.793273985385894775e-02 3.143964111804962158e-01 7.793824076652526855e-01
1.621745061129331589e-03 4.421024620532989502e-01 -7.558026909828186035e-01
8.145704865455627441e-02 4.949006140232086182e-01 -4.022015333175659180e-01
-4.565791785717010498e-02 -5.461735725402832031e-01 4.318329691886901855e-01
-1.509259194135665894e-01 -2.435424774885177612e-01 -6.220565736293792725e-02
9.632003307342529297e-02 1.304986476898193359e-01 7.849940061569213867e-01
-1.148007214069366455e-01 -4.357871711254119873e-01 -2.689679861068725586e-01
5.716866627335548401e-02 2.877948284149169922e-01 -8.263055086135864258e-01
-9.024129807949066162e-02 -3.702216148376464844e-01 5.823695659637451172e-01
-1.155481785535812378e-01 -2.269394546747207642e-01 -6.576723456382751465e-01
-5.614681541919708252e-02 -3.882173895835876465e-01 -7.496954202651977539e-01
6.765200197696685791e-02 -4.706725776195526123e-01 -4.903660118579864502e-01
4.576337710022926331e-02 6.005040407180786133e-01 -2.731438279151916504e-01
1.316995322704315186e-01 8.164647966623306274e-02 -5.129665732383728027e-01
9.579087793827056885e-02 -4.134742617607116699e-01 4.411230385303497314e-01
-1.410835683345794678e-01 -3.180176615715026855e-01 6.106761097908020020e-02
2.677433751523494720e-02 -4.875161647796630859e-01 6.136968731880187988e-01
-3.716827929019927979e-02 -8.441759645938873291e-02 -9.938508868217468262e-01
1.328009963035583496e-01 4.346459358930587769e-02 -5.093374848365783691e-01
-1.167646497488021851e-01 -2.160112857818603516e-01 5.840212106704711914e-01
1.890426501631736755e-02 3.202271163463592529e-01 -8.790401220321655273e-01
-1.294208467006683350e-01 -6.046423688530921936e-02 -6.481549739837646484e-01
-7.178017497062683105e-02 5.727714300155639648e-01 1.494315117597579956e-01
3.799103200435638428e-02 6.136730909347534180e-01 -2.512588798999786377e-01
1.016055047512054443e-01 -1.126014068722724915e-02 -7.475198507308959961e-01
8.304007351398468018e-02 -4.589546918869018555e-01 4.329757690429687500e-01
-6.028678640723228455e-02 -5.548657178878784180e-01 3.295609652996063232e-01
-5.274277552962303162e-02 -3.813157081604003906e-01 -7.670058608055114746e-01
6.132891401648521423e-02 3.865729570388793945e-01 -7.108633518218994141e-01
-1.430307030677795410e-01 2.533457577228546143e-01 2.216298133134841919e-01
-8.896948397159576416e-02 5.317093133926391602e-01 1.465961337089538574e-01
-9.686723351478576660e-02 5.629910156130790710e-02 -8.435605764389038086e-01
9.707102179527282715e-02 5.081051588058471680e-01 1.752508282661437988e-01
1.565168797969818115e-01 4.597955569624900818e-02 -3.460657224059104919e-02
9.823472797870635986e-02 3.807686865329742432e-01 5.474914908409118652e-01
-4.461416602134704590e-02 -9.816782921552658081e-02 9.408078193664550781e-01
7.030399143695831299e-02 -4.248178899288177490e-01 -5.712122321128845215e-01
1.354717016220092773e-01 2.840421497821807861e-01 -2.643557190895080566e-01
-1.222605109214782715e-01 4.082550406455993652e-01 1.511514335870742798e-01
9.135252237319946289e-02 -2.304655909538269043e-01 7.333623170852661133e-01
1.357754319906234741e-01 -3.276402875781059265e-02 -4.721830189228057861e-01
1.444050073623657227e-01 2.508988082408905029e-01 1.741797626018524170e-01
-7.746261358261108398e-02 3.627257049083709717e-01 6.615762114524841309e-01
-9.745752811431884766e-02 5.154829621315002441e-01 6.789202243089675903e-02
-1.374395638704299927e-01 -3.471116423606872559e-01 1.450152602046728134e-02
1.029495149850845337e-01 -2.113977968692779541e-01 -6.519934535026550293e-01
1.568669378757476807e-01 1.734395883977413177e-02 6.429171562194824219e-02
1.487134248018264771e-01 1.127435937523841858e-01 -2.580170929431915283e-01
-1.206085681915283203e-01 3.013459146022796631e-01 -5.281266570091247559e-01
7.403364405035972595e-03 5.040822029113769531e-01 6.343002319335937500e-01
1.395570784807205200e-01 1.536671817302703857e-01 4.310666322708129883e-01
7.999934256076812744e-02 3.529492765665054321e-02 8.730189800262451172e-01
-1.210352033376693726e-01 2.473573386669158936e-01 5.154726505279541016e-01
-5.411351844668388367e-02 3.703540265560150146e-01 7.410321235656738281e-01
-1.386877596378326416e-01 3.174424469470977783e-01 1.260553449392318726e-01
-1.526652127504348755e-01 1.806995570659637451e-01 -2.387863695621490479e-01
-1.460706144571304321e-01 2.619740664958953857e-01 -2.040099650621414185e-01
8.787645399570465088e-02 1.455561369657516479e-01 -7.936592102050781250e-01
9.404200315475463867e-02 4.655579328536987305e-01 3.971221745014190674e-01
-7.538893260061740875e-05 -1.025397796183824539e-03 9.999330043792724609e-01
1.025744974613189697e-01 3.371623456478118896e-01 -5.530362725257873535e-01
5.841539800167083740e-02 5.417345166206359863e-01 4.319253563880920410e-01
6.823101639747619629e-02 -5.029234886169433594e-01 -3.993673324584960938e-01
5.074258148670196533e-02 4.875348806381225586e-01 -5.897043347358703613e-01
-8.097960054874420166e-02 5.607480406761169434e-01 6.255856156349182129e-02
1.022419333457946777e-01 4.289569556713104248e-01 4.153107106685638428e-01
-1.550246179103851318e-01 1.695210188627243042e-01 -1.814833283424377441e-01
1.085022687911987305e-01 -2.000703066587448120e-01 -6.229271292686462402e-01
-1.238491982221603394e-01 5.372210964560508728e-02 6.122748255729675293e-01
-1.519946753978729248e-01 7.789251208305358887e-02 -3.810719549655914307e-01
1.484244018793106079e-01 -6.248044595122337341e-02 -2.725608944892883301e-01
3.721410036087036133e-02 5.870090126991271973e-01 3.752685487270355225e-01
-5.351493880152702332e-02 4.953336417675018311e-01 -5.925031304359436035e-01
-1.573821604251861572e-01 5.675758421421051025e-02 -2.795744538307189941e-01
5.125720426440238953e-02 -4.052585065364837646e-01 -6.865862607955932617e-01
-1.324455738067626953e-01 -3.774461448192596436e-01 -8.431751281023025513e-02
-1.373333036899566650e-01 2.546474933624267578e-01 -4.072297215461730957e-01
-6.395055353641510010e-02 -5.061926245689392090e-01 4.605887830257415771e-01
1.304272264242172241e-01 -1.854551881551742554e-01 -4.347490668296813965e-01
-6.156717985868453979e-02 -5.740768909454345703e-01 -2.783263325691223145e-01
1.396842300891876221e-01 -2.204001098871231079e-01 -2.373633533716201782e-01
7.804165780544281006e-02 1.353450268507003784e-01 -8.402581214904785156e-01
1.211360096931457520e-01 4.187688827514648438e-01 1.235018447041511536e-01
1.566344499588012695e-01 -1.904145628213882446e-02 5.234775692224502563e-02
-6.084199622273445129e-02 1.341935098171234131e-01 -9.418923258781433105e-01
4.257050156593322754e-02 -6.006140112876892090e-01 -1.433887779712677002e-01
1.354291737079620361e-01 -2.779832482337951660e-01 2.286214381456375122e-01
-1.331256181001663208e-01 1.756252199411392212e-01 -5.535822510719299316e-01
5.786344036459922791e-02 -5.748865604400634766e-01 1.751844584941864014e-01
1.330743432044982910e-01 3.125401437282562256e-01 2.864390909671783447e-01
-6.915332376956939697e-02 5.828521847724914551e-01 1.062836796045303345e-01
-6.727854907512664795e-02 5.746704936027526855e-01 -2.530150115489959717e-01
-1.481953114271163940e-01 2.617733180522918701e-01 -7.172531634569168091e-02
3.692641481757164001e-02 2.018177509307861328e-01 9.302839636802673340e-01
-7.448987662792205811e-02 -5.952030885964632034e-03 -9.290327429771423340e-01
4.862605035305023193e-02 -2.387022078037261963e-01 -8.689243197441101074e-01
-7.123282551765441895e-02 3.457434773445129395e-01 7.092244029045104980e-01
2.351251244544982910e-02 -2.151453793048858643e-01 -9.346834421157836914e-01
3.316614031791687012e-02 5.519292354583740234e-01 4.970080852508544922e-01
-1.581463813781738281e-01 1.245972961187362671e-01 -1.606754064559936523e-01
-1.123696416616439819e-01 2.322063595056533813e-01 5.995446443557739258e-01
-1.444747745990753174e-01 4.406543821096420288e-02 4.139263033866882324e-01
1.179778575897216797e-01 7.580126170068979263e-03 -6.412509679794311523e-01
-6.623390316963195801e-02 -5.171527266502380371e-01 4.184780418872833252e-01
-3.005719045177102089e-03 -2.991332709789276123e-01 -8.975002765655517578e-01
1.238306760787963867e-01 3.595828115940093994e-01 3.236588239669799805e-01
1.209029108285903931e-01 4.150599539279937744e-01 1.620952337980270386e-01
-1.255926787853240967e-01 -3.028069436550140381e-01 -4.794679880142211914e-01
-1.095335334539413452e-01 -4.302084445953369141e-02 7.114133834838867188e-01
1.411146968603134155e-01 2.952272891998291016e-01 9.412685036659240723e-02
-4.021951183676719666e-02 5.854390263557434082e-01 -3.903800249099731445e-01
1.494700014591217041e-01 2.013174630701541901e-02 3.328455686569213867e-01
8.329814672470092773e-02 -5.136985182762145996e-01 2.153666764497756958e-01
-1.235693395137786865e-01 -1.301716566085815430e-01 5.891448259353637695e-01
1.178168058395385742e-01 4.330562353134155273e-01 -1.001678779721260071e-01
-1.006043255329132080e-01 -5.024052262306213379e-01 1.009160354733467102e-01
1.144878566265106201e-01 -1.150825321674346924e-01 -6.350108385086059570e-01
-1.073716282844543457e-01 -3.624587655067443848e-01 4.755166769027709961e-01
1.306365430355072021e-01 -2.488716393709182739e-01 -3.433547616004943848e-01
-8.372919261455535889e-02 4.147302508354187012e-01 -6.121405959129333496e-01
-1.331593245267868042e-01 -1.143716126680374146e-01 5.136055350303649902e-01
1.378109902143478394e-01 2.329393923282623291e-01 -3.181250095367431641e-01
-5.991699919104576111e-02 3.813947737216949463e-01 -7.580989599227905273e-01
7.600803673267364502e-02 -3.818678855895996094e-01 6.333939433097839355e-01
-1.522159427404403687e-01 -2.214235961437225342e-01 -1.449614763259887695e-01
9.652678668498992920e-02 -4.377742409706115723e-01 3.662437796592712402e-01
1.484631150960922241e-01 -1.254127323627471924e-01 -2.062108814716339111e-01
-5.625624582171440125e-02 -4.868295788764953613e-01 5.400496721267700195e-01
2.867786958813667297e-02 -6.224175691604614258e-01 2.432605624198913574e-02
-1.509984284639358521e-01 2.352224439382553101e-01 -6.310780346393585205e-02
-1.568535864353179932e-01 1.600882411003112793e-01 9.152180515229701996e-03
-9.920616447925567627e-02 -5.029225349426269531e-01 1.324830800294876099e-01
-1.459217667579650879e-01 -2.659988403320312500e-01 1.302108913660049438e-01
1.230423450469970703e-01 -2.747774720191955566e-01 -4.009487628936767578e-01
-1.391901075839996338e-01 3.317121267318725586e-01 -6.458722054958343506e-02
-1.027556806802749634e-01 -3.447774946689605713e-01 -6.064561605453491211e-01
-8.835364878177642822e-02 -5.197944641113281250e-01 2.188886255025863647e-01
-1.340067982673645020e-01 -1.089790761470794678e-01 -5.915200710296630859e-01
1.084251999855041504e-01 4.751140177249908447e-01 -8.066841959953308105e-02
2.354099415242671967e-02 6.235632896423339844e-01 2.568179368972778320e-01
-1.062982827425003052e-01 -4.310814142227172852e-01 -4.030773341655731201e-01
-4.304414242506027222e-02 5.065919160842895508e-01 -6.010143756866455078e-01
-1.241849511861801147e-01 -4.189804792404174805e-01 -9.385138750076293945e-02
8.810985088348388672e-02 2.910287380218505859e-01 -6.969105005264282227e-01
1.078414618968963623e-01 3.394902125000953674e-02 7.448378801345825195e-01
-9.519596397876739502e-02 -4.591996073722839355e-01 -4.313558936119079590e-01
4.470921680331230164e-02 8.598067611455917358e-02 9.582501053810119629e-01
1.458762288093566895e-01 2.417408227920532227e-01 -9.677865356206893921e-02
1.159919202327728271e-01 -4.049322307109832764e-01 -1.243851184844970703e-01
1.134999394416809082e-01 -2.007567584514617920e-01 -5.842713713645935059e-01
1.180298924446105957e-01 -1.640819758176803589e-02 -6.389234662055969238e-01
-3.221672773361206055e-02 5.923913717269897461e-01 3.562438189983367920e-01
-9.413395822048187256e-02 -2.443689554929733276e-01 7.017771601676940918e-01
-6.693321466445922852e-02 3.259359896183013916e-01 -7.997014522552490234e-01
1.297111660242080688e-01 2.771023511886596680e-01 4.134911298751831055e-01
-1.570055782794952393e-01 -1.490797698497772217e-01 -1.743563860654830933e-01
1.397257596254348755e-01 2.985705733299255371e-01 -1.023124456405639648e-01
-5.839918181300163269e-02 -2.447420209646224976e-01 -8.858153820037841797e-01
1.215107589960098267e-01 -3.882635533809661865e-01 1.015697140246629715e-02
-1.670960709452629089e-02 -6.326032280921936035e-01 -1.182439923286437988e-01
1.075078845024108887e-01 -4.218331873416900635e-01 -2.356100976467132568e-01
1.155307441949844360e-01 -1.854824870824813843e-01 6.195484995841979980e-01
-9.798827767372131348e-02 3.254317045211791992e-01 5.964663624763488770e-01
-1.364772319793701172e-01 -3.373804688453674316e-01 1.301080733537673950e-01
1.447264999151229858e-01 1.735045462846755981e-01 -2.769768238067626953e-01
1.288041025400161743e-01 -3.227202892303466797e-01 2.330921143293380737e-01
1.312707066535949707e-01 -3.170368969440460205e-01 1.880976408720016479e-01
1.353182941675186157e-01 -1.411468535661697388e-01 -4.180578291416168213e-01
7.183440029621124268e-02 -5.386478900909423828e-01 2.357234060764312744e-01
-1.264874637126922607e-01 2.792475819587707520e-01 4.209296703338623047e-01
1.310595721006393433e-01 2.514326274394989014e-01 4.347250461578369141e-01
-1.323583871126174927e-01 -3.708055317401885986e-01 -1.627672910690307617e-01
-8.814309537410736084e-02 -5.126557946205139160e-01 -3.148986697196960449e-01
1.301381140947341919e-01 3.617722690105438232e-01 1.760575175285339355e-01
-5.503103882074356079e-02 5.896809697151184082e-01 2.377692312002182007e-01
5.626526847481727600e-02 -5.874745845794677734e-01 -2.537760883569717407e-04
-1.183627694845199585e-01 -7.068075239658355713e-02 -7.254817485809326172e-01
1.212413460016250610e-01 -3.367352485656738281e-01 -2.929523587226867676e-01
1.440891325473785400e-01 -1.728752702474594116e-01 -2.341231554746627808e-01
9.637759625911712646e-02 2.456484735012054443e-01 7.183823585510253906e-01
-6.846055388450622559e-02 1.569137908518314362e-02 8.936458230018615723e-01
-9.161922335624694824e-02 -2.886111382395029068e-03 8.068313598632812500e-01
-1.219480484724044800e-01 -4.192059040069580078e-01 -1.922881156206130981e-01
-7.133889198303222656e-02 -2.021399885416030884e-01 -8.797351717948913574e-01
8.397212624549865723e-02 5.436214208602905273e-01 1.901492625474929810e-01
-3.720929846167564392e-02 -5.975669622421264648e-01 2.706057429313659668e-01
6.137618049979209900e-02 5.689164996147155762e-01 3.155660331249237061e-01
5.079234018921852112e-02 1.081313490867614746e-01 -9.360926151275634766e-01
-2.930640429258346558e-02 -6.290792822837829590e-01 5.434110015630722046e-02
-1.386006921529769897e-01 1.112710982561111450e-01 -5.423809289932250977e-01
1.013713479042053223e-01 -3.693078160285949707e-01 -4.565351903438568115e-01
7.682381570339202881e-02 1.735817641019821167e-02 8.847535848617553711e-01
1.526666134595870972e-01 -8.582296967506408691e-02 1.925590038299560547e-01
1.157750785350799561e-01 1.304498463869094849e-01 6.715680360794067383e-01
1.013317257165908813e-01 4.656395614147186279e-01 -2.859154343605041504e-01
-1.616059094667434692e-01 5.874627828598022461e-02 -5.800228193402290344e-02
-3.688081633299589157e-03 3.133841753005981445e-01 8.779219388961791992e-01
-1.215754896402359009e-01 -3.469786345958709717e-01 3.644561171531677246e-01
6.482128798961639404e-02 -5.077605247497558594e-01 4.241913259029388428e-01
-7.253578305244445801e-02 1.827589720487594604e-01 -8.900563716888427734e-01
-1.433810591697692871e-01 -2.686457633972167969e-01 -2.795724272727966309e-01
-1.271971762180328369e-01 -1.867174208164215088e-01 -6.021263599395751953e-01
-1.609418541193008423e-01 8.065742254257202148e-02 -2.528269961476325989e-02
1.493074595928192139e-01 -7.139984518289566040e-02 -2.470959424972534180e-01
-1.210818886756896973e-01 3.775584697723388672e-02 -7.135738134384155273e-01
-4.755503684282302856e-02 -5.813345313072204590e-01 2.957334220409393311e-01
-1.119982749223709106e-01 -4.346586018800735474e-02 6.963948607444763184e-01
-1.603541076183319092e-01 1.705850102007389069e-02 1.084219664335250854e-01
-7.789604365825653076e-02 -2.417213171720504761e-01 -8.326877951622009277e-01
1.152159422636032104e-01 4.003383517265319824e-01 3.383784294128417969e-01
1.546253859996795654e-01 -3.226777072995901108e-03 -1.399469971656799316e-01
-6.174748018383979797e-02 4.893366694450378418e-01 5.230206251144409180e-01
1.172206997871398926e-01 -1.778549253940582275e-01 -5.731111168861389160e-01
-1.240019202232360840e-01 -1.400566101074218750e-01 -6.590525507926940918e-01
1.042490899562835693e-01 4.860731065273284912e-01 -1.266691088676452637e-01
1.683665253221988678e-02 -6.297671794891357422e-01 6.461158394813537598e-02
6.055995449423789978e-02 -2.446357458829879761e-01 -8.289988636970520020e-01
-9.449551999568939209e-02 3.071213960647583008e-01 6.394570469856262207e-01
-1.463344991207122803e-01 1.424989253282546997e-01 -4.226421415805816650e-01
-8.784393966197967529e-02 5.463531613349914551e-01 -6.750334799289703369e-02
-9.309637546539306641e-02 -5.007546767592430115e-02 7.964587211608886719e-01
-9.167681634426116943e-02 4.406994581222534180e-01 4.457446038722991943e-01
-1.245122998952865601e-01 -2.755018416792154312e-03 -6.923655271530151367e-01
-1.131289750337600708e-01 1.850225329399108887e-01 -7.058743834495544434e-01
-1.331784129142761230e-01 -9.675477631390094757e-04 5.401696562767028809e-01
1.403756290674209595e-01 -2.451041489839553833e-01 -1.495628505945205688e-01
-7.757861912250518799e-02 -1.990934461355209351e-02 8.627861142158508301e-01
-3.342826664447784424e-02 -4.093106091022491455e-01 7.321599721908569336e-01
-7.154390215873718262e-02 2.592331729829311371e-04 8.840906023979187012e-01
-8.264423906803131104e-02 -1.298321634531021118e-01 -8.785366415977478027e-01
-4.170307517051696777e-02 -5.226202011108398438e-01 -5.454635024070739746e-01
1.459534466266632080e-01 1.181572452187538147e-01 3.601857423782348633e-01
1.529930531978607178e-01 -5.064762011170387268e-02 -1.668435186147689819e-01
-7.121986150741577148e-02 5.816337466239929199e-01 7.074092328548431396e-02
1.480390727519989014e-01 2.048088908195495605e-01 1.885866224765777588e-01
1.359647363424301147e-01 2.860601544380187988e-01 2.966340184211730957e-01
1.444355398416519165e-01 2.606518566608428955e-01 1.276247948408126831e-01
4.722945764660835266e-02 -1.182830929756164551e-01 -9.345783591270446777e-01
1.435988545417785645e-01 -9.118936955928802490e-02 -3.399063646793365479e-01
-1.479481756687164307e-01 -1.181168854236602783e-01 -4.243434667587280273e-01
9.872211515903472900e-02 -4.812104403972625732e-01 8.123981952667236328e-02
-1.199506521224975586e-01 -2.655248641967773438e-01 -5.846890211105346680e-01
1.541010886430740356e-01 -9.379307180643081665e-02 9.780486673116683960e-02
1.569349169731140137e-01 7.269095629453659058e-03 2.581845968961715698e-02
-2.531684935092926025e-02 4.689443111419677734e-01 -7.044415473937988281e-01
-2.842377871274948120e-03 4.978284239768981934e-01 6.451249122619628906e-01
1.404159963130950928e-01 -2.406148612499237061e-01 -1.640387922525405884e-01
1.511541754007339478e-01 1.848792284727096558e-01 1.027896404266357422e-01
1.529809087514877319e-01 -2.425160631537437439e-02 -1.852708905935287476e-01
1.193970441818237305e-01 -7.083314657211303711e-02 6.558456420898437500e-01
1.258704960346221924e-01 4.644950851798057556e-02 -5.753972530364990234e-01
-5.182892456650733948e-02 -5.917875766754150391e-01 -2.534531652927398682e-01
-1.406939327716827393e-01 4.500793293118476868e-02 4.586784243583679199e-01
-7.310423254966735840e-02 -4.999714791774749756e-01 4.251859188079833984e-01
1.123201400041580200e-01 3.007564544677734375e-01 -5.228968858718872070e-01
-9.886330366134643555e-02 1.607606410980224609e-01 -7.994453907012939453e-01
1.458971202373504639e-01 1.500385850667953491e-01 -2.809618413448333740e-01
-1.247381716966629028e-01 -4.099610447883605957e-01 -1.652400642633438110e-01
-1.512182950973510742e-01 -4.506855458021163940e-02 -4.112760722637176514e-01
-8.495056629180908203e-02 3.638623952865600586e-01 6.225290894508361816e-01
-1.208740919828414917e-01 -8.362686634063720703e-02 6.280412077903747559e-01
1.103837192058563232e-01 -2.613452672958374023e-01 5.832392573356628418e-01
1.299715042114257812e-01 3.536497354507446289e-01 -1.758870780467987061e-01
2.984404563903808594e-02 3.750440105795860291e-02 -9.893420934677124023e-01
-1.350817382335662842e-01 1.018285527825355530e-01 4.979074597358703613e-01
1.082493215799331665e-01 3.104737401008605957e-01 5.774899721145629883e-01
1.383078545331954956e-01 -3.243099153041839600e-02 4.913906455039978027e-01
-1.602699756622314453e-01 5.679393187165260315e-03 -2.113506048917770386e-01
-1.231604963541030884e-01 4.200030863285064697e-01 -1.020246222615242004e-01
1.532369554042816162e-01 -1.175562888383865356e-01 -4.351649433374404907e-03
-8.777126669883728027e-02 2.688670158386230469e-01 7.131994962692260742e-01
1.217652112245559692e-01 6.333996355533599854e-02 -6.077382564544677734e-01
-7.683818042278289795e-02 1.961913257837295532e-01 -8.691897988319396973e-01
1.127507239580154419e-01 4.183300733566284180e-01 -2.835977673530578613e-01
1.475601494312286377e-01 -2.969076111912727356e-02 -3.058725297451019287e-01
-1.235752254724502563e-01 -2.468131631612777710e-01 4.977609515190124512e-01
1.244607716798782349e-01 -3.432238101959228516e-01 2.552780210971832275e-01
-1.576903089880943298e-02 4.843823313713073730e-01 -6.872484087944030762e-01
1.491346210241317749e-01 2.183683514595031738e-01 4.486800357699394226e-02
-1.047305464744567871e-01 -4.963140785694122314e-01 -5.781777948141098022e-02
-1.340196430683135986e-01 -2.130232006311416626e-01 4.289380013942718506e-01
-7.779152691364288330e-02 2.654049992561340332e-01 -8.184345960617065430e-01
-1.342708319425582886e-01 -3.281092643737792969e-01 2.188072353601455688e-01
-3.623902425169944763e-02 -4.872586429119110107e-01 -6.342578530311584473e-01
-8.319723606109619141e-02 2.397050112485885620e-01 7.579857110977172852e-01
1.369010806083679199e-01 -2.009111940860748291e-01 3.745022118091583252e-01
1.459049284458160400e-01 1.935017108917236328e-01 -2.222973853349685669e-01
-1.393800228834152222e-01 -2.658117115497589111e-01 2.785607576370239258e-01
1.040738821029663086e-01 2.293241620063781738e-01 -6.562633514404296875e-01
1.165590435266494751e-01 3.886165916919708252e-01 3.527011573314666748e-01
1.090777516365051270e-01 2.151896953582763672e-01 -6.330440640449523926e-01
-5.615540966391563416e-02 5.480250716209411621e-01 -4.468987584114074707e-01
-1.300108581781387329e-01 3.084976077079772949e-01 -4.090186357498168945e-01
-1.374935656785964966e-01 -3.443678468465805054e-02 -5.817046761512756348e-01
-9.377574920654296875e-02 1.400471776723861694e-01 -8.323752284049987793e-01
-1.474047601222991943e-01 -2.743867337703704834e-01 6.308979354798793793e-03
-1.370853483676910400e-01 2.755492627620697021e-01 2.849244177341461182e-01
-1.371233612298965454e-01 3.454782962799072266e-01 -3.604109585285186768e-02
-1.240833550691604614e-01 3.407370746135711670e-01 3.379917442798614502e-01
-1.373427659273147583e-01 -1.944929063320159912e-01 4.098596870899200439e-01
-7.320965826511383057e-02 4.901075959205627441e-01 4.591254889965057373e-01
-1.529145538806915283e-01 6.932387501001358032e-02 2.759663760662078857e-01
-1.075508594512939453e-01 1.836266517639160156e-01 6.688773036003112793e-01
-1.623552292585372925e-01 3.503890242427587509e-03 -3.449615091085433960e-02
1.127503514289855957e-01 2.716083228588104248e-01 5.892954468727111816e-01
5.127629265189170837e-02 1.718535423278808594e-01 -9.134121537208557129e-01
-8.497898280620574951e-02 5.260909199714660645e-01 -3.032821118831634521e-01
8.180737495422363281e-02 4.804680645465850830e-01 4.578416347503662109e-01
-1.285601556301116943e-01 -2.388761043548583984e-01 4.585340023040771484e-01
1.068492382764816284e-01 3.723782300949096680e-01 -4.615914821624755859e-01
9.602798521518707275e-02 3.617494404315948486e-01 5.923662185668945312e-01
8.942559361457824707e-02 -4.099391996860504150e-01 5.017742514610290527e-01
7.404705882072448730e-02 4.588182270526885986e-01 5.536195039749145508e-01
-1.328371167182922363e-01 1.503792405128479004e-01 -5.759119391441345215e-01
-6.519855558872222900e-02 -5.880435109138488770e-01 -1.154970750212669373e-01
-4.060757532715797424e-02 -3.839690387248992920e-01 7.509186267852783203e-01
-9.555676579475402832e-02 2.208862155675888062e-01 7.122590541839599609e-01
-7.326380908489227295e-02 -4.327852427959442139e-01 5.711514949798583984e-01
1.262452006340026855e-01 -3.584181964397430420e-01 -7.043042033910751343e-02
-5.536986142396926880e-02 5.444357395172119141e-01 -4.618356227874755859e-01
-2.267806231975555420e-02 5.096913576126098633e-01 -6.338402032852172852e-01
1.564272195100784302e-01 3.687693551182746887e-02 -4.947405681014060974e-02
-8.292379975318908691e-02 5.549384951591491699e-01 -1.388066411018371582e-01
1.475000083446502686e-01 -1.290484070777893066e-01 -2.250750809907913208e-01
-4.314664751291275024e-02 2.521003782749176025e-01 8.760594129562377930e-01
-1.472753137350082397e-01 -2.645896375179290771e-01 -1.744652092456817627e-01
-1.605429947376251221e-01 -7.258299738168716431e-02 -1.579733937978744507e-01
-1.480526179075241089e-01 2.227767556905746460e-01 1.761289834976196289e-01
-1.050668060779571533e-01 -4.933506548404693604e-01 3.726790100336074829e-02
1.252545118331909180e-01 1.627192795276641846e-01 -5.382671356201171875e-01
-1.388986110687255859e-01 3.315038084983825684e-01 1.925814151763916016e-02
-1.599133908748626709e-01 5.182032287120819092e-02 1.049942597746849060e-01
1.499351114034652710e-01 -1.699641942977905273e-01 1.564269885420799255e-02
-1.199664771556854248e-01 -3.882927000522613525e-01 -3.587981164455413818e-01
-1.485539972782135010e-01 2.566376328468322754e-01 -1.013667806982994080e-01
-7.691524922847747803e-02 -1.687520295381546021e-01 -8.807041645050048828e-01
-1.531099975109100342e-01 -2.173140197992324829e-01 1.286524254828691483e-02
1.530697494745254517e-01 1.280217021703720093e-01 1.701857149600982666e-01
-1.568310707807540894e-01 1.557966172695159912e-01 3.543706238269805908e-02
-5.215397477149963379e-02 -6.013154983520507812e-01 -1.787417083978652954e-01
1.053343564271926880e-01 9.644331783056259155e-02 7.487356066703796387e-01
-1.517302915453910828e-02 -6.333469748497009277e-01 8.933188766241073608e-02
-1.407033056020736694e-01 1.171271782368421555e-03 4.642075300216674805e-01
1.271323114633560181e-01 2.005419582128524780e-01 -4.915820062160491943e-01
-6.106813251972198486e-02 4.787871241569519043e-01 -5.985735058784484863e-01
-3.818301483988761902e-02 6.184214949607849121e-01 -2.364975064992904663e-01
-9.963953495025634766e-02 5.091502070426940918e-01 -1.302499771118164062e-01
-1.547293215990066528e-01 -1.769327521324157715e-01 1.023646295070648193e-01
-1.585272103548049927e-01 -4.200467467308044434e-02 1.646433621644973755e-01
-1.543770283460617065e-01 -1.602900587022304535e-02 2.681725919246673584e-01
1.076588779687881470e-01 4.125116765499114990e-01 3.998511731624603271e-01
-9.411187469959259033e-02 -3.455244004726409912e-01 5.944510102272033691e-01
-7.084037363529205322e-02 5.713736414909362793e-01 -2.294817864894866943e-01
-4.593127593398094177e-02 -5.759640932083129883e-01 -3.659788072109222412e-01
1.459317356348037720e-01 -1.639180183410644531e-01 2.593786120414733887e-01
1.412123292684555054e-01 1.342739760875701904e-01 -3.729747533798217773e-01
-1.222346425056457520e-01 3.745068907737731934e-01 -3.587636351585388184e-01
-9.175859391689300537e-02 2.860089242458343506e-01 -7.413261532783508301e-01
-7.228051126003265381e-02 5.149399638175964355e-01 3.986117839813232422e-01
-8.531738817691802979e-02 4.830722808837890625e-01 3.906326293945312500e-01
1.209640353918075562e-01 1.965213567018508911e-01 5.932792425155639648e-01
-9.259887039661407471e-02 2.480960190296173096e-01 7.066569328308105469e-01
-1.064810454845428467e-01 4.589177370071411133e-01 2.323543876409530640e-01
1.344781368970870972e-01 1.405900437384843826e-02 5.400390028953552246e-01
1.832348853349685669e-02 4.971427023410797119e-01 -6.525284051895141602e-01
-1.055239289999008179e-01 4.448871314525604248e-01 -3.694550693035125732e-01
1.371941715478897095e-01 2.553855180740356445e-01 -2.909632027149200439e-01
-2.175058051943778992e-02 -6.341192126274108887e-01 -4.611634090542793274e-02
-2.414261177182197571e-02 5.792021155357360840e-01 -4.589891731739044189e-01
1.496308669447898865e-02 -4.540386497974395752e-01 6.894586086273193359e-01
9.972691535949707031e-02 4.861858189105987549e-01 -2.244640439748764038e-01
-7.400798797607421875e-02 5.201143622398376465e-01 3.701637983322143555e-01
-1.573996543884277344e-01 1.399219185113906860e-01 -1.562021225690841675e-01
-1.087351739406585693e-01 -8.187291771173477173e-02 -7.796210646629333496e-01
3.216782584786415100e-02 -4.220769703388214111e-01 -7.166959643363952637e-01
1.257178038358688354e-01 -2.482761293649673462e-01 -4.105464220046997070e-01
-1.603221446275711060e-01 -3.797717764973640442e-02 1.046675294637680054e-01
1.055374890565872192e-01 4.556062519550323486e-01 2.933657467365264893e-01
3.871595114469528198e-02 4.162209630012512207e-01 7.394914627075195312e-01
-1.073282957077026367e-01 4.848364293575286865e-01 -1.069255694746971130e-01
-8.092002570629119873e-02 5.523480772972106934e-01 -2.084771394729614258e-01
1.398513168096542358e-01 5.756010860204696655e-02 4.753053784370422363e-01
-7.558928430080413818e-02 5.603048205375671387e-01 -2.374068200588226318e-01
-1.152027398347854614e-01 7.703068107366561890e-02 6.683470010757446289e-01
1.155923157930374146e-01 1.410563290119171143e-01 -6.306999921798706055e-01
-9.424565732479095459e-02 2.180368453264236450e-01 -7.865559458732604980e-01
1.562504768371582031e-01 4.947511851787567139e-02 -5.447440594434738159e-02
1.359253227710723877e-01 3.069995641708374023e-01 -1.924729347229003906e-01
1.011006981134414673e-01 -4.747231900691986084e-01 1.608927920460700989e-02
-1.864690519869327545e-02 -4.977363049983978271e-01 6.091303229331970215e-01
-1.588527411222457886e-01 1.198438778519630432e-01 -1.306569129228591919e-01
1.274745166301727295e-01 -2.050516754388809204e-02 6.033764481544494629e-01
3.030077740550041199e-02 5.110276937484741211e-01 5.979520082473754883e-01
1.191526800394058228e-01 4.740089550614356995e-02 6.702636480331420898e-01
-1.396802216768264771e-01 2.014690935611724854e-01 3.647476434707641602e-01
6.590956449508666992e-02 5.951831936836242676e-01 -1.431333273649215698e-02
8.750677108764648438e-02 -5.105085372924804688e-01 1.512017399072647095e-01
-7.987508177757263184e-02 2.499281242489814758e-02 8.541674017906188965e-01
-7.534340023994445801e-02 8.533815294504165649e-02 8.616160750389099121e-01
-4.759592562913894653e-02 3.868392109870910645e-01 7.398036718368530273e-01
-1.238510757684707642e-01 1.958205997943878174e-01 -6.203419566154479980e-01
9.633433818817138672e-02 1.526342630386352539e-01 7.759387493133544922e-01
2.889399603009223938e-02 1.460608094930648804e-01 -9.687715768814086914e-01
1.017573177814483643e-01 -8.930342271924018860e-03 7.780683636665344238e-01
7.409110665321350098e-02 -4.026508629322052002e-01 -5.898865461349487305e-01
-1.465510278940200806e-01 7.888614386320114136e-02 3.736802041530609131e-01
7.247515022754669189e-02 -4.232489466667175293e-01 5.807182192802429199e-01
-1.370878219604492188e-01 -3.183840513229370117e-01 1.889154613018035889e-01
-7.501961290836334229e-02 -3.807533681392669678e-01 6.449959278106689453e-01
-1.527032256126403809e-01 -1.909910738468170166e-01 1.386291980743408203e-01
5.843135714530944824e-02 -5.606309175491333008e-01 -2.511609494686126709e-01
-6.547236442565917969e-02 4.331716597080230713e-01 -6.648331880569458008e-01
-1.486840844154357910e-01 4.250929877161979675e-02 -4.483180046081542969e-01
-1.099059432744979858e-01 -1.701844334602355957e-01 6.637898683547973633e-01
1.209461987018585205e-01 -3.060459494590759277e-01 -3.694772422313690186e-01
-1.138217151165008545e-01 2.699753046035766602e-01 -6.256811618804931641e-01
1.236478090286254883e-01 3.960851132869720459e-01 -1.513931304216384888e-01
1.001207977533340454e-01 5.019980072975158691e-01 -1.150383949279785156e-01
1.525749862194061279e-01 1.241210773587226868e-01 -1.408418715000152588e-01
9.426201879978179932e-02 3.007646203041076660e-01 -6.525481343269348145e-01
9.772005677223205566e-02 4.891040027141571045e-01 -2.434545159339904785e-01
-8.129358291625976562e-02 -3.521218895912170410e-01 6.542207598686218262e-01
-1.358495205640792847e-01 -3.587822318077087402e-01 -4.397781938314437866e-02
1.424257010221481323e-01 2.851592302322387695e-01 8.165439963340759277e-02
2.763837762176990509e-02 6.368837952613830566e-01 -1.439291089773178101e-01
1.218311786651611328e-01 4.191423952579498291e-01 7.700143754482269287e-02
-8.393612504005432129e-02 5.552741289138793945e-01 3.278524056077003479e-02
-8.031719923019409180e-02 5.651350021362304688e-01 -1.642062328755855560e-03
6.922072172164916992e-02 -2.374868541955947876e-01 -8.033722043037414551e-01
