2.125581167638301849e-02 -2.283840179443359375e-01 1.641801297664642334e-01
-3.576620668172836304e-02 -1.375725716352462769e-01 7.516653835773468018e-02
3.754057362675666809e-02 -4.661245644092559814e-02 1.284422911703586578e-02
7.817092351615428925e-03 -2.044121026992797852e-01 -1.943387836217880249e-01
1.881550624966621399e-02 -3.921267390251159668e-01 -1.082145795226097107e-01
4.228626843541860580e-03 -3.330054283142089844e-01 -1.754783093929290771e-01
3.577080741524696350e-02 1.992553472518920898e-03 -4.176880046725273132e-02
-3.763867169618606567e-02 -1.496306806802749634e-01 4.899588227272033691e-02
-1.240380853414535522e-02 1.601783782243728638e-01 1.152098178863525391e-01
-2.599962055683135986e-02 -4.256272912025451660e-01 -9.561436623334884644e-02
9.421829134225845337e-03 -4.291079044342041016e-01 1.404211968183517456e-01
-1.067141536623239517e-02 2.577241063117980957e-01 3.029200714081525803e-03
2.854910679161548615e-02 -3.304817676544189453e-01 -6.728378683328628540e-02
-3.658331558108329773e-02 -2.825669646263122559e-01 5.379030480980873108e-02
-7.940828800201416016e-03 -8.693968504667282104e-02 -2.020793855190277100e-01
-2.250719442963600159e-02 -5.141625404357910156e-01 2.767527103424072266e-02
3.356843069195747375e-02 -1.802215725183486938e-01 -7.721926271915435791e-02
-3.050636500120162964e-03 -4.082394838333129883e-01 1.634147167205810547e-01
2.377737499773502350e-02 -4.336615204811096191e-01 -1.443816069513559341e-02
1.330177579075098038e-02 2.534004449844360352e-01 -6.457637995481491089e-02
-3.209675475955009460e-02 2.131077647209167480e-02 -7.934661209583282471e-02
3.669449314475059509e-02 -1.094473153352737427e-01 -4.139877110719680786e-02
3.726488351821899414e-02 -3.871898353099822998e-02 2.676756121218204498e-02
-1.344380713999271393e-02 -2.860674560070037842e-01 1.826271712779998779e-01
2.463556826114654541e-02 1.687165349721908569e-01 7.654589414596557617e-02
1.471715979278087616e-02 -2.823044657707214355e-01 -1.659047156572341919e-01
3.063208609819412231e-02 -1.974326670169830322e-01 -1.027878746390342712e-01
1.079958304762840271e-02 2.091747373342514038e-01 -1.147106513381004333e-01
3.508220240473747253e-02 5.593255162239074707e-03 6.188564747571945190e-02
-2.583845332264900208e-02 -4.716821908950805664e-01 -5.716335400938987732e-02
3.559980541467666626e-02 4.343989491462707520e-02 1.812179014086723328e-02
-1.188864745199680328e-02 2.521870136260986328e-01 4.261667374521493912e-03
-1.418426539748907089e-02 -4.885901808738708496e-01 -1.038695201277732849e-01
1.766881160438060760e-02 2.508451938629150391e-01 2.799267694354057312e-02
1.784853450953960419e-02 -4.826775789260864258e-01 -2.464671060442924500e-02
-2.788685262203216553e-02 1.277894228696823120e-01 -5.244017578661441803e-03
-2.248828299343585968e-02 5.964291095733642578e-02 -1.374930888414382935e-01
-3.429714590311050415e-02 -1.120944917201995850e-01 8.746757358312606812e-02
3.343608975410461426e-02 -2.666274905204772949e-01 5.631196871399879456e-02
-2.559097297489643097e-02 1.523708254098892212e-01 -2.627548575401306152e-02
2.682131901383399963e-02 -3.982698321342468262e-01 -1.524217333644628525e-02
1.439462322741746902e-02 -2.892538309097290039e-01 -1.651994585990905762e-01
7.238084450364112854e-03 -1.784230619668960571e-01 2.009862065315246582e-01
1.696289889514446259e-02 2.270345240831375122e-01 -7.747741788625717163e-02
-3.151016682386398315e-02 -3.407107591629028320e-01 9.244833886623382568e-02
1.767987571656703949e-02 -2.114661335945129395e-01 1.786150634288787842e-01
1.685236953198909760e-02 -2.696371078491210938e-01 -1.619322150945663452e-01
-1.460833474993705750e-02 -4.177867174148559570e-01 1.458731740713119507e-01
-3.719851002097129822e-02 -3.170607089996337891e-01 1.594936847686767578e-02
-2.695075981318950653e-02 1.759625971317291260e-02 1.106821820139884949e-01
-2.879702113568782806e-02 -2.466698288917541504e-01 -1.406484544277191162e-01
3.103463351726531982e-02 -1.129694432020187378e-01 1.211511120200157166e-01
-2.245953492820262909e-02 -2.234352380037307739e-01 -1.706810742616653442e-01
3.566128388047218323e-02 -2.334389686584472656e-01 3.775977063924074173e-03
3.067543730139732361e-02 -3.468075990676879883e-01 6.253364961594343185e-03
2.684560837224125862e-03 2.557823657989501953e-01 7.141631841659545898e-02
9.258872829377651215e-03 -2.725584506988525391e-01 1.890120506286621094e-01
1.392435561865568161e-02 2.690240144729614258e-01 -2.619350142776966095e-02
3.686539456248283386e-02 -1.801793873310089111e-01 2.242919988930225372e-02
3.655103221535682678e-02 -4.090353846549987793e-03 3.290380164980888367e-02
1.462937984615564346e-02 -3.720830082893371582e-01 -1.372888535261154175e-01
-3.780037164688110352e-03 9.523163735866546631e-02 1.637129187583923340e-01
-3.157263621687889099e-02 4.598319530487060547e-03 7.661037892103195190e-02
1.735287718474864960e-02 -4.468309283256530762e-01 -7.853392511606216431e-02
2.001824229955673218e-02 -2.318288683891296387e-01 1.683284342288970947e-01
-3.440251201391220093e-02 3.538563847541809082e-03 3.472702577710151672e-02
3.537679091095924377e-02 3.076435625553131104e-02 -3.400462865829467773e-02
-3.594330698251724243e-02 -8.271168172359466553e-02 5.928729474544525146e-02
3.270149230957031250e-02 -3.090547025203704834e-01 1.432457845658063889e-02
3.370942175388336182e-02 4.186819493770599365e-02 -5.958681181073188782e-02
-3.834292665123939514e-02 -1.476382911205291748e-01 3.309546783566474915e-02
1.461199857294559479e-02 2.467932850122451782e-01 -6.691785901784896851e-02
2.203788049519062042e-02 -4.350659847259521484e-01 -4.584810510277748108e-02
2.780585363507270813e-02 -3.680889010429382324e-01 -4.372337833046913147e-02
2.548459544777870178e-02 5.675840377807617188e-02 -1.263536363840103149e-01
-2.984795905649662018e-02 -7.848554849624633789e-02 -1.332541853189468384e-01
2.522585913538932800e-02 7.166776061058044434e-02 -1.233565583825111389e-01
-3.703815490007400513e-02 -1.884187459945678711e-01 6.213271245360374451e-02
2.259227260947227478e-02 -4.110736250877380371e-01 -6.653235107660293579e-02
3.738387674093246460e-02 -1.236770749092102051e-01 -1.859117299318313599e-02
3.716498613357543945e-02 -1.644205152988433838e-01 -4.615400452166795731e-03
3.349896892905235291e-02 -2.482265233993530273e-01 -5.127987265586853027e-02
-1.750729791820049286e-02 -4.557876586914062500e-01 -1.164124086499214172e-01
-3.041062317788600922e-02 -4.476692080497741699e-01 1.066389493644237518e-02
1.290638558566570282e-02 -2.165322601795196533e-01 1.898875683546066284e-01
-3.412269055843353271e-02 -3.542785644531250000e-01 -6.359512358903884888e-02
-1.849919790402054787e-03 -3.712961971759796143e-01 1.756497621536254883e-01
-2.672578766942024231e-02 -4.791123867034912109e-01 3.337984159588813782e-02
2.559944055974483490e-02 -1.222493201494216919e-01 1.538965404033660889e-01
3.129987046122550964e-02 -2.584334909915924072e-01 -7.651621848344802856e-02
2.099942229688167572e-02 -7.412087172269821167e-02 1.709523648023605347e-01
2.406799979507923126e-02 -1.034735143184661865e-01 -1.530417203903198242e-01
-2.538080792874097824e-03 -1.437987387180328369e-01 2.040413320064544678e-01
-2.460020966827869415e-02 2.848675847053527832e-02 -1.377431750297546387e-01
-1.273940131068229675e-02 -5.531225800514221191e-01 -2.981649152934551239e-02
-2.550227940082550049e-02 -4.881768822669982910e-01 -3.598541393876075745e-02
1.438224781304597855e-02 -1.136452481150627136e-01 1.906145662069320679e-01
2.939046360552310944e-02 -1.294011175632476807e-01 1.324252486228942871e-01
-2.279983274638652802e-02 -5.073362588882446289e-01 3.967329859733581543e-02
-3.183415904641151428e-02 -4.185431003570556641e-01 3.486611694097518921e-02
-2.191378362476825714e-02 -4.207265973091125488e-01 -1.197672262787818909e-01
-1.057796366512775421e-02 2.205286175012588501e-01 -9.225118160247802734e-02
-1.936441473662853241e-02 -2.294706702232360840e-01 -1.794149726629257202e-01
-2.904930151998996735e-02 4.782658815383911133e-02 7.888891547918319702e-02
-2.794668264687061310e-02 1.200718432664871216e-01 -4.189562052488327026e-02
-6.831787992268800735e-03 -3.455579280853271484e-04 1.855287551879882812e-01
2.254555746912956238e-02 -1.200132966041564941e-01 -1.595041453838348389e-01
-2.001540921628475189e-02 2.023231238126754761e-01 -2.808266133069992065e-02
-5.654088221490383148e-03 2.102451771497726440e-01 -1.162559464573860168e-01
3.166949376463890076e-02 -5.764061957597732544e-02 1.135589927434921265e-01
2.424169145524501801e-02 1.262518316507339478e-01 -1.074218750000000000e-01
2.679200656712055206e-02 -7.114393264055252075e-02 1.462694257497787476e-01
3.530994802713394165e-02 -2.036037147045135498e-01 -4.208829626441001892e-02
-8.505010046064853668e-03 2.442259043455123901e-01 5.671050772070884705e-02
1.717096939682960510e-02 -2.990360558032989502e-01 -1.533142924308776855e-01
2.816998772323131561e-02 -1.189486533403396606e-01 -1.304407417774200439e-01
-2.194463275372982025e-02 -5.182231664657592773e-01 -2.268096245825290680e-02
2.966926433145999908e-02 -7.390730082988739014e-02 1.295906007289886475e-01
-3.614771366119384766e-02 -3.473601937294006348e-01 -2.412491291761398315e-02
2.816199883818626404e-02 -1.105567812919616699e-01 1.402897387742996216e-01
-4.661717452108860016e-03 -4.600650072097778320e-01 -1.320002526044845581e-01
-3.428383171558380127e-02 -3.313753604888916016e-01 -7.487774640321731567e-02
3.197310864925384521e-02 1.173187345266342163e-01 3.067423589527606964e-02
-1.308716554194688797e-02 1.921793371438980103e-01 8.957242965698242188e-02
-3.365235403180122375e-02 -3.915528059005737305e-01 -3.630427643656730652e-02
-3.293805941939353943e-02 -9.001967310905456543e-02 9.625069797039031982e-02
-1.043935399502515793e-02 1.768140345811843872e-01 1.114632636308670044e-01
1.235499698668718338e-02 1.395817548036575317e-01 -1.478549391031265259e-01
-1.756839267909526825e-02 7.654160261154174805e-02 1.370694339275360107e-01
-2.908381633460521698e-02 -3.459655940532684326e-01 1.094722524285316467e-01
-1.198249775916337967e-02 7.361596822738647461e-02 1.561677157878875732e-01
8.456870913505554199e-03 -5.138883590698242188e-01 7.932791113853454590e-02
-2.437041886150836945e-02 9.129990637302398682e-02 -1.112894564867019653e-01
-3.131969645619392395e-02 -4.198532104492187500e-01 4.328196868300437927e-02
3.152679279446601868e-02 -2.906258106231689453e-01 -5.533541366457939148e-02
-2.003215812146663666e-02 -5.128670483827590942e-02 1.631393432617187500e-01
-3.051131963729858398e-02 -2.502777874469757080e-01 1.208872795104980469e-01
-5.198397673666477203e-03 2.754858732223510742e-01 7.934371009469032288e-03
3.254967182874679565e-02 -1.178305745124816895e-01 1.085301712155342102e-01
2.118053473532199860e-02 -2.588049173355102539e-01 -1.472972780466079712e-01
-2.398854307830333710e-02 -4.742522835731506348e-01 -7.105396687984466553e-02
2.651716768741607666e-02 -4.027808904647827148e-01 3.203675895929336548e-02
1.590419560670852661e-02 -2.697358131408691406e-01 1.751061975955963135e-01
-1.225107256323099136e-02 -1.156196594238281250e-01 1.916069239377975464e-01
9.943728335201740265e-03 -5.088302493095397949e-01 7.764497399330139160e-02
-2.757347933948040009e-02 -4.092919230461120605e-01 -9.494972974061965942e-02
2.593321166932582855e-02 2.002096325159072876e-01 1.363420742563903332e-04
-3.327821567654609680e-02 2.894949913024902344e-02 3.337826579809188843e-02
-3.413375094532966614e-02 -2.141148149967193604e-01 9.537625312805175781e-02
1.707010157406330109e-02 -2.039252668619155884e-01 -1.728838831186294556e-01
-1.419978216290473938e-02 9.755825996398925781e-02 -1.551605314016342163e-01
2.464894950389862061e-02 -1.289265155792236328e-01 1.582612693309783936e-01
-3.797723352909088135e-02 -7.952389121055603027e-02 3.169728908687829971e-03
-3.914090245962142944e-02 -1.895497143268585205e-01 1.068048086017370224e-02
-1.847085170447826385e-02 1.453566700220108032e-01 9.677208960056304932e-02
2.536411210894584656e-02 -3.664357066154479980e-01 9.304108470678329468e-02
-1.013116259127855301e-02 -4.769958853721618652e-01 -1.190379038453102112e-01
-2.349021472036838531e-02 1.250367313623428345e-01 7.634215056896209717e-02
2.481249719858169556e-02 -3.771054446697235107e-01 -7.336162775754928589e-02
2.396639436483383179e-02 2.152477353811264038e-01 1.556963473558425903e-02
-3.356348723173141479e-02 -1.440065205097198486e-01 -1.130443140864372253e-01
2.745331451296806335e-02 -1.069986447691917419e-01 1.442850977182388306e-01
-3.596554696559906006e-02 -6.378149986267089844e-02 -6.861471384763717651e-02
-3.889191895723342896e-02 -2.080756425857543945e-01 2.076785080134868622e-02
-2.665719576179981232e-02 -5.187549442052841187e-02 -1.474239528179168701e-01
3.724072128534317017e-02 -3.541257977485656738e-02 -1.533878222107887268e-02
2.945534512400627136e-02 7.962472736835479736e-02 9.411595761775970459e-02
-1.784368976950645447e-02 1.080490499734878540e-01 1.218406036496162415e-01
-2.951765805482864380e-02 -2.195727080106735229e-02 -1.227189004421234131e-01
3.628342226147651672e-02 -6.688847392797470093e-02 6.084469705820083618e-02
1.389794237911701202e-02 7.558935880661010742e-02 1.628285944461822510e-01
-1.702627725899219513e-02 -3.302146196365356445e-01 -1.674117296934127808e-01
-5.614737980067729950e-03 2.401622086763381958e-01 7.384654879570007324e-02
3.559556975960731506e-02 -1.234338730573654175e-01 -6.026911735534667969e-02
2.057982981204986572e-02 -1.009622216224670410e-01 -1.676090806722640991e-01
6.386613007634878159e-03 -1.796853542327880859e-02 1.928255110979080200e-01
3.042964264750480652e-02 -3.341485857963562012e-01 -3.445756435394287109e-02
-1.764966733753681183e-02 -5.368514060974121094e-01 -3.130724653601646423e-02
3.585854545235633850e-02 1.685261726379394531e-03 4.868884012103080750e-02
-2.147584594786167145e-02 1.500741690397262573e-01 -9.123713523149490356e-02
-3.738520666956901550e-02 -2.906551361083984375e-01 -4.404229298233985901e-02
1.675326004624366760e-02 -1.515146344900131226e-01 1.851549893617630005e-01
9.234357625246047974e-03 -3.866372108459472656e-01 -1.480318009853363037e-01
3.055114299058914185e-02 -4.616916179656982422e-03 1.136690974235534668e-01
1.549053564667701721e-02 -2.026483416557312012e-02 1.803619414567947388e-01
-6.663524080067873001e-03 -4.986861944198608398e-01 1.157176345586776733e-01
-2.821482531726360321e-02 2.791847288608551025e-02 -1.145716235041618347e-01
-1.142341643571853638e-02 -1.306628882884979248e-01 1.939430236816406250e-01
1.347134355455636978e-02 -1.825676709413528442e-01 -1.853124499320983887e-01
2.771922200918197632e-02 -1.878725141286849976e-01 -1.262414008378982544e-01
-3.679145127534866333e-02 -2.602343857288360596e-01 -6.863282620906829834e-02
2.233829349279403687e-02 -4.243767261505126953e-01 -5.549266561865806580e-02
-2.951745688915252686e-02 -4.428406357765197754e-01 -4.671354964375495911e-02
-2.460970915853977203e-02 8.332586288452148438e-02 9.593211114406585693e-02
3.611933067440986633e-02 2.052639424800872803e-02 2.682121284306049347e-02
-1.657057367265224457e-02 -4.458269476890563965e-01 1.278694272041320801e-01
-2.339850179851055145e-02 -4.390714168548583984e-01 -1.024184897541999817e-01
-1.786953583359718323e-02 1.271487623453140259e-01 1.114782840013504028e-01
3.593335673213005066e-02 -8.999034762382507324e-03 5.213250964879989624e-02
-7.559667341411113739e-03 -1.712007671594619751e-01 2.002087086439132690e-01
2.081203274428844452e-02 2.370730489492416382e-01 -2.234177663922309875e-02
-1.962383836507797241e-02 -4.404656291007995605e-01 1.198417171835899353e-01
6.912720389664173126e-03 4.004190862178802490e-02 -1.854393631219863892e-01
3.507079556584358215e-02 -2.276631891727447510e-01 -3.237124904990196228e-02
1.644381694495677948e-02 2.321354895830154419e-01 -7.480587810277938843e-02
-1.535854861140251160e-02 2.350902408361434937e-01 -1.510906964540481567e-02
1.822431758046150208e-02 -2.386025786399841309e-01 -1.635151952505111694e-01
2.793734706938266754e-02 -3.816187381744384766e-04 1.302857995033264160e-01
1.506990939378738403e-02 6.878678500652313232e-02 -1.641866117715835571e-01
3.044454194605350494e-02 -2.923716902732849121e-01 8.565417677164077759e-02
-3.550713136792182922e-02 -2.412022352218627930e-01 -8.985317498445510864e-02
-3.367521986365318298e-02 -3.381208181381225586e-01 7.141686975955963135e-02
9.650011546909809113e-03 2.777765393257141113e-01 -3.547298163175582886e-02
-3.565588220953941345e-02 -3.572576045989990234e-01 1.989487744867801666e-02
-2.449674531817436218e-02 -4.693651199340820312e-01 -7.193568348884582520e-02
-2.304673381149768829e-02 2.858079969882965088e-02 1.300025731325149536e-01
2.376929111778736115e-02 -3.498881459236145020e-01 1.155558452010154724e-01
2.718319743871688843e-02 -1.771787405014038086e-01 -1.312379688024520874e-01
1.862250268459320068e-02 -2.187230885028839111e-01 -1.654937416315078735e-01
-3.196175023913383484e-02 -3.827343881130218506e-02 -1.077635288238525391e-01
1.514567062258720398e-02 -4.747968912124633789e-01 -6.688340008258819580e-02
-2.151237986981868744e-02 -2.062947452068328857e-01 -1.751995980739593506e-01
3.771002963185310364e-02 -1.156550347805023193e-01 1.269541680812835693e-02
3.731782361865043640e-02 -2.721028029918670654e-02 1.051347050815820694e-02
3.724618256092071533e-02 -8.601300418376922607e-02 -2.793128974735736847e-02
-1.965462416410446167e-02 8.189582824707031250e-02 1.257707476615905762e-01
-1.130396500229835510e-02 2.127438932657241821e-01 -9.670142084360122681e-02
-3.802641108632087708e-02 -1.533377468585968018e-01 -5.724552273750305176e-02
-1.964277587831020355e-02 1.702265292406082153e-01 6.805929541587829590e-02
1.797159202396869659e-02 -9.369714558124542236e-02 1.813291162252426147e-01
1.314155384898185730e-02 -4.249478578567504883e-01 1.309912353754043579e-01
3.080977872014045715e-02 1.341177076101303101e-01 3.346848487854003906e-02
2.006195671856403351e-02 2.075646072626113892e-01 -7.810593396425247192e-02
-3.537605749443173409e-03 -3.208954036235809326e-01 1.878125071525573730e-01
2.128998748958110809e-02 2.331583946943283081e-01 -2.545502968132495880e-02
3.772796690464019775e-02 -1.037536785006523132e-01 1.627424173057079315e-02
-1.081578247249126434e-02 -2.776240110397338867e-01 1.883843094110488892e-01
-2.435913495719432831e-02 7.650615274906158447e-02 -1.193184107542037964e-01
1.937917619943618774e-02 -1.743189394474029541e-01 -1.684157997369766235e-01
1.747413910925388336e-02 -3.156704902648925781e-01 1.593904048204421997e-01
3.142396360635757446e-02 -1.847538650035858154e-01 -9.850623458623886108e-02
-2.690447308123111725e-02 -4.693015217781066895e-01 -4.757113754749298096e-02
2.798127755522727966e-02 -1.513320505619049072e-01 1.401582360267639160e-01
2.792531438171863556e-02 -2.262089252471923828e-01 -1.170404478907585144e-01
-2.237471006810665131e-02 -1.653051078319549561e-01 -1.741384863853454590e-01
3.719722107052803040e-02 -5.698578804731369019e-02 -2.569957822561264038e-02
-3.019895171746611595e-03 1.832959204912185669e-01 -1.375140547752380371e-01
-1.148911658674478531e-02 -3.236013352870941162e-01 1.795334219932556152e-01
-3.680002689361572266e-02 -4.306145012378692627e-02 1.435830630362033844e-02
-1.621240377426147461e-02 -5.108482241630554199e-01 8.381110429763793945e-02
2.847406826913356781e-02 -2.486993223428726196e-01 -1.066997274756431580e-01
-3.848339989781379700e-02 -1.037950813770294189e-01 -1.963271573185920715e-02
2.644157595932483673e-02 1.881337314844131470e-01 3.097135759890079498e-02
-3.218291327357292175e-02 -1.361235976219177246e-01 1.099639236927032471e-01
2.475243806838989258e-02 -1.375740617513656616e-01 1.576101630926132202e-01
2.927485667169094086e-02 -3.420005440711975098e-01 6.536419689655303955e-02
1.796449348330497742e-02 -4.878712296485900879e-01 1.897694170475006104e-02
1.660150662064552307e-02 -4.447768628597259521e-02 -1.782860755920410156e-01
2.712311968207359314e-02 -2.677984833717346191e-01 -1.106926053762435913e-01
-1.832147873938083649e-02 2.082899957895278931e-01 -4.773943126201629639e-02
3.542130067944526672e-02 -9.161269664764404297e-02 -6.484324485063552856e-02
3.547045588493347168e-02 -8.385299146175384521e-02 7.557387650012969971e-02
-1.209711749106645584e-02 1.284426301717758179e-01 1.334693282842636108e-01
-3.885759040713310242e-02 -1.266079843044281006e-01 -1.661663502454757690e-02
3.444112092256546021e-02 5.145831406116485596e-02 4.716856777667999268e-02
3.844274440780282021e-03 -2.965080142021179199e-01 1.910546571016311646e-01
-3.914164006710052490e-02 -2.238903641700744629e-01 -1.666384865529835224e-03
3.700073435902595520e-02 -2.232615649700164795e-02 2.830991148948669434e-02
-2.913566678762435913e-02 1.116297990083694458e-01 -1.839100755751132965e-02
3.208466991782188416e-02 4.738637804985046387e-02 -7.805990427732467651e-02
1.814916916191577911e-02 -2.071365565061569214e-01 -1.688752919435501099e-01
-2.939208969473838806e-02 -1.399454772472381592e-01 1.298869103193283081e-01
3.179349750280380249e-02 -1.160615608096122742e-01 -1.039628237485885620e-01
2.149572409689426422e-02 8.811606466770172119e-02 -1.367470771074295044e-01
1.853297092020511627e-02 -1.977351754903793335e-01 1.774224936962127686e-01
-3.397735580801963806e-02 -3.219796121120452881e-01 7.481733709573745728e-02
2.235772833228111267e-02 -2.802643179893493652e-01 1.488951146602630615e-01
-3.249330073595046997e-02 -3.618377745151519775e-01 -7.936850190162658691e-02
-3.762876987457275391e-02 -2.843742966651916504e-01 -4.157789424061775208e-02
1.986088789999485016e-02 2.418320327997207642e-01 2.049215324223041534e-02
-9.616062976419925690e-03 -1.172948554158210754e-01 1.962331384420394897e-01
1.811165548861026764e-02 -4.770226478576660156e-01 -3.289897739887237549e-02
-1.573527231812477112e-02 2.298197597265243530e-01 -3.398100286722183228e-02
3.538906574249267578e-02 3.609865903854370117e-02 3.664067015051841736e-02
-3.003655932843685150e-02 -1.665862947702407837e-01 -1.391137540340423584e-01
-1.135925203561782837e-02 -2.016068696975708008e-01 -1.973479688167572021e-01
-1.928060688078403473e-02 -2.391548752784729004e-01 -1.785672456026077271e-01
-2.318284288048744202e-02 9.839378297328948975e-02 -1.153050288558006287e-01
-1.821622811257839203e-02 1.778794080018997192e-01 7.167669385671615601e-02
-2.716805599629878998e-02 1.122402399778366089e-01 4.791373759508132935e-02
-2.300641871988773346e-02 -3.493119180202484131e-01 1.413774937391281128e-01
1.529992558062076569e-03 -5.394396781921386719e-01 -5.879873782396316528e-02
-3.677740320563316345e-02 -1.102127358317375183e-01 5.503095313906669617e-02
2.720164321362972260e-02 -1.532334834337234497e-02 1.373087167739868164e-01
2.768065221607685089e-02 1.826236695051193237e-01 -2.406122162938117981e-03
-7.489108014851808548e-03 2.584543824195861816e-01 -5.628746375441551208e-02
1.523867622017860413e-02 -2.655487656593322754e-01 1.777031570672988892e-01
2.908051572740077972e-02 1.663947254419326782e-01 4.657605197280645370e-03
2.043262310326099396e-02 1.512518525123596191e-02 -1.586112678050994873e-01
-2.043346501886844635e-02 -5.013090968132019043e-01 7.061153650283813477e-02
-2.003384009003639221e-02 -7.756921648979187012e-02 1.671501249074935913e-01
-1.143589057028293610e-02 -5.106083750724792480e-01 -9.207387268543243408e-02
-3.347303345799446106e-02 3.703704476356506348e-02 1.607087999582290649e-02
-1.915762387216091156e-02 4.695007205009460449e-02 1.416418850421905518e-01
2.306004613637924194e-02 2.239406853914260864e-01 -8.039403706789016724e-03
1.822978816926479340e-02 2.379206866025924683e-01 -5.497832596302032471e-02
3.037744201719760895e-02 -3.547358512878417969e-02 -1.127677634358406067e-01
-3.574994578957557678e-02 -1.239849701523780823e-01 7.308708876371383667e-02
-2.902932837605476379e-02 -3.125462532043457031e-01 1.194403097033500671e-01
-1.059158705174922943e-02 -3.557806313037872314e-01 -1.711217015981674194e-01
1.493851840496063232e-02 -3.021596670150756836e-01 -1.601659506559371948e-01
2.386725321412086487e-02 -3.083646297454833984e-01 -1.179348751902580261e-01
-3.279108181595802307e-02 3.344124555587768555e-02 -5.863280221819877625e-02
3.375158086419105530e-02 5.216598510742187500e-02 5.950214341282844543e-02
-1.697633787989616394e-02 1.544595509767532349e-01 -1.162683218717575073e-01
1.440998911857604980e-02 6.808181107044219971e-02 1.639696061611175537e-01
-2.456630766391754150e-02 -2.500191926956176758e-01 1.531424075365066528e-01
-1.467842888087034225e-02 1.233104020357131958e-01 -1.427948176860809326e-01
3.736373037099838257e-02 -6.566438823938369751e-02 3.324300423264503479e-02
2.153789065778255463e-02 -4.447520971298217773e-01 5.676998198032379150e-02
1.963542960584163666e-02 3.671304881572723389e-02 1.585496068000793457e-01
3.750289231538772583e-02 -6.308814138174057007e-02 2.629709802567958832e-02
-2.180405892431735992e-02 -2.064161002635955811e-02 -1.634705215692520142e-01
3.601986169815063477e-02 -8.581057190895080566e-03 -4.091791436076164246e-02
-2.374516986310482025e-02 2.403979003429412842e-02 -1.436615884304046631e-01
2.751588635146617889e-02 5.811469256877899170e-02 1.169348806142807007e-01
-3.680659458041191101e-02 -9.548316150903701782e-02 4.962379857897758484e-02
-3.444998711347579956e-02 -2.978861629962921143e-01 7.786647975444793701e-02
4.389914683997631073e-03 -4.169990420341491699e-01 1.556868106126785278e-01
-3.028141334652900696e-02 -3.451622724533081055e-01 -1.067898198962211609e-01
2.329709753394126892e-02 1.553032249212265015e-01 9.579984843730926514e-02
2.549068629741668701e-02 -4.093702435493469238e-01 -2.715377509593963623e-02
-2.332747168838977814e-02 -1.358506232500076294e-01 -1.705436408519744873e-01
-3.457313776016235352e-02 -3.635248541831970215e-01 -4.860264062881469727e-02
-3.734493255615234375e-02 -1.591329872608184814e-01 -7.050139456987380981e-02
-3.762160614132881165e-02 -2.748022079467773438e-01 3.612513840198516846e-02
-1.903925836086273193e-02 -2.671611905097961426e-01 -1.753706932067871094e-01
2.438644133508205414e-02 -1.927258968353271484e-01 1.554436832666397095e-01
-2.749138325452804565e-02 -2.101808786392211914e-03 1.141806468367576599e-01
3.498034924268722534e-02 -2.518693804740905762e-01 2.280820719897747040e-02
-3.876532986760139465e-02 -1.189874708652496338e-01 -2.056853612884879112e-03
-2.397005818784236908e-02 1.699658781290054321e-01 -2.760879695415496826e-03
-2.646989747881889343e-02 -3.810214400291442871e-01 1.133301109075546265e-01
2.742930315434932709e-02 -1.932326704263687134e-01 -1.272076368331909180e-01
1.515568234026432037e-02 -7.457216084003448486e-02 1.870299726724624634e-01
-2.969299629330635071e-02 2.078944444656372070e-02 -1.054933816194534302e-01
1.358616910874843597e-02 -4.454855620861053467e-02 1.873572915792465210e-01
-2.239672094583511353e-02 3.439006209373474121e-02 -1.468802690505981445e-01
2.399085275828838348e-02 2.129716724157333374e-01 2.307352982461452484e-02
-2.116018347442150116e-02 -2.035296708345413208e-02 1.526114940643310547e-01
-1.813877001404762268e-02 -2.292595207691192627e-01 1.776406764984130859e-01
-3.441421687602996826e-02 -1.761519610881805420e-01 -1.064040809869766235e-01
1.071183197200298309e-02 -3.396585583686828613e-01 -1.612355411052703857e-01
-2.441915124654769897e-02 -4.960690140724182129e-01 3.866348415613174438e-02
2.580056525766849518e-02 -1.173484846949577332e-01 1.529354453086853027e-01
3.054578602313995361e-02 -1.790499687194824219e-01 -1.071735993027687073e-01
-2.054503001272678375e-02 4.988594353199005127e-02 -1.499647051095962524e-01
2.792904898524284363e-02 4.406860470771789551e-02 -1.147822663187980652e-01
2.198735065758228302e-02 2.138099223375320435e-01 -5.490266904234886169e-02
-9.896280243992805481e-03 -4.013099670410156250e-01 1.607951372861862183e-01
3.278864920139312744e-02 6.369814276695251465e-03 9.122788906097412109e-02
-3.212429583072662354e-02 -3.725497126579284668e-01 -7.701811939477920532e-02
-1.762182824313640594e-02 -5.037571787834167480e-01 8.425836265087127686e-02
3.408791497349739075e-02 6.292058527469635010e-02 -3.922270238399505615e-02
-9.680149145424365997e-03 6.742447614669799805e-02 1.635286062955856323e-01
-2.887623943388462067e-02 -2.672188282012939453e-01 1.290540546178817749e-01
-2.943628840148448944e-02 4.981689155101776123e-02 7.362560927867889404e-02
-1.924990676343441010e-02 -4.754873514175415039e-01 9.998711943626403809e-02
-1.648308150470256805e-02 4.105508327484130859e-02 -1.669556349515914917e-01
-3.044784441590309143e-02 -5.245404690504074097e-02 1.081068292260169983e-01
-2.631589956581592560e-02 1.140488833189010620e-01 5.728299543261528015e-02
-3.852183744311332703e-02 -2.612521648406982422e-01 -2.573039382696151733e-02
3.075120225548744202e-02 -6.170307099819183350e-02 -1.121860966086387634e-01
-3.600919246673583984e-02 -4.975005984306335449e-02 4.242360219359397888e-02
2.636009827256202698e-02 1.373632699251174927e-01 -8.619873970746994019e-02
3.441609814763069153e-02 -1.123086065053939819e-01 -7.747342437505722046e-02
-3.703610599040985107e-02 -2.484799027442932129e-01 5.616996437311172485e-02
-1.465128641575574875e-02 1.555485576391220093e-01 1.091852635145187378e-01
-2.228574268519878387e-02 -1.492239534854888916e-02 1.465074270963668823e-01
2.280913293361663818e-02 1.795363873243331909e-01 8.103414624929428101e-02
2.166830562055110931e-02 -2.453455775976181030e-01 -1.481534838676452637e-01
-1.826955191791057587e-02 -1.305343955755233765e-01 -1.861935853958129883e-01
-3.206890821456909180e-02 -2.874892950057983398e-01 -1.117654666304588318e-01
3.195033222436904907e-02 9.503975510597229004e-02 -5.285371094942092896e-02
3.514023870229721069e-02 -2.618091553449630737e-02 -6.216824427247047424e-02
-3.530528023838996887e-02 -7.869188487529754639e-02 6.706213206052780151e-02
3.628938645124435425e-02 -5.519086867570877075e-02 -4.804487526416778564e-02
-1.633686199784278870e-02 2.195095866918563843e-01 3.232588618993759155e-02
3.257730975747108459e-02 8.526362478733062744e-02 5.487420037388801575e-02
2.598926983773708344e-02 1.962141543626785278e-01 2.128843963146209717e-02
-2.135868929326534271e-02 -4.964747428894042969e-01 6.942430138587951660e-02
-2.031104825437068939e-02 8.899648487567901611e-02 -1.358915716409683228e-01
-3.675638139247894287e-02 -1.378642916679382324e-01 6.175487115979194641e-02
2.642635442316532135e-02 -1.460161507129669189e-01 1.491133719682693481e-01
2.376347035169601440e-02 -3.908209502696990967e-02 -1.518999636173248291e-01
-3.776499629020690918e-02 -1.416672319173812866e-01 4.502138495445251465e-02
1.354333665221929550e-02 -3.675164878368377686e-01 -1.430320441722869873e-01
2.212730795145034790e-02 2.228509634733200073e-01 -3.759746998548507690e-02
3.472064808011054993e-02 -1.473940461874008179e-01 8.285656571388244629e-02
-3.632101044058799744e-02 -1.493066996335983276e-01 -8.451911062002182007e-02
-2.866795286536216736e-02 1.172033697366714478e-01 -2.214929461479187012e-02
-1.690589636564254761e-02 -4.987834692001342773e-01 -8.723130077123641968e-02
9.928034618496894836e-03 -4.743958711624145508e-01 -9.622558206319808960e-02
-3.537417948246002197e-02 -1.715952157974243164e-02 3.155834600329399109e-02
-3.161726519465446472e-02 -4.275062680244445801e-01 -2.801600657403469086e-02
-3.476301208138465881e-02 1.706966757774353027e-02 -4.748417995870113373e-03
-1.792831532657146454e-02 -2.007025331258773804e-01 -1.855048835277557373e-01
-3.433873876929283142e-02 -3.298296034336090088e-01 6.701105087995529175e-02
2.765975333750247955e-02 1.802873164415359497e-01 1.827175356447696686e-02
4.323697183281183243e-03 -3.574543595314025879e-01 -1.680953502655029297e-01
2.859322540462017059e-02 -2.855247855186462402e-01 1.075796112418174744e-01
3.458178415894508362e-02 -4.412512481212615967e-02 -7.308743149042129517e-02
1.865825243294239044e-02 1.512616425752639771e-01 -1.233035549521446228e-01
2.533170580863952637e-02 2.012421637773513794e-01 2.426311001181602478e-02
-3.760657832026481628e-02 -9.020385891199111938e-02 -4.680056497454643250e-02
-2.026234008371829987e-02 -3.308685421943664551e-01 -1.587593704462051392e-01
3.101444337517023087e-03 -1.941876262426376343e-01 2.032285630702972412e-01
3.135745413601398468e-03 -5.429131984710693359e-01 -4.749170690774917603e-02
-3.591071069240570068e-02 -5.003941804170608521e-02 -6.267023086547851562e-02
-3.311333432793617249e-02 -2.717569470405578613e-03 -8.033503592014312744e-02
-3.366611897945404053e-02 -2.550410479307174683e-02 6.672109663486480713e-02
-3.122065961360931396e-02 -4.378856420516967773e-01 -1.110992673784494400e-02
1.436158828437328339e-02 -4.838412404060363770e-01 7.910086959600448608e-02
-3.131678327918052673e-02 5.822330713272094727e-02 4.093498364090919495e-02
-3.771904855966567993e-02 -2.408540546894073486e-01 4.548490419983863831e-02
-3.019090928137302399e-02 5.211997032165527344e-02 -8.258233219385147095e-02
-2.568356879055500031e-02 -4.155113101005554199e-01 1.020986363291740417e-01
-2.919626794755458832e-02 -9.312042593955993652e-02 -1.394937783479690552e-01
1.470136828720569611e-02 -5.899329483509063721e-02 1.866759508848190308e-01
-2.232172712683677673e-02 -4.295695573091506958e-02 1.525880396366119385e-01
-1.493531372398138046e-02 -4.769800305366516113e-01 -1.102002635598182678e-01
2.201814390718936920e-02 -4.539418220520019531e-01 2.039798349142074585e-02
3.198681026697158813e-02 -3.234596550464630127e-01 8.441703394055366516e-03
-3.317417949438095093e-02 2.156637609004974365e-02 4.301316291093826294e-02
3.600789979100227356e-02 2.632641792297363281e-02 2.457975409924983978e-02
-3.580953180789947510e-02 -3.578776717185974121e-01 -1.866668462753295898e-02
2.959201671183109283e-02 1.252555698156356812e-01 6.402342766523361206e-02
-3.036592528223991394e-02 2.902007102966308594e-02 7.638256251811981201e-02
-6.785726640373468399e-03 2.266039699316024780e-01 8.406382799148559570e-02
-3.386418521404266357e-02 7.231310009956359863e-03 4.258566349744796753e-02
1.272484380751848221e-02 -5.257930606603622437e-02 -1.883956193923950195e-01
-3.037910349667072296e-02 -6.622528284788131714e-02 -1.274176985025405884e-01
-8.535558357834815979e-03 -2.433975934982299805e-01 1.954024434089660645e-01
-3.495064377784729004e-02 1.196666061878204346e-02 6.338134407997131348e-04
-2.315065823495388031e-02 -3.283582925796508789e-01 -1.496819853782653809e-01
1.398612745106220245e-03 1.726436167955398560e-01 -1.453394293785095215e-01
-2.141883969306945801e-02 -5.194870829582214355e-01 -2.821547724306583405e-02
-2.779470384120941162e-02 -2.685327529907226562e-01 1.350818872451782227e-01
1.898568496108055115e-02 -3.832619786262512207e-01 1.273021548986434937e-01
-2.793296985328197479e-02 8.951979875564575195e-02 -8.040352910757064819e-02
8.199987001717090607e-03 -2.645747661590576172e-01 -1.850273907184600830e-01
3.691514953970909119e-02 -1.389043033123016357e-02 2.555706538259983063e-02
-1.396848587319254875e-03 -1.911944001913070679e-01 2.038282305002212524e-01
-3.274267166852951050e-02 -3.131793439388275146e-01 -9.859564900398254395e-02
3.433869034051895142e-02 7.970941066741943359e-02 1.991439610719680786e-03
-2.434500493109226227e-02 1.666007488965988159e-01 -6.406817585229873657e-03
-2.466066181659698486e-02 -1.273405700922012329e-01 1.540165096521377563e-01
-2.817922271788120270e-02 9.163317084312438965e-02 -7.550154626369476318e-02
-1.716474443674087524e-02 -2.696209549903869629e-01 1.763625741004943848e-01
2.594301290810108185e-02 3.544089198112487793e-02 1.329048126935958862e-01
-3.797732293605804443e-02 -1.278387308120727539e-01 3.670473396778106689e-02
2.048871666193008423e-02 1.676951199769973755e-01 1.028946936130523682e-01
-1.154258940368890762e-02 -3.507884144783020020e-01 -1.714550554752349854e-01
1.886340603232383728e-02 -6.289710849523544312e-02 1.767705678939819336e-01
-3.657667338848114014e-02 -5.297565460205078125e-02 -4.995542764663696289e-02
3.633597120642662048e-02 -4.163454473018646240e-02 5.498061329126358032e-02
1.204132288694381714e-02 -3.331810832023620605e-01 -1.597540974617004395e-01
2.748534083366394043e-02 -3.434459567070007324e-01 8.749420195817947388e-02
-2.848706580698490143e-02 -3.817927837371826172e-01 -1.034682840108871460e-01
3.220039978623390198e-02 9.725156426429748535e-02 5.072218924760818481e-02
2.256759628653526306e-02 2.266762405633926392e-01 1.095595210790634155e-02
1.640974543988704681e-02 -1.791634261608123779e-01 -1.776994168758392334e-01
-1.935976184904575348e-02 -5.137829184532165527e-01 -5.871907994151115417e-02
2.710083499550819397e-02 1.226799041032791138e-01 9.010436385869979858e-02
3.444064781069755554e-02 5.868576467037200928e-02 -3.460007533431053162e-02
-3.536535054445266724e-02 -4.451477527618408203e-02 5.133273825049400330e-02
-2.276274561882019043e-02 1.797461658716201782e-01 6.546466145664453506e-03
-1.388898957520723343e-02 1.648228913545608521e-01 1.064093932509422302e-01
-2.610919624567031860e-02 7.266092300415039062e-02 9.057554602622985840e-02
2.164771780371665955e-02 -6.516087800264358521e-02 1.680137068033218384e-01
-2.404580265283584595e-02 -3.926210403442382812e-01 -1.236903667449951172e-01
2.707812376320362091e-02 -3.980377912521362305e-01 -4.401726182550191879e-03
2.999802492558956146e-02 -2.524839043617248535e-01 -9.239309281110763550e-02
2.572866901755332947e-02 7.099772989749908447e-02 1.229960843920707703e-01
-3.080869838595390320e-02 -4.435955286026000977e-01 4.782699979841709137e-03
3.320136293768882751e-02 -2.730632126331329346e-01 -3.891762346029281616e-02
1.991984806954860687e-02 -4.266268610954284668e-01 9.369616210460662842e-02
-3.117848001420497894e-02 -2.831275761127471924e-02 9.457139670848846436e-02
1.336513273417949677e-02 7.424099743366241455e-02 -1.669449061155319214e-01
-1.972669363021850586e-02 -1.254506260156631470e-01 -1.820712238550186157e-01
3.746482729911804199e-02 -9.251146018505096436e-02 -2.014018595218658447e-02
-3.711830452084541321e-02 -2.141940891742706299e-01 -7.295091450214385986e-02
1.618477143347263336e-02 1.340468674898147583e-01 1.362649649381637573e-01
-3.261399269104003906e-02 -1.621970981359481812e-01 1.085527986288070679e-01
-2.105776779353618622e-02 1.228161305189132690e-01 9.611105918884277344e-02
3.376570343971252441e-02 9.203840792179107666e-02 7.294417824596166611e-03
1.229598280042409897e-02 -4.780114889144897461e-01 -8.190549165010452271e-02
-1.309026870876550674e-02 -4.145466685295104980e-01 -1.471088379621505737e-01
-3.927755728363990784e-02 -1.863424330949783325e-01 -1.251315884292125702e-02
-2.186239883303642273e-02 -3.712664544582366943e-02 1.533500552177429199e-01
3.662029653787612915e-02 5.509763956069946289e-03 1.989567652344703674e-02
-3.453357890248298645e-02 -2.011950761079788208e-01 -1.044773757457733154e-01
3.047607466578483582e-02 9.351213276386260986e-02 7.689769566059112549e-02
3.339568525552749634e-02 -2.915774583816528320e-01 -7.353759836405515671e-03
-3.135255351662635803e-02 2.501367032527923584e-02 6.753293424844741821e-02
2.231104485690593719e-02 1.272460818290710449e-02 -1.515628099441528320e-01
4.986310959793627262e-04 2.787500619888305664e-01 -4.662233591079711914e-02
2.437064051628112793e-02 -2.032255083322525024e-01 -1.430935859680175781e-01
-1.894622482359409332e-02 2.053687125444412231e-01 2.407962456345558167e-02
2.256502956151962280e-02 1.046323925256729126e-01 1.259197741746902466e-01
2.896950021386146545e-02 -2.880790829658508301e-01 -8.727870136499404907e-02
2.286999858915805817e-02 2.047805637121200562e-01 -5.778958648443222046e-02
3.211111575365066528e-02 -3.086573481559753418e-01 4.423237219452857971e-02
-3.635106608271598816e-02 -1.601363122463226318e-01 -8.491870760917663574e-02
-3.561546327546238899e-05 -1.777605116367340088e-01 -2.039140462875366211e-01
3.305955231189727783e-02 -3.012906014919281006e-01 1.843562698923051357e-03
3.554840385913848877e-02 -2.206883728504180908e-01 -2.426765859127044678e-02
-3.740400075912475586e-02 -3.051345646381378174e-01 2.169940061867237091e-02
-2.660846523940563202e-02 -3.036482632160186768e-01 1.353947222232818604e-01
3.314958885312080383e-02 1.018189787864685059e-01 1.840252801775932312e-02
-3.871476277709007263e-02 -2.276476770639419556e-01 2.295648120343685150e-02
1.877526752650737762e-02 2.509755492210388184e-01 8.386233821511268616e-04
3.554320335388183594e-02 -2.070022523403167725e-01 5.049191415309906006e-02
-3.438884019851684570e-02 -1.907348632812500000e-03 -5.918526276946067810e-02
2.921336516737937927e-02 4.845644533634185791e-02 1.086869463324546814e-01
-3.531457856297492981e-02 -1.988188028335571289e-01 8.400010317564010620e-02
2.110215136781334877e-03 -2.853146493434906006e-01 -1.889666765928268433e-01
2.641097828745841980e-02 -2.714347541332244873e-01 -1.145313009619712830e-01
1.446917001157999039e-02 -1.704026460647583008e-01 -1.838456094264984131e-01
-2.358523570001125336e-02 -4.818562865257263184e-01 6.774114817380905151e-02
3.086449950933456421e-02 9.790432453155517578e-02 6.957235187292098999e-02
3.208256140351295471e-02 -2.728248238563537598e-01 -5.878275632858276367e-02
2.192342467606067657e-02 1.188416928052902222e-01 -1.234550029039382935e-01
-1.460412424057722092e-02 1.613163948059082031e-02 1.661680042743682861e-01
2.745631895959377289e-02 -3.254271149635314941e-01 -8.229750394821166992e-02
-3.691519051790237427e-02 -2.930617630481719971e-01 -5.334154143929481506e-02
2.336934208869934082e-02 -1.638184338808059692e-01 -1.531020104885101318e-01
-7.208192255347967148e-03 7.351426780223846436e-02 1.661769002676010132e-01
2.395972050726413727e-02 -4.332484006881713867e-01 -9.054107591509819031e-03
-2.756513841450214386e-02 -4.788629412651062012e-01 -6.341031752526760101e-03
1.599622331559658051e-02 -3.348781764507293701e-01 -1.464561969041824341e-01
-3.819293528795242310e-02 -8.640909940004348755e-02 -1.214090082794427872e-02
-1.007868815213441849e-02 -5.387275218963623047e-01 7.353374361991882324e-02
2.390836365520954132e-02 2.007483989000320435e-01 4.864356666803359985e-02
3.646383434534072876e-02 -1.908827573060989380e-01 -1.734507270157337189e-02
-2.809820696711540222e-02 -4.423220753669738770e-01 6.383409351110458374e-02
2.152044698596000671e-02 -9.086094051599502563e-02 -1.639478206634521484e-01
-8.792070671916007996e-03 1.801133006811141968e-01 -1.295114904642105103e-01
-3.440313506871461868e-03 3.384049236774444580e-02 1.818488389253616333e-01
3.651838377118110657e-02 3.358632326126098633e-03 -1.888330653309822083e-02
-2.239010646007955074e-04 -2.479094266891479492e-01 -1.968332976102828979e-01
2.527794800698757172e-02 -3.068303465843200684e-01 1.242622882127761841e-01
2.665097452700138092e-02 8.134965598583221436e-02 -1.113064587116241455e-01
-3.523141145706176758e-02 -3.604205250740051270e-01 2.942495420575141907e-02
2.251301147043704987e-02 -3.938657045364379883e-01 9.855373948812484741e-02
-3.286170214414596558e-02 -2.482440471649169922e-01 1.034858599305152893e-01
3.425029665231704712e-02 -2.703022956848144531e-01 -9.207578375935554504e-03
-2.192427217960357666e-02 1.609335690736770630e-01 5.667406693100929260e-02
1.212538965046405792e-02 4.753369092941284180e-02 1.735680699348449707e-01
-2.622262015938758850e-02 -1.449377834796905518e-01 -1.588484793901443481e-01
3.250487893819808960e-02 -3.706932067871093750e-03 -8.921597152948379517e-02
-3.580248355865478516e-02 -3.489103913307189941e-01 2.673071995377540588e-02
-3.158235549926757812e-02 -1.976865231990814209e-01 -1.283756196498870850e-01
3.567684814333915710e-02 -1.281847655773162842e-01 7.145874947309494019e-02
-2.758813463151454926e-02 -4.393174052238464355e-01 7.173047214746475220e-02
-1.445846352726221085e-02 -6.455513089895248413e-02 -1.909091919660568237e-01
-3.116914257407188416e-02 7.832621037960052490e-02 1.346865575760602951e-02
-3.828363865613937378e-02 -2.327784895896911621e-01 3.458977490663528442e-02
-2.832639729604125023e-03 -5.000052452087402344e-01 -1.054682135581970215e-01
-3.538921475410461426e-02 -1.781031787395477295e-01 8.309367299079895020e-02
-1.513473596423864365e-02 -6.058424711227416992e-03 1.699053794145584106e-01
-3.346591442823410034e-02 -2.227278798818588257e-01 -1.121424585580825806e-01
-3.509955480694770813e-02 -1.170992180705070496e-01 -9.513645619153976440e-02
-2.592268772423267365e-02 -3.481156826019287109e-01 1.278916299343109131e-01
3.640657290816307068e-02 -1.988855302333831787e-01 2.733035944402217865e-02
2.973179705440998077e-02 -2.312753796577453613e-01 -1.017410084605216980e-01
-1.306142471730709076e-02 -5.579351782798767090e-01 1.465447712689638138e-02
-2.272052504122257233e-02 1.605456918478012085e-01 4.796443879604339600e-02
-6.565743242390453815e-04 -4.392417073249816895e-01 -1.411016434431076050e-01
-1.670511625707149506e-02 -1.087243184447288513e-01 1.807988733053207397e-01
2.098106220364570618e-02 -1.520028561353683472e-01 -1.642708182334899902e-01
3.349864855408668518e-02 -2.169472277164459229e-01 8.180453628301620483e-02
-1.779245398938655853e-02 1.964493542909622192e-01 5.410362780094146729e-02
2.376452460885047913e-02 -1.748849302530288696e-01 1.600051522254943848e-01
-3.241393715143203735e-02 -4.179164171218872070e-01 -2.393124066293239594e-02
-2.520253695547580719e-02 -9.377454966306686401e-02 1.479364186525344849e-01
5.382677074521780014e-03 -7.592760771512985229e-02 -2.009966373443603516e-01
-3.534910455346107483e-02 -3.945875912904739380e-02 -6.696432083845138550e-02
-1.372717879712581635e-02 2.441511899232864380e-01 -7.014709990471601486e-03
-1.877139694988727570e-02 -3.440825343132019043e-01 -1.593908071517944336e-01
3.719366341829299927e-02 -1.660707145929336548e-01 1.271923817694187164e-02
-1.795754954218864441e-02 -1.193761825561523438e-01 -1.866570264101028442e-01
3.309700638055801392e-02 -2.975206971168518066e-01 -9.199287742376327515e-03
-2.290143631398677826e-02 -8.019936084747314453e-02 -1.683595627546310425e-01
1.890634559094905853e-02 1.263967007398605347e-01 -1.334729194641113281e-01
-3.909853845834732056e-02 -1.596887856721878052e-01 -2.296636626124382019e-02
-3.334141895174980164e-02 1.898322999477386475e-02 -6.163739413022994995e-02
-2.694724500179290771e-02 9.761995077133178711e-02 6.516133993864059448e-02
-3.941980656236410141e-03 -9.880690276622772217e-02 -2.050470113754272461e-01
2.921765297651290894e-02 -3.181506395339965820e-01 8.475049585103988647e-02
-3.610606491565704346e-02 -3.305374383926391602e-01 3.681927546858787537e-02
-3.404893353581428528e-02 -3.943991661071777344e-01 9.382295422255992889e-03
-5.121475551277399063e-03 -1.271274685859680176e-02 1.898680329322814941e-01
3.771514073014259338e-02 -6.616344302892684937e-02 4.682403057813644409e-03
2.983659505844116211e-02 -3.010925650596618652e-01 -7.119742780923843384e-02
2.666748128831386566e-02 -3.889278173446655273e-01 5.526033043861389160e-02
2.085630409419536591e-02 -4.053705334663391113e-01 1.029858738183975220e-01
7.185885682702064514e-03 -5.269438028335571289e-01 6.819517910480499268e-02
1.746029779314994812e-02 1.960683614015579224e-01 9.659195691347122192e-02
-3.753475099802017212e-02 -3.057942390441894531e-01 -2.536838874220848083e-02
1.394778769463300705e-02 -4.981029629707336426e-01 6.322254985570907593e-02
-5.357357207685709000e-03 -1.318711787462234497e-01 2.019169479608535767e-01
-1.085742656141519547e-02 -2.137829065322875977e-01 -1.969611495733261108e-01
-9.902037680149078369e-03 -4.665699601173400879e-01 1.320995837450027466e-01
3.090370446443557739e-02 -2.419599592685699463e-01 -8.745642006397247314e-02
8.241144008934497833e-03 4.363256692886352539e-02 1.794012933969497681e-01
-3.916555270552635193e-02 -2.223032712936401367e-01 -6.806878838688135147e-03
3.614510223269462585e-02 2.582569420337677002e-02 1.727043464779853821e-02
2.534880302846431732e-02 -3.856573700904846191e-01 -6.014162302017211914e-02
3.641587868332862854e-02 -1.679338514804840088e-01 4.800340533256530762e-02
3.205312415957450867e-02 1.237902194261550903e-01 8.219907060265541077e-03
-3.359618037939071655e-02 -4.026538133621215820e-01 -1.291369274258613586e-02
3.356031328439712524e-02 -2.897925674915313721e-01 1.816573180258274078e-02
9.829211048781871796e-03 5.100829899311065674e-02 -1.792296469211578369e-01
1.815095730125904083e-02 -3.135858476161956787e-02 -1.725335568189620972e-01
