-3.818411380052566528e-02 3.860512375831604004e-02 2.805648148059844971e-01
1.098409369587898254e-01 -4.807002842426300049e-02 2.621852159500122070e-01
1.191329210996627808e-01 -5.913785845041275024e-02 2.327423989772796631e-01
-1.153219491243362427e-01 -8.851702511310577393e-02 1.844593510031700134e-02
5.150905251502990723e-01 7.150077074766159058e-02 5.578193441033363342e-02
-2.935774624347686768e-01 -7.374785095453262329e-02 1.415412127971649170e-01
6.910900473594665527e-01 2.946116216480731964e-02 2.024366110563278198e-01
8.343095183372497559e-01 4.174931906163692474e-03 1.770356744527816772e-01
3.315300047397613525e-01 7.711942493915557861e-02 -7.280305773019790649e-02
7.718119621276855469e-01 3.409844264388084412e-02 1.556108891963958740e-01
3.227741271257400513e-02 -2.804725058376789093e-02 -2.910410463809967041e-01
-4.432262778282165527e-01 4.263988137245178223e-02 2.328052073717117310e-01
-7.363061308860778809e-01 2.473960071802139282e-02 1.846415847539901733e-01
8.387672305107116699e-01 2.586650475859642029e-02 1.410048753023147583e-01
4.494814872741699219e-01 -7.100743055343627930e-02 -1.282456964254379272e-01
-3.080526590347290039e-01 8.108267188072204590e-02 -6.919949501752853394e-02
1.135707423090934753e-01 -6.495586037635803223e-02 2.132196277379989624e-01
-5.190494060516357422e-01 6.266124546527862549e-02 -1.481959521770477295e-01
1.517064273357391357e-01 -5.081656575202941895e-02 2.545094490051269531e-01
-6.710653305053710938e-01 6.586560606956481934e-02 1.394432503730058670e-02
-5.065080523490905762e-01 -7.519531995058059692e-02 2.849937044084072113e-02
-5.860351771116256714e-02 -4.810530319809913635e-02 -2.603870928287506104e-01
-4.010239988565444946e-02 -5.186077952384948730e-02 -2.520721256732940674e-01
-7.315966486930847168e-01 -4.490875452756881714e-02 1.253062784671783447e-01
1.274824142456054688e-01 5.598183348774909973e-02 2.389459013938903809e-01
4.956612884998321533e-01 -7.525306195020675659e-02 8.837185800075531006e-02
-3.721208274364471436e-01 -7.880693674087524414e-02 7.523478567600250244e-02
8.255973458290100098e-02 -5.114524438977241516e-02 2.554580271244049072e-01
1.381670832633972168e-01 -5.765921995043754578e-02 -2.319456785917282104e-01
8.347276598215103149e-02 -3.065262921154499054e-02 2.928212285041809082e-01
-1.600687801837921143e-01 -6.369747221469879150e-02 2.086297273635864258e-01
4.534051418304443359e-01 -6.856338679790496826e-02 1.535584181547164917e-01
3.467684090137481689e-01 7.907104492187500000e-02 -3.617952018976211548e-02
-6.308905482292175293e-01 3.994177095592021942e-03 2.331671714782714844e-01
-3.293808996677398682e-01 -8.351244032382965088e-02 1.651319488883018494e-02
-2.656694352626800537e-01 -8.530382066965103149e-02 -3.434485942125320435e-02
4.643166065216064453e-01 -1.704312162473797798e-04 -2.607578337192535400e-01
3.564607799053192139e-01 5.087415128946304321e-02 -2.069263309240341187e-01
-5.714105367660522461e-01 -2.019152045249938965e-02 -2.478941828012466431e-01
-2.279245555400848389e-01 8.518343418836593628e-02 -1.993433572351932526e-02
1.881384402513504028e-01 -7.935952395200729370e-02 -1.333173662424087524e-01
-4.910802543163299561e-01 4.672630876302719116e-02 2.131577283143997192e-01
6.261935234069824219e-01 -7.022815942764282227e-02 -3.092928044497966766e-02
4.370433688163757324e-01 -7.383541017770767212e-02 1.250572949647903442e-01
-3.161761164665222168e-01 -3.300739452242851257e-02 2.666374742984771729e-01
-3.859061002731323242e-01 -7.275030016899108887e-02 1.231470778584480286e-01
-1.873089224100112915e-01 8.496192097663879395e-02 5.570775642991065979e-02
2.207281887531280518e-01 8.286554366350173950e-02 6.297667324542999268e-02
4.632396399974822998e-01 6.881616264581680298e-02 -9.326165914535522461e-02
3.329913914203643799e-01 -5.750805512070655823e-02 -2.111276388168334961e-01
-4.094181060791015625e-01 -5.674636363983154297e-02 1.944401562213897705e-01
-3.763647079467773438e-01 -3.729664161801338196e-02 2.506504356861114502e-01
2.016091644763946533e-01 2.487567998468875885e-02 -2.784850299358367920e-01
-2.254060208797454834e-01 -8.671548217535018921e-02 -1.144830975681543350e-02
6.308206915855407715e-01 5.603479593992233276e-02 1.311291605234146118e-01
-6.566223502159118652e-01 6.409077346324920654e-02 -7.131032645702362061e-02
-3.240728080272674561e-01 1.886035315692424774e-02 2.841344177722930908e-01
7.300402224063873291e-02 -8.493062108755111694e-02 -9.868506342172622681e-02
1.957890093326568604e-01 -4.217046871781349182e-02 -2.629565894603729248e-01
-7.714720964431762695e-01 5.678559839725494385e-02 4.941033665090799332e-03
3.990522623062133789e-01 2.612717077136039734e-02 -2.520353496074676514e-01
-7.696913480758666992e-01 -3.700153902173042297e-02 1.339585930109024048e-01
-7.521788030862808228e-02 -8.337087929248809814e-02 1.075084283947944641e-01
-6.911648511886596680e-01 1.535061094909906387e-02 2.106865942478179932e-01
-1.802198439836502075e-01 -7.703382521867752075e-02 -1.489660143852233887e-01
-6.462635993957519531e-01 -6.363847106695175171e-02 -7.841782271862030029e-02
2.702820301055908203e-01 -2.169491164386272430e-02 2.944289445877075195e-01
2.855323553085327148e-01 -3.796047531068325043e-03 -2.869220376014709473e-01
5.829657316207885742e-01 6.758867204189300537e-02 4.569841921329498291e-02
2.059138864278793335e-01 -8.540837466716766357e-02 -7.449860125780105591e-02
-6.190968751907348633e-01 4.493183456361293793e-03 -2.461114078760147095e-01
2.697509229183197021e-01 -8.106472343206405640e-02 1.112683266401290894e-01
6.400525569915771484e-02 -8.909076452255249023e-02 -3.386204689741134644e-02
6.888544559478759766e-01 -5.215023830533027649e-02 1.494681686162948608e-01
-7.061512470245361328e-01 4.699209704995155334e-02 1.422648876905441284e-01
3.675540164113044739e-02 -8.387187868356704712e-02 1.089893281459808350e-01
3.400075435638427734e-01 -8.423057198524475098e-02 4.539694264531135559e-02
4.457269906997680664e-01 -5.590923503041267395e-02 2.086519151926040649e-01
4.426378011703491211e-01 -5.547018721699714661e-02 -1.969256848096847534e-01
2.421043366193771362e-01 -8.624215424060821533e-02 5.418422445654869080e-02
-4.758495390415191650e-01 7.604106515645980835e-02 -5.657830461859703064e-02
-9.731799364089965820e-01 -9.383438155055046082e-03 3.881659358739852905e-02
-7.897186279296875000e-01 5.078307166695594788e-02 6.678834557533264160e-02
-1.342901885509490967e-01 5.987755581736564636e-02 2.255451381206512451e-01
1.567514687776565552e-01 4.524519294500350952e-02 -2.474381774663925171e-01
5.917451158165931702e-02 3.300768509507179260e-02 -2.765466868877410889e-01
-8.011347055435180664e-02 -7.392773032188415527e-02 1.708040684461593628e-01
4.001551866531372070e-01 7.736655324697494507e-02 -2.558988146483898163e-02
4.999777972698211670e-01 2.121206186711788177e-02 -2.393063455820083618e-01
1.940525472164154053e-01 5.637658387422561646e-02 2.333789169788360596e-01
5.649192333221435547e-01 5.802848562598228455e-02 -1.198058128356933594e-01
-9.502314925193786621e-01 -2.255478687584400177e-02 2.242730185389518738e-02
1.033009737730026245e-01 -6.504629552364349365e-02 -2.103894501924514771e-01
-4.040082991123199463e-01 2.118393220007419586e-02 -2.728988230228424072e-01
-2.795790135860443115e-01 6.519012898206710815e-02 1.913688033819198608e-01
-8.622308969497680664e-01 -3.274662792682647705e-02 8.689274638891220093e-02
-3.264473378658294678e-01 -1.690171286463737488e-02 2.836723327636718750e-01
-6.996545791625976562e-01 -6.197544559836387634e-02 -2.287378720939159393e-02
7.803365588188171387e-02 -6.138763204216957092e-02 2.263912558555603027e-01
4.819017946720123291e-01 6.966050714254379272e-02 1.061314344406127930e-01
-8.451703190803527832e-01 -4.407568275928497314e-02 2.692078799009323120e-02
3.178748190402984619e-01 7.391916215419769287e-02 1.327385753393173218e-01
9.589782357215881348e-01 -1.384105533361434937e-02 -4.392946511507034302e-02
-3.274360299110412598e-01 7.412131875753402710e-02 1.357462704181671143e-01
-5.783757567405700684e-01 -5.937961861491203308e-02 -1.478220671415328979e-01
-4.835587367415428162e-02 -8.525909483432769775e-02 -9.524281322956085205e-02
4.252813756465911865e-01 2.878224290907382965e-02 2.668342292308807373e-01
-4.560216516256332397e-02 -7.288736104965209961e-02 -1.806642115116119385e-01
-8.369818925857543945e-01 3.449581936001777649e-02 1.131530031561851501e-01
-3.023089766502380371e-01 -1.079173176549375057e-03 2.932429909706115723e-01
-1.898806095123291016e-01 -2.764386311173439026e-02 -2.884531021118164062e-01
-9.607841968536376953e-01 2.340417727828025818e-02 -3.023553080856800079e-02
1.603114157915115356e-01 -4.883778840303421021e-02 -2.524961233139038086e-01
-3.686456084251403809e-01 -5.913095176219940186e-02 1.945313811302185059e-01
-1.627471297979354858e-01 -7.360494136810302734e-02 -1.704877018928527832e-01
-7.693205475807189941e-01 3.918140754103660583e-02 -1.482747048139572144e-01
-2.632556483149528503e-02 6.004073470830917358e-02 2.290837913751602173e-01
-2.270112484693527222e-01 7.995988428592681885e-02 1.113135591149330139e-01
-2.397736608982086182e-01 8.512275665998458862e-02 2.327414229512214661e-02
-2.754247486591339111e-01 8.042316138744354248e-02 9.570285677909851074e-02
1.497335284948348999e-01 8.478654175996780396e-02 5.174607411026954651e-02
2.993952035903930664e-01 -8.529084920883178711e-02 4.692857712507247925e-02
-8.608155846595764160e-01 4.547570645809173584e-02 -1.501195412129163742e-02
-1.716289669275283813e-03 6.553740799427032471e-02 2.094081491231918335e-01
-2.356572449207305908e-01 8.463349938392639160e-02 4.410546272993087769e-02
3.303157687187194824e-01 -1.708700135350227356e-02 2.928735315799713135e-01
-1.625566631555557251e-01 8.121379464864730835e-02 -9.755931049585342407e-02
-9.892488121986389160e-01 1.019860804080963135e-02 -7.041948847472667694e-03
2.326622307300567627e-01 -5.644286796450614929e-02 -2.273296117782592773e-01
8.685266971588134766e-01 6.325934082269668579e-03 -1.237023994326591492e-01
5.460589006543159485e-02 8.670909702777862549e-02 -2.478192793205380440e-03
1.960659399628639221e-02 -2.577498555183410645e-02 2.985955774784088135e-01
-1.093663275241851807e-01 -8.711345493793487549e-02 -6.298220157623291016e-02
3.496288359165191650e-01 4.164702445268630981e-02 2.548481523990631104e-01
7.189592123031616211e-01 -5.755249410867691040e-02 -8.130682259798049927e-02
6.856206059455871582e-02 2.888367511332035065e-02 -2.820864915847778320e-01
3.043790161609649658e-01 -7.403960078954696655e-02 -1.474915146827697754e-01
9.516390562057495117e-01 -9.989447891712188721e-03 9.303701668977737427e-02
2.223991416394710541e-02 -8.945580571889877319e-02 -2.241627126932144165e-02
4.437158107757568359e-01 2.116623334586620331e-02 2.734009921550750732e-01
5.886875987052917480e-01 -5.879310145974159241e-02 -1.427213251590728760e-01
6.312098354101181030e-02 8.188933879137039185e-02 -9.067803621292114258e-02
-4.251192510128021240e-01 7.621111720800399780e-02 -8.247235417366027832e-02
5.086066201329231262e-02 -7.487603276968002319e-02 -1.703915745019912720e-01
-1.328539550304412842e-01 -3.433011099696159363e-02 2.822536230087280273e-01
5.930698011070489883e-03 -8.863917738199234009e-02 -4.777971282601356506e-02
-3.893845677375793457e-01 -7.888694852590560913e-02 -7.827280461788177490e-02
3.275800049304962158e-01 7.210671901702880859e-02 -1.177404448390007019e-01
4.053680598735809326e-01 7.619127631187438965e-02 7.251805067062377930e-02
-6.504862308502197266e-01 6.630209833383560181e-02 4.395208880305290222e-02
7.187395095825195312e-01 -4.460045322775840759e-02 -1.418837606906890869e-01
-2.175700478255748749e-02 6.991676241159439087e-02 -1.752414405345916748e-01
-3.510331809520721436e-01 4.117154330015182495e-02 -2.488739043474197388e-01
-6.638264060020446777e-01 5.275400355458259583e-02 -1.436123400926589966e-01
3.488665446639060974e-02 -4.395159333944320679e-02 2.714366018772125244e-01
-4.179110378026962280e-02 -2.632182836532592773e-02 -2.936240136623382568e-01
-8.157035708427429199e-01 -3.979762271046638489e-02 -1.141130775213241577e-01
2.191284596920013428e-01 7.402417808771133423e-02 1.526824384927749634e-01
8.016153573989868164e-01 -4.389594495296478271e-02 -9.753922373056411743e-02
-3.179827928543090820e-01 3.453001379966735840e-02 -2.646611928939819336e-01
-2.075061053037643433e-01 -4.429962858557701111e-02 2.585530877113342285e-01
6.644951552152633667e-02 8.658856153488159180e-02 2.337232604622840881e-02
2.148697376251220703e-01 -8.192611485719680786e-02 -1.093944832682609558e-01
-1.690014898777008057e-01 -5.500574037432670593e-02 -2.398392111063003540e-01
2.238759845495223999e-01 -8.787067979574203491e-02 9.941316209733486176e-03
-5.682995915412902832e-01 -4.088583588600158691e-02 -2.152542024850845337e-01
-1.441169530153274536e-01 -8.707180619239807129e-02 4.791662096977233887e-02
4.400719404220581055e-01 7.306291162967681885e-02 9.325287491083145142e-02
7.993659377098083496e-01 -4.901837930083274841e-02 -7.227253168821334839e-02
5.023323297500610352e-01 7.185143977403640747e-02 -3.294166177511215210e-02
7.748334854841232300e-02 5.462712608277797699e-03 -3.009809255599975586e-01
4.690348505973815918e-01 1.475871074944734573e-02 -2.522360682487487793e-01
2.292753905057907104e-01 -3.390505537390708923e-02 2.830127179622650146e-01
-1.660844683647155762e-01 3.764292225241661072e-02 2.765657305717468262e-01
4.901784658432006836e-01 3.650952130556106567e-02 2.421742677688598633e-01
-4.987360909581184387e-02 3.933897241950035095e-02 2.790328264236450195e-01
-1.186126749962568283e-02 1.929871551692485809e-02 3.045123517513275146e-01
-8.218909800052642822e-02 8.013233542442321777e-02 1.268663108348846436e-01
4.249970018863677979e-01 6.371621042490005493e-02 1.676379293203353882e-01
-2.855055406689643860e-02 -8.024829626083374023e-02 -1.388585418462753296e-01
4.571543633937835693e-01 7.549113035202026367e-02 2.289514988660812378e-02
5.001623630523681641e-01 -7.618223130702972412e-02 -6.167563796043395996e-02
-9.840797781944274902e-01 -8.040565066039562225e-03 -3.817829489707946777e-02
-2.096041887998580933e-01 8.562654256820678711e-02 2.503523603081703186e-02
2.119036614894866943e-01 -7.750024646520614624e-02 1.467726379632949829e-01
-6.266375780105590820e-01 -6.884139031171798706e-03 -2.439856529235839844e-01
-9.031838178634643555e-01 -2.880937606096267700e-02 -8.534932136535644531e-02
2.738009206950664520e-02 1.023627910763025284e-02 -3.006250858306884766e-01
-7.110143303871154785e-01 -2.082097157835960388e-02 1.943590193986892700e-01
8.174729347229003906e-01 -1.534011773765087128e-02 -1.518156528472900391e-01
8.695720881223678589e-02 3.112703561782836914e-02 2.918516695499420166e-01
-1.775211244821548462e-01 8.625790476799011230e-02 2.505415817722678185e-03
-6.054770946502685547e-01 7.006633281707763672e-02 3.266210108995437622e-02
7.362611293792724609e-01 -6.196256354451179504e-02 1.699216105043888092e-02
-9.068946838378906250e-01 3.103038668632507324e-02 -8.039784431457519531e-02
4.659989774227142334e-01 -7.738787680864334106e-02 -6.841747462749481201e-02
1.280643641948699951e-01 -5.961865186691284180e-02 -2.268378734588623047e-01
-6.400182247161865234e-01 4.137147963047027588e-02 1.856741309165954590e-01
7.791987657546997070e-01 4.825187847018241882e-02 6.961135566234588623e-02
6.344826426357030869e-03 -4.316335543990135193e-02 -2.701000869274139404e-01
-4.517613053321838379e-01 7.878877222537994385e-02 1.624343730509281158e-02
-2.900872528553009033e-01 -6.634048372507095337e-02 -1.893355548381805420e-01
-3.654102981090545654e-01 5.829581245779991150e-02 2.038226723670959473e-01
-3.317750990390777588e-01 6.557136029005050659e-02 -1.755966097116470337e-01
4.503395557403564453e-01 -6.677652895450592041e-02 1.637479066848754883e-01
4.853003025054931641e-01 -7.709971815347671509e-02 -5.975421518087387085e-02
4.281111359596252441e-01 5.913916975259780884e-02 1.882437765598297119e-01
-6.597744226455688477e-01 6.444340199232101440e-02 6.034537404775619507e-02
-4.945603907108306885e-01 6.600405275821685791e-02 1.384211033582687378e-01
-4.589790403842926025e-01 7.526869326829910278e-02 8.036325126886367798e-02
5.509603619575500488e-01 6.910768896341323853e-02 6.001447141170501709e-02
-3.488575816154479980e-01 5.375014618039131165e-02 2.210938036441802979e-01
-8.901181071996688843e-02 4.534946754574775696e-02 2.662612795829772949e-01
5.784421786665916443e-02 -5.052109435200691223e-02 -2.539616525173187256e-01
-3.962765634059906006e-02 3.581454977393150330e-02 -2.744224965572357178e-01
-2.094473689794540405e-01 -8.564873784780502319e-02 5.061838030815124512e-02
-1.277195960283279419e-01 -8.724541962146759033e-02 -5.619926005601882935e-02
5.839222073554992676e-01 -7.180701941251754761e-02 6.920850276947021484e-02
-4.860021770000457764e-01 3.530764579772949219e-02 -2.409443706274032593e-01
3.482503294944763184e-01 5.892708525061607361e-02 -1.808222681283950806e-01
8.092233538627624512e-02 -6.653693318367004395e-02 2.079368680715560913e-01
8.230201601982116699e-01 1.667415723204612732e-02 -1.364182084798812866e-01
2.757042832672595978e-02 8.695586025714874268e-02 1.490344759076833725e-02
-6.912918388843536377e-02 7.618967443704605103e-02 1.555860638618469238e-01
-7.022917736321687698e-03 5.974116176366806030e-02 -2.158218175172805786e-01
1.164481043815612793e-01 -3.731114044785499573e-02 -2.761776745319366455e-01
-4.141829311847686768e-01 5.249145999550819397e-02 -2.115854471921920776e-01
2.313030064105987549e-01 -5.263599753379821777e-02 -2.375501692295074463e-01
-6.248326897621154785e-01 -5.978612974286079407e-02 1.065947115421295166e-01
4.757384359836578369e-01 7.159796357154846191e-02 8.894303441047668457e-02
-2.165597528219223022e-01 8.338975161314010620e-02 -6.343398243188858032e-02
1.059819608926773071e-01 5.562518164515495300e-02 2.409791499376296997e-01
1.405702531337738037e-01 8.393055200576782227e-02 -5.066580325365066528e-02
-9.488673806190490723e-01 -2.113862708210945129e-02 3.565184772014617920e-02
-4.901638627052307129e-01 -3.939070925116539001e-02 2.246716618537902832e-01
4.740401804447174072e-01 -7.552855461835861206e-02 9.648646414279937744e-02
7.048682570457458496e-01 -5.001305043697357178e-02 -1.291183084249496460e-01
-1.968622207641601562e-03 3.754759579896926880e-02 -2.709307670593261719e-01
2.003616280853748322e-02 -6.301205605268478394e-02 -2.202535420656204224e-01
-9.688226133584976196e-02 1.379538420587778091e-02 3.056953549385070801e-01
-1.970849484205245972e-01 8.356783539056777954e-02 -6.515322625637054443e-02
9.372256994247436523e-01 -1.819741912186145782e-02 -6.393448263406753540e-02
5.658202990889549255e-02 8.675398677587509155e-02 5.653974600136280060e-03
-4.366608262062072754e-01 5.442556366324424744e-02 2.028610259294509888e-01
4.094618260860443115e-01 6.586146354675292969e-02 -1.331099271774291992e-01
4.441266357898712158e-01 -6.800372153520584106e-02 -1.467209309339523315e-01
4.500552415847778320e-01 -7.769913226366043091e-02 -7.373479008674621582e-02
-2.806038558483123779e-01 7.361393421888351440e-02 1.486313641071319580e-01
3.363726437091827393e-01 5.423929542303085327e-02 2.236825227737426758e-01
2.213691622018814087e-01 7.886106520891189575e-02 -9.150353074073791504e-02
1.778216511011123657e-01 6.151304021477699280e-02 2.173824459314346313e-01
3.732340335845947266e-01 -3.978733345866203308e-02 -2.463782578706741333e-01
3.793481588363647461e-01 6.965840607881546021e-02 -1.189915984869003296e-01
1.299397088587284088e-02 8.578786253929138184e-02 -4.276810586452484131e-02
6.878546476364135742e-01 5.979349464178085327e-02 1.496247760951519012e-02
6.426497697830200195e-01 5.515447258949279785e-02 1.300896555185317993e-01
-2.955826520919799805e-01 5.947952345013618469e-02 -2.047580629587173462e-01
-3.160028457641601562e-01 7.817028462886810303e-02 -9.919140487909317017e-02
8.567268252372741699e-01 3.494267538189888000e-02 8.681411296129226685e-02
7.337307929992675781e-02 5.852651968598365784e-02 -2.166199237108230591e-01
2.983258068561553955e-01 -8.623792976140975952e-02 1.054805237799882889e-02
-5.662561655044555664e-01 6.560038030147552490e-02 1.120614930987358093e-01
1.908025145530700684e-01 5.188127979636192322e-02 -2.274254262447357178e-01
-5.273251533508300781e-01 1.506065297871828079e-02 -2.595508694648742676e-01
-5.020292997360229492e-01 1.230738684535026550e-02 2.602946162223815918e-01
-1.595018953084945679e-01 -8.769840747117996216e-02 2.433047443628311157e-02
5.079560875892639160e-01 5.445585027337074280e-02 1.865404546260833740e-01
-1.230663657188415527e-01 8.302827179431915283e-02 9.600247442722320557e-02
-3.563746511936187744e-01 5.759993940591812134e-02 2.077676802873611450e-01
-6.578467488288879395e-01 -6.220501661300659180e-02 6.450968235731124878e-02
4.589374959468841553e-01 -6.793911755084991455e-02 -1.427288949489593506e-01
1.970872581005096436e-01 8.436876535415649414e-02 3.629856184124946594e-02
5.998246669769287109e-01 6.416986882686614990e-02 8.383478224277496338e-02
2.800141088664531708e-02 8.693873137235641479e-02 1.451128628104925156e-03
-6.383405923843383789e-01 -2.816016413271427155e-02 -2.215035408735275269e-01
-4.445328116416931152e-01 -7.198116928339004517e-02 -1.214049533009529114e-01
-2.932212650775909424e-01 -8.192638307809829712e-02 -8.316010236740112305e-02
-5.030688643455505371e-01 -7.407903671264648438e-02 5.307023227214813232e-02
-2.598632574081420898e-01 -3.234059736132621765e-02 2.743680179119110107e-01
4.957107007503509521e-01 -7.614408433437347412e-02 7.798335701227188110e-02
6.884468197822570801e-01 -4.782178625464439392e-02 -1.448196619749069214e-01
2.034873515367507935e-01 -7.999225705862045288e-02 1.305393725633621216e-01
3.909811973571777344e-01 -7.307114452123641968e-02 1.431902199983596802e-01
-3.257343769073486328e-01 8.168514817953109741e-02 6.057335808873176575e-02
-3.309878706932067871e-01 -6.485637277364730835e-02 1.793309152126312256e-01
-6.957330107688903809e-01 3.379415720701217651e-02 -1.924233138561248779e-01
-2.154177874326705933e-01 -7.293003797531127930e-02 -1.682924926280975342e-01
-4.154571592807769775e-01 -4.763408377766609192e-02 2.208622843027114868e-01
2.982291877269744873e-01 -8.597894012928009033e-02 2.729205973446369171e-02
-4.191964119672775269e-02 -6.746943295001983643e-02 -2.041886746883392334e-01
6.171252131462097168e-01 4.206066578626632690e-02 1.959229856729507446e-01
3.914543688297271729e-01 -7.546702772378921509e-02 -1.169378161430358887e-01
7.127603888511657715e-01 -4.145145043730735779e-02 1.771146655082702637e-01
-3.714665472507476807e-01 7.225017994642257690e-02 -1.319846957921981812e-01
-7.126517295837402344e-01 1.124583277851343155e-02 2.062963694334030151e-01
-8.510397672653198242e-01 3.673342987895011902e-02 9.433354437351226807e-02
-7.298216968774795532e-02 -7.083619385957717896e-02 -1.893853545188903809e-01
5.480312705039978027e-01 5.839179828763008118e-02 -1.250175982713699341e-01
2.905187308788299561e-01 -8.111542463302612305e-02 -9.995488822460174561e-02
-4.490687251091003418e-01 7.799870520830154419e-02 4.582169651985168457e-02
-5.709968805313110352e-01 -4.548018053174018860e-02 -2.027448117733001709e-01
-6.642508506774902344e-01 -3.462024033069610596e-02 1.859608441591262817e-01
-1.145183444023132324e-01 -8.250823616981506348e-02 -1.161990091204643250e-01
6.871695518493652344e-01 4.799531400203704834e-02 1.451018899679183960e-01
-9.355220198631286621e-01 1.915431395173072815e-02 7.557418197393417358e-02
3.004907071590423584e-01 -5.201899260282516479e-02 -2.310043126344680786e-01
1.746644973754882812e-01 -1.247696578502655029e-02 -2.952548265457153320e-01
-6.687845289707183838e-02 -6.790190190076828003e-02 1.994471997022628784e-01
-3.468168675899505615e-01 7.211463153362274170e-02 1.442470997571945190e-01
1.622076481580734253e-01 -8.679945021867752075e-02 6.638916581869125366e-02
-8.050608038902282715e-01 -5.081639066338539124e-02 -1.197191979736089706e-02
-2.263524830341339111e-01 -6.683851033449172974e-02 -1.954452544450759888e-01
-6.796445846557617188e-01 4.638123139739036560e-02 1.561564058065414429e-01
1.394016146659851074e-01 -2.564540505409240723e-02 -2.889922559261322021e-01
-7.644181847572326660e-01 5.686428025364875793e-02 -3.540124744176864624e-02
-8.750822544097900391e-01 3.517093509435653687e-02 -9.350785613059997559e-02
-3.691707178950309753e-02 4.624615609645843506e-02 -2.539391815662384033e-01
-3.879049122333526611e-01 -7.568432390689849854e-02 9.980472922325134277e-02
-2.574906647205352783e-01 7.988963276147842407e-02 1.055908054113388062e-01
-7.948326468467712402e-01 -4.374453797936439514e-02 8.934462815523147583e-02
-3.429979458451271057e-02 -8.371470868587493896e-02 -1.112985834479331970e-01
3.790373802185058594e-01 -8.366593718528747559e-02 -1.394204329699277878e-02
-3.670065850019454956e-02 8.258496969938278198e-02 1.060211732983589172e-01
-5.178304314613342285e-01 7.217533886432647705e-02 -8.021685481071472168e-02
-7.312616705894470215e-01 4.118319600820541382e-02 -1.593133807182312012e-01
8.620592355728149414e-01 2.664898149669170380e-02 -8.596885204315185547e-02
6.495316047221422195e-03 -7.647438347339630127e-02 -1.625822186470031738e-01
3.494334816932678223e-01 2.342556975781917572e-02 2.836626470088958740e-01
-6.548876762390136719e-01 -6.547225266695022583e-02 -3.669859841465950012e-02
-7.703456562012434006e-03 -7.492728531360626221e-02 1.693155467510223389e-01
4.599113166332244873e-01 -7.975881546735763550e-02 4.644577205181121826e-02
-4.356515593826770782e-03 6.340859085321426392e-02 -2.025940716266632080e-01
1.841032356023788452e-01 4.991354048252105713e-02 -2.334728538990020752e-01
-7.235718965530395508e-01 -5.850674957036972046e-02 3.374151512980461121e-02
5.291447639465332031e-01 -6.803258508443832397e-02 1.323231905698776245e-01
3.516571521759033203e-01 6.944611668586730957e-02 1.545328795909881592e-01
6.454144716262817383e-01 -6.947653740644454956e-02 3.107834793627262115e-02
4.053829312324523926e-01 7.674772292375564575e-02 -3.411007672548294067e-02
5.870761275291442871e-01 -7.363954558968544006e-03 -2.346881479024887085e-01
5.636282563209533691e-01 -5.871465057134628296e-02 1.690142750740051270e-01
5.096346139907836914e-01 4.912442341446876526e-02 -1.771077215671539307e-01
-5.277889221906661987e-02 5.264690145850181580e-02 2.502933442592620850e-01
-6.460039615631103516e-01 2.116942405700683594e-02 2.191489040851593018e-01
-2.913289964199066162e-01 -7.241504639387130737e-02 1.499364525079727173e-01
-7.983944416046142578e-01 -2.263287454843521118e-02 1.551414728164672852e-01
-7.527260780334472656e-01 4.280668124556541443e-02 -1.437808871269226074e-01
1.481895893812179565e-01 5.041031539440155029e-02 2.532164156436920166e-01
-8.779391646385192871e-02 4.487002640962600708e-02 -2.569856047630310059e-01
-2.958115339279174805e-01 7.428779453039169312e-02 1.414500623941421509e-01
-4.608493447303771973e-01 -5.912743881344795227e-02 1.727989912033081055e-01
6.190342307090759277e-01 6.198068335652351379e-02 -5.911789089441299438e-02
3.896859288215637207e-01 7.109049707651138306e-02 1.326263844966888428e-01
-5.230865478515625000e-01 7.549066096544265747e-02 -8.913512341678142548e-03
2.827034592628479004e-01 6.364991515874862671e-02 -1.737725138664245605e-01
6.877828836441040039e-01 1.252637943252921104e-03 2.333320826292037964e-01
4.705242216587066650e-01 -7.026573270559310913e-02 1.385514736175537109e-01
8.016947507858276367e-01 1.867153868079185486e-02 -1.441884040832519531e-01
-2.298478782176971436e-01 1.974778063595294952e-02 -2.900177240371704102e-01
-4.465856254100799561e-01 5.530323088169097900e-02 -1.966588646173477173e-01
-6.499215960502624512e-01 -6.474310904741287231e-02 4.096616804599761963e-02
-6.583983302116394043e-01 6.673813611268997192e-02 -2.244601584970951080e-02
6.507174372673034668e-01 -5.618475005030632019e-02 -1.284693181514739990e-01
3.420915305614471436e-01 5.541834607720375061e-02 -1.949204951524734497e-01
-7.143768072128295898e-01 6.015788763761520386e-02 5.449307709932327271e-02
-8.158494234085083008e-01 -3.595101460814476013e-02 1.097162738442420959e-01
-5.209006071090698242e-01 6.068976223468780518e-02 -1.574053317308425903e-01
7.929496467113494873e-02 -8.795624971389770508e-02 5.778630822896957397e-02
8.726998567581176758e-01 -4.132330045104026794e-02 -4.244098067283630371e-02
8.578167110681533813e-02 5.924344807863235474e-02 -2.134655565023422241e-01
-7.434439659118652344e-01 2.065124548971652985e-02 1.873176693916320801e-01
2.807295322418212891e-01 -6.380034983158111572e-02 2.059409171342849731e-01
3.190580606460571289e-01 -8.503249287605285645e-02 4.031502455472946167e-02
9.645181298255920410e-01 -1.655570231378078461e-02 6.061566993594169617e-02
-8.073689937591552734e-01 -3.374254703521728516e-02 -1.428500115871429443e-01
6.909113526344299316e-01 -6.530128419399261475e-03 -2.054758667945861816e-01
7.217068970203399658e-02 6.198279932141304016e-02 -2.046329975128173828e-01
2.215911261737346649e-02 7.266385108232498169e-02 -1.598569899797439575e-01
3.540562093257904053e-01 -7.408306747674942017e-02 1.453256458044052124e-01
-1.994529925286769867e-02 1.429707370698451996e-02 3.077208697795867920e-01
-1.627088785171508789e-01 7.730041444301605225e-02 -1.296123117208480835e-01
1.057297363877296448e-01 8.095581829547882080e-02 -9.447304904460906982e-02
4.297235906124114990e-01 -8.173143118619918823e-02 2.449632994830608368e-02
3.044210970401763916e-01 -2.717505395412445068e-02 -2.729326486587524414e-01
5.389251112937927246e-01 -5.370639264583587646e-02 -1.783264875411987305e-01
-8.766683340072631836e-01 4.188293591141700745e-02 -4.071765765547752380e-02
5.648119449615478516e-01 3.449159115552902222e-02 -2.015670090913772583e-01
2.841106355190277100e-01 -4.043716937303543091e-02 -2.572577297687530518e-01
-7.831562757492065430e-01 -4.659328982234001160e-02 8.212174475193023682e-02
7.153163105249404907e-02 -8.015047013759613037e-02 -1.382984817028045654e-01
-2.258177250623703003e-01 3.176875412464141846e-02 2.807783484458923340e-01
3.541994392871856689e-01 -7.680197805166244507e-02 1.267553865909576416e-01
-7.291246950626373291e-02 7.828768342733383179e-02 1.414021104574203491e-01
-2.385543435811996460e-01 -7.284559309482574463e-02 -1.656479239463806152e-01
7.342347502708435059e-01 -4.615310207009315491e-02 1.523407399654388428e-01
2.833662331104278564e-01 -8.248252421617507935e-02 9.428817033767700195e-02
-1.216095089912414551e-01 -7.118285447359085083e-02 -1.855028569698333740e-01
1.946705579757690430e-01 6.237970665097236633e-02 -1.920909285545349121e-01
5.510717034339904785e-01 6.241387501358985901e-02 -9.907872974872589111e-02
1.493256539106369019e-01 8.424362540245056152e-02 6.400454789400100708e-02
-1.895917057991027832e-01 5.996510013937950134e-02 -2.119689583778381348e-01
5.610644817352294922e-01 -7.446193695068359375e-02 4.827307909727096558e-02
-3.973405957221984863e-01 2.908676490187644958e-02 -2.642191946506500244e-01
6.011089682579040527e-01 -5.798909068107604980e-02 -1.414557248353958130e-01
6.433798074722290039e-01 -6.990775465965270996e-02 2.811149228364229202e-03
-6.752876639366149902e-01 -5.892773717641830444e-02 -9.920460730791091919e-02
-6.028511524200439453e-01 5.873245745897293091e-02 -1.394314765930175781e-01
6.151446700096130371e-01 5.733837932348251343e-02 -9.915682673454284668e-02
3.961555063724517822e-01 7.709937542676925659e-02 -3.524630144238471985e-02
-5.896312594413757324e-01 5.954370647668838501e-02 -1.402926743030548096e-01
-4.016733467578887939e-01 6.544969975948333740e-02 1.675456017255783081e-01
-3.109841942787170410e-01 -8.180703967809677124e-02 6.620874255895614624e-02
-2.325654178857803345e-01 8.302017301321029663e-02 -6.488660722970962524e-02
-3.319220244884490967e-01 -8.318514376878738403e-02 -3.749078884720802307e-02
6.610901951789855957e-01 -2.861641347408294678e-02 -1.984136104583740234e-01
-5.616204738616943359e-01 -3.331872075796127319e-02 2.196032106876373291e-01
5.753059983253479004e-01 6.846950203180313110e-02 3.210382908582687378e-02
8.300989866256713867e-01 4.168700799345970154e-02 -2.927961759269237518e-02
-6.723789125680923462e-02 -5.141590535640716553e-02 -2.528157234191894531e-01
3.046537637710571289e-01 4.519614204764366150e-02 -2.308256924152374268e-01
3.706923425197601318e-01 -7.273802906274795532e-02 -1.403319835662841797e-01
1.003983318805694580e-01 4.068847745656967163e-02 -2.610727250576019287e-01
-2.678543515503406525e-02 -7.512376457452774048e-02 1.675494015216827393e-01
2.091748565435409546e-01 -5.652048438787460327e-02 2.363225668668746948e-01
-4.781036972999572754e-01 6.215984001755714417e-02 1.631893515586853027e-01
4.794649407267570496e-02 7.825625687837600708e-02 -1.232374235987663269e-01
-1.268064416944980621e-02 7.355679571628570557e-02 -1.561994254589080811e-01
5.513140186667442322e-02 6.840379536151885986e-02 -1.793023496866226196e-01
8.861969709396362305e-01 4.312297329306602478e-03 1.477411389350891113e-01
5.730133652687072754e-01 -7.107919454574584961e-02 8.623370528221130371e-02
-2.237911671400070190e-01 -5.151534825563430786e-02 2.399460524320602417e-01
-6.840253621339797974e-02 -5.080043897032737732e-02 2.537290751934051514e-01
6.334030628204345703e-01 -6.915945559740066528e-02 -4.061700031161308289e-02
-3.847232460975646973e-01 8.057448267936706543e-02 4.470059275627136230e-02
8.486331701278686523e-01 3.985332325100898743e-02 -1.549076568335294724e-02
2.959549725055694580e-01 7.868187129497528076e-02 9.488455951213836670e-02
-1.264816522598266602e-01 -8.746059983968734741e-02 4.555062949657440186e-02
1.725260317325592041e-01 -8.853423595428466797e-02 -1.840923354029655457e-02
5.322167873382568359e-01 -7.311019301414489746e-02 -7.618204504251480103e-02
6.617246866226196289e-01 -4.878545925021171570e-02 -1.527404040098190308e-01
-1.404525786638259888e-01 -7.591031491756439209e-02 1.542594581842422485e-01
3.394168317317962646e-01 -7.662522047758102417e-02 -1.233223751187324524e-01
-1.740224510431289673e-01 -7.201433181762695312e-02 1.713943183422088623e-01
9.455611109733581543e-01 2.022895403206348419e-02 3.128514811396598816e-02
3.875033855438232422e-01 7.719565927982330322e-02 6.841031461954116821e-02
5.263220667839050293e-01 -7.627844065427780151e-02 5.133730918169021606e-02
-5.351144671440124512e-01 7.432636618614196777e-02 -3.190115466713905334e-02
-2.696080803871154785e-01 5.589572712779045105e-02 2.257442474365234375e-01
6.289018988609313965e-01 4.529228433966636658e-02 1.814150959253311157e-01
6.110926344990730286e-02 -5.990988761186599731e-02 -2.291267067193984985e-01
-3.870461583137512207e-01 -1.387315895408391953e-02 2.775139510631561279e-01
-4.494952261447906494e-01 6.226905062794685364e-02 1.704068779945373535e-01
4.612794518470764160e-01 -6.591944396495819092e-02 -1.521895825862884521e-01
-5.312259793281555176e-01 -6.414039433002471924e-02 1.247452944517135620e-01
2.236601114273071289e-01 -5.088062956929206848e-02 2.505089342594146729e-01
4.168080389499664307e-01 -4.255248606204986572e-02 2.485798895359039307e-01
1.871030926704406738e-01 -8.820584416389465332e-02 -2.401253581047058105e-02
3.761332016438245773e-03 -5.657101050019264221e-02 2.408509254455566406e-01
2.907332181930541992e-01 3.318637236952781677e-02 2.770707011222839355e-01
6.420976519584655762e-01 -6.768244504928588867e-02 -5.217086896300315857e-02
-4.213131368160247803e-01 6.688368320465087891e-02 -1.522764116525650024e-01
3.965343534946441650e-01 -7.589025795459747314e-02 1.221747249364852905e-01
-1.589041650295257568e-01 -4.984445124864578247e-02 2.503252327442169189e-01
-5.703713297843933105e-01 -6.949696689844131470e-02 5.814478173851966858e-02
-8.867518603801727295e-02 3.273344784975051880e-02 -2.792369723320007324e-01
2.543974518775939941e-01 7.598859816789627075e-02 -1.082299649715423584e-01
-2.487121075391769409e-01 8.463373780250549316e-02 -2.605345472693443298e-02
7.710156440734863281e-01 -4.996959865093231201e-02 1.137639656662940979e-01
4.878323972225189209e-01 -4.306433722376823425e-02 -2.189697027206420898e-01
-8.233495950698852539e-01 -3.425392508506774902e-02 -1.313299983739852905e-01
2.991496026515960693e-01 3.487965092062950134e-02 -2.531749606132507324e-01
-6.881139874458312988e-01 -5.236461758613586426e-02 -1.330573856830596924e-01
-4.953298866748809814e-01 6.755214929580688477e-02 -1.275997161865234375e-01
-1.193735823035240173e-01 -2.710733003914356232e-02 -2.917687892913818359e-01
-3.567819893360137939e-01 7.137046009302139282e-02 -1.407715976238250732e-01
2.341134548187255859e-01 -8.555146306753158569e-02 6.875322759151458740e-02
8.545010685920715332e-01 -3.797759115695953369e-02 -8.160441368818283081e-02
7.263916730880737305e-01 -6.251885741949081421e-02 3.529304265975952148e-02
-5.368926525115966797e-01 6.616885215044021606e-02 1.213781014084815979e-01
-8.530073761940002441e-01 3.421036526560783386e-02 -1.157619133591651917e-01
5.126196146011352539e-01 3.963368386030197144e-02 2.306422144174575806e-01
-1.819240003824234009e-01 -1.043839380145072937e-02 3.018354773521423340e-01
-4.929989278316497803e-01 7.506531476974487305e-02 -5.929739773273468018e-02
6.177857518196105957e-01 -6.524769961833953857e-02 1.107221767306327820e-01
1.177741810679435730e-01 8.393034338951110840e-02 7.762875407934188843e-02
-4.525928497314453125e-01 -4.814692586660385132e-02 -2.229991555213928223e-01
-6.873610615730285645e-01 6.471476703882217407e-02 -4.468702711164951324e-03
6.945250630378723145e-01 3.103855624794960022e-02 -1.664632111787796021e-01
-1.774129271507263184e-01 -7.911677658557891846e-02 -1.353139877319335938e-01
-5.834743380546569824e-01 5.997803062200546265e-02 1.380910426378250122e-01
-5.675483345985412598e-01 7.239738851785659790e-02 3.449091315269470215e-02
2.867359854280948639e-02 -2.363775297999382019e-02 3.008397519588470459e-01
-1.016223803162574768e-01 7.884506136178970337e-02 -1.218188628554344177e-01
-7.040482759475708008e-01 -5.113109201192855835e-02 -1.306741684675216675e-01
-2.002387195825576782e-01 -6.356240808963775635e-02 -2.106971889734268188e-01
-7.512050867080688477e-01 -4.705869406461715698e-02 -1.232872232794761658e-01
-5.980637073516845703e-01 -6.749797612428665161e-02 5.861345306038856506e-02
-5.047219395637512207e-01 2.841053344309329987e-02 2.452462464570999146e-01
-1.409367024898529053e-01 -7.073181867599487305e-02 1.813062280416488647e-01
-4.287493526935577393e-01 -7.693996280431747437e-02 -8.131168037652969360e-02
3.511985540390014648e-01 5.565809085965156555e-02 -1.923524737358093262e-01
9.784808754920959473e-02 5.111954733729362488e-02 -2.371732443571090698e-01
4.927609562873840332e-01 -6.528344005346298218e-02 -1.458280682563781738e-01
5.124749541282653809e-01 -6.832034885883331299e-02 -1.224069818854331970e-01
-5.811996757984161377e-03 -8.592956513166427612e-02 8.663631230592727661e-02
-4.379914700984954834e-01 -6.856007128953933716e-02 1.331064999103546143e-01
-2.389246076345443726e-01 5.043590813875198364e-02 -2.375960648059844971e-01
-2.407042384147644043e-01 3.669934347271919250e-02 2.720985114574432373e-01
-6.524230837821960449e-01 5.970342829823493958e-02 -1.110411211848258972e-01
6.659619808197021484e-01 -5.307386443018913269e-02 -1.350648403167724609e-01
-2.552885115146636963e-01 2.305216901004314423e-02 2.880463004112243652e-01
3.506769835948944092e-01 1.568547263741493225e-02 2.904899120330810547e-01
-2.407841533422470093e-01 7.618059962987899780e-02 1.387866586446762085e-01
-3.397169411182403564e-01 -4.582124203443527222e-02 2.386976331472396851e-01
4.860143065452575684e-01 6.192479655146598816e-02 -1.297524273395538330e-01
-6.024309396743774414e-01 6.824859976768493652e-02 6.616052985191345215e-02
-4.244113564491271973e-01 5.489530414342880249e-02 2.039053887128829956e-01
-2.267446517944335938e-01 8.458267897367477417e-02 -3.855190426111221313e-02
1.196200400590896606e-01 -8.927570283412933350e-02 -4.247082397341728210e-03
-8.817877620458602905e-02 -5.655040591955184937e-02 -2.391810715198516846e-01
3.826858103275299072e-02 -3.947001323103904724e-02 -2.758232057094573975e-01
-3.331010043621063232e-01 3.942268714308738708e-02 -2.543505430221557617e-01
1.080741733312606812e-01 -7.016440480947494507e-02 1.923186182975769043e-01
-2.508088648319244385e-01 -7.016281038522720337e-02 -1.775961071252822876e-01
-8.731769770383834839e-02 5.413032136857509613e-03 -3.035024702548980713e-01
-5.523692369461059570e-01 -6.940113753080368042e-02 -8.997876197099685669e-02
5.585473179817199707e-01 -6.712250411510467529e-02 -1.106772720813751221e-01
4.301760792732238770e-01 -7.793868333101272583e-02 -8.109527826309204102e-02
-7.292910218238830566e-01 2.311091870069503784e-02 1.895609796047210693e-01
-8.968781828880310059e-01 1.843710616230964661e-02 -1.272450834512710571e-01
8.759375661611557007e-03 -8.693638443946838379e-02 7.449383288621902466e-02
1.504211574792861938e-01 -6.335711479187011719e-02 -2.133041173219680786e-01
-3.687113523483276367e-01 -7.191839069128036499e-02 1.338336914777755737e-01
-4.602943062782287598e-01 7.550407946109771729e-02 -7.367215305566787720e-02
9.264717698097229004e-01 -7.220132276415824890e-03 1.201908290386199951e-01
-3.634160459041595459e-01 7.458908855915069580e-02 -1.173572540283203125e-01
-8.201308846473693848e-01 -4.567035660147666931e-02 5.053374171257019043e-02
9.702150821685791016e-01 -9.344397112727165222e-03 6.625885516405105591e-02
-4.765453934669494629e-01 7.672658562660217285e-02 4.647555574774742126e-02
8.792880177497863770e-01 -2.321281936019659042e-04 -1.212756484746932983e-01
7.078807950019836426e-01 2.166361734271049500e-02 2.104658633470535278e-01
-4.402783513069152832e-01 -6.995698064565658569e-02 -1.370797455310821533e-01
4.016046822071075439e-01 -8.005399256944656372e-02 8.038668334484100342e-02
3.901821076869964600e-01 -8.333930373191833496e-02 -9.652746841311454773e-03
-1.487023942172527313e-02 -7.714582234621047974e-02 1.566151231527328491e-01
9.012589454650878906e-01 3.091862425208091736e-02 -4.686204716563224792e-03
7.037097215652465820e-01 -5.374987050890922546e-02 1.347487121820449829e-01
-4.727514386177062988e-01 -3.276417031884193420e-03 2.679886519908905029e-01
2.190155386924743652e-01 -9.986402466893196106e-03 -2.925683856010437012e-01
-1.485866457223892212e-01 3.725805087015032768e-03 3.063544034957885742e-01
-5.345036983489990234e-01 7.101183384656906128e-02 8.355679363012313843e-02
9.124340415000915527e-01 -2.585127949714660645e-02 1.021357402205467224e-01
-1.347149610519409180e-01 7.368563115596771240e-02 -1.542216986417770386e-01
-3.350597023963928223e-01 7.984803617000579834e-02 -7.570416480302810669e-02
3.068206608295440674e-01 -2.014841698110103607e-02 2.927439808845520020e-01
-4.826292097568511963e-01 -4.196711629629135132e-02 2.206114381551742554e-01
-1.980815529823303223e-01 -3.525893017649650574e-02 -2.783722579479217529e-01
-3.417311906814575195e-01 -3.026852756738662720e-02 2.672129869461059570e-01
-3.153223693370819092e-01 7.778752595186233521e-02 1.105106547474861145e-01
4.564720690250396729e-01 -7.844718545675277710e-02 7.198491692543029785e-02
5.023416280746459961e-01 6.986366212368011475e-02 -6.153549998998641968e-02
-1.168611347675323486e-01 8.573004603385925293e-02 -4.211106523871421814e-02
-4.602750018239021301e-02 -7.922792434692382812e-02 1.420000791549682617e-01
8.346132934093475342e-02 -8.185741305351257324e-02 -1.252394318580627441e-01
2.356101721525192261e-01 8.090262860059738159e-02 -6.449575722217559814e-02
2.366632521152496338e-01 -4.145658388733863831e-02 2.699934244155883789e-01
6.159916520118713379e-01 5.336837098002433777e-02 1.530532687902450562e-01
8.193369507789611816e-01 4.407346248626708984e-02 -1.814425177872180939e-02
9.834048897027969360e-02 8.612205833196640015e-02 -1.062557008117437363e-02
-6.375420689582824707e-01 -6.578133255243301392e-02 -5.916945636272430420e-02
2.877883017063140869e-01 5.133942887187004089e-02 -2.168856412172317505e-01
2.759527266025543213e-01 7.354988157749176025e-02 1.453998088836669922e-01
-9.450217485427856445e-01 1.997381448745727539e-02 6.211728230118751526e-02
8.993230760097503662e-02 5.118016898632049561e-02 2.537198662757873535e-01
-6.158576607704162598e-01 5.600311234593391418e-02 -1.478823870420455933e-01
9.607770442962646484e-01 1.256948523223400116e-02 -1.510934252291917801e-02
4.507369101047515869e-01 -4.157204926013946533e-02 2.452672421932220459e-01
2.278585731983184814e-01 -7.643669843673706055e-02 1.516055166721343994e-01
5.011896491050720215e-01 7.317674160003662109e-02 1.990184374153614044e-02
2.838718593120574951e-01 7.951887696981430054e-02 -6.391630321741104126e-02
3.778791129589080811e-01 6.825481355190277100e-02 1.550128012895584106e-01
-6.998015046119689941e-01 -1.216287352144718170e-02 -2.216857671737670898e-01
-4.103136360645294189e-01 5.562976375222206116e-02 -2.021037191152572632e-01
-2.781928777694702148e-01 7.863389700651168823e-02 -1.035606861114501953e-01
-7.623088359832763672e-01 -5.515761673450469971e-02 -4.098462685942649841e-02
8.115053772926330566e-01 1.549986097961664200e-02 1.772430390119552612e-01
8.055791854858398438e-01 -5.303490906953811646e-02 5.214473977684974670e-02
-9.101419448852539062e-01 2.986592799425125122e-02 6.698138266801834106e-02
5.914071202278137207e-01 -6.950477510690689087e-02 -7.377696037292480469e-02
8.094649910926818848e-01 -5.366212129592895508e-02 -2.952153095975518227e-03
-3.153638839721679688e-01 -7.270919531583786011e-02 -1.531220227479934692e-01
-6.082588434219360352e-01 6.069958582520484924e-02 -1.263002157211303711e-01
3.721278905868530273e-01 -8.257205784320831299e-02 -5.008529871702194214e-02
1.277050822973251343e-01 5.667207017540931702e-02 -2.188765704631805420e-01
-8.521459698677062988e-01 2.280562371015548706e-02 1.328737437725067139e-01
-4.381243288516998291e-01 7.679308950901031494e-02 7.319003343582153320e-02
-6.508253812789916992e-01 -5.551396682858467102e-02 1.178367063403129578e-01
-1.220831945538520813e-01 -7.745426893234252930e-02 -1.521849185228347778e-01
3.469393551349639893e-01 7.805430889129638672e-02 8.018222451210021973e-02
4.951198101043701172e-01 6.291937828063964844e-02 -1.206379532814025879e-01
-5.282774567604064941e-01 2.704868838191032410e-02 -2.465701550245285034e-01
5.877307653427124023e-01 -7.362690567970275879e-02 -7.873688824474811554e-03
-9.529416561126708984e-01 1.148180570453405380e-02 -9.003521502017974854e-02
-7.189340591430664062e-01 -6.023774668574333191e-02 -1.795584894716739655e-02
2.262556701898574829e-01 -4.847808927297592163e-02 -2.477706819772720337e-01
-2.256369441747665405e-01 6.229984387755393982e-02 2.094489932060241699e-01
-5.262818932533264160e-01 7.497558742761611938e-02 2.754528261721134186e-02
-5.436814427375793457e-01 -2.730323374271392822e-02 -2.455278933048248291e-01
6.902223229408264160e-01 5.954553931951522827e-02 2.477023936808109283e-02
6.871775388717651367e-01 -6.205362081527709961e-02 -7.078269869089126587e-02
-7.463710904121398926e-01 -2.915970236063003540e-02 1.660639941692352295e-01
-7.775824069976806641e-01 3.983762860298156738e-02 1.315734833478927612e-01
6.116404756903648376e-02 -4.547270387411117554e-02 -2.645101845264434814e-01
2.797311544418334961e-01 8.302851580083370209e-03 -2.846571207046508789e-01
-5.634476542472839355e-01 6.854126602411270142e-02 9.023176878690719604e-02
-6.406995058059692383e-01 6.174021586775779724e-02 -1.033009812235832214e-01
1.773550063371658325e-01 -8.212415128946304321e-02 1.166245266795158386e-01
-8.856462836265563965e-01 -1.138427667319774628e-02 -1.427287310361862183e-01
-1.410542130470275879e-01 8.001362532377243042e-02 1.232775002717971802e-01
6.562414765357971191e-01 -5.594815686345100403e-02 1.468661874532699585e-01
1.173075214028358459e-01 8.470460772514343262e-02 6.441184878349304199e-02
6.951972842216491699e-01 5.907945334911346436e-02 8.989562280476093292e-03
-4.365751445293426514e-01 7.307439297437667847e-02 -1.076167523860931396e-01
-2.950494289398193359e-01 2.215594053268432617e-02 2.847542166709899902e-01
5.549405217170715332e-01 1.030851900577545166e-02 2.623519599437713623e-01
-4.094314277172088623e-01 1.373096928000450134e-02 -2.784486114978790283e-01
-4.864264726638793945e-01 7.583340257406234741e-02 -5.190343782305717468e-02
5.427684187889099121e-01 -1.479575503617525101e-02 2.640653550624847412e-01
