-1.010529845952987671e-01 -2.625739872455596924e-01 -7.464870810508728027e-01
1.399333477020263672e-01 -2.253493368625640869e-01 -3.320754170417785645e-01
-1.552070230245590210e-01 -8.406466245651245117e-02 3.333892524242401123e-01
6.787239015102386475e-02 -3.149890005588531494e-01 -7.409217357635498047e-01
1.510697603225708008e-01 1.342312991619110107e-02 -3.372150361537933350e-01
5.507060885429382324e-02 2.497904598712921143e-01 -7.919964790344238281e-01
1.515923887491226196e-01 -6.226365640759468079e-02 -3.371608853340148926e-01
-1.483985930681228638e-01 1.230453923344612122e-01 2.284518331289291382e-01
-8.895836025476455688e-02 -1.294028162956237793e-01 8.345116376876831055e-01
-1.462519466876983643e-01 -1.922151148319244385e-01 3.943231403827667236e-01
-1.653995215892791748e-01 -1.173965185880661011e-01 -1.793925762176513672e-01
1.173524335026741028e-01 -3.936215937137603760e-01 1.583818495273590088e-01
1.547764539718627930e-01 -6.755858659744262695e-02 3.178913593292236328e-01
-1.273575425148010254e-01 9.008734673261642456e-02 5.358829498291015625e-01
8.209500461816787720e-02 3.810327649116516113e-01 1.607037186622619629e-01
1.523282974958419800e-01 3.232874721288681030e-02 -3.004470765590667725e-01
-1.647763401269912720e-01 -1.532546877861022949e-01 -1.079558059573173523e-01
-1.626952588558197021e-01 -1.356991827487945557e-01 -2.538324892520904541e-01
-9.477981925010681152e-02 1.011018380522727966e-01 7.338629364967346191e-01
-1.313116401433944702e-01 -6.289828568696975708e-02 5.938721299171447754e-01
-2.974072098731994629e-02 -4.984098672866821289e-01 -4.820647239685058594e-01
-8.055686205625534058e-02 4.414380341768264771e-02 8.364878892898559570e-01
1.509213894605636597e-01 8.226346224546432495e-02 2.764614820480346680e-01
1.312367171049118042e-01 -2.288024425506591797e-01 -4.415983557701110840e-01
-2.606683969497680664e-02 2.054314315319061279e-01 -9.292458295822143555e-01
5.154835432767868042e-02 2.694225609302520752e-01 6.950557827949523926e-01
-1.081320196390151978e-01 -4.555072784423828125e-01 6.329285353422164917e-02
3.140102699398994446e-02 3.303741812705993652e-01 6.077614426612854004e-01
1.332378685474395752e-01 -1.982167959213256836e-01 -4.648427367210388184e-01
-2.741299569606781006e-02 -4.747548103332519531e-01 5.962417721748352051e-01
-1.622072756290435791e-01 3.584824502468109131e-02 -2.307672500610351562e-01
-4.497329890727996826e-02 -2.808120548725128174e-01 -8.988167643547058105e-01
-1.447827965021133423e-01 5.560186505317687988e-02 3.979623913764953613e-01
1.564206033945083618e-01 -1.706683337688446045e-01 -3.513254597783088684e-02
1.044409349560737610e-01 2.030343711376190186e-01 5.837846994400024414e-01
-7.662121951580047607e-02 3.433898687362670898e-01 3.687050938606262207e-01
-8.668638020753860474e-02 3.766591250896453857e-01 -2.363325953483581543e-01
1.337729990482330322e-01 2.218571305274963379e-02 5.682227611541748047e-01
1.589368842542171478e-02 2.697047591209411621e-01 -8.434549570083618164e-01
-7.078802585601806641e-02 -5.781731754541397095e-02 9.034775495529174805e-01
1.492332369089126587e-01 1.517398059368133545e-01 5.891250818967819214e-02
1.354476213455200195e-01 1.910029947757720947e-01 -3.112995624542236328e-01
-1.589412838220596313e-01 -2.244016528129577637e-01 2.805611304938793182e-02
1.360315531492233276e-01 1.405969262123107910e-01 -4.167005717754364014e-01
1.178210526704788208e-01 -3.455978333950042725e-01 4.052672088146209717e-01
-7.299581170082092285e-02 2.614294588565826416e-01 6.084384322166442871e-01
-1.489974111318588257e-01 9.029468148946762085e-02 2.889186739921569824e-01
1.162086501717567444e-01 2.001722157001495361e-01 4.999786615371704102e-01
7.321525365114212036e-02 -3.780971169471740723e-01 6.672307252883911133e-01
-1.412715911865234375e-01 1.811952590942382812e-01 1.883860677480697632e-01
-1.020353138446807861e-01 -2.325771749019622803e-01 -7.752479910850524902e-01
-9.913769364356994629e-02 -4.339292347431182861e-01 -3.811484873294830322e-01
-6.716910749673843384e-02 3.392415344715118408e-01 -5.920635461807250977e-01
1.038020774722099304e-01 3.272328972816467285e-01 2.062428444623947144e-01
-8.793769031763076782e-02 1.922713518142700195e-01 6.584001779556274414e-01
5.415003001689910889e-02 -3.845515847206115723e-01 7.273393273353576660e-01
1.550927609205245972e-01 -1.779235005378723145e-01 1.492606401443481445e-01
1.565530151128768921e-01 -5.414724349975585938e-02 2.805614769458770752e-01
-1.477614790201187134e-02 -4.578915834426879883e-01 -6.203649044036865234e-01
-1.134527996182441711e-01 -4.397946894168853760e-01 8.871067315340042114e-02
-1.246693544089794159e-02 3.826885819435119629e-01 -6.068941354751586914e-01
-6.068000569939613342e-02 -5.365955829620361328e-01 1.301622390747070312e-01
-1.306547969579696655e-01 -3.872135281562805176e-01 -9.128674864768981934e-03
1.084620505571365356e-01 -4.224378466606140137e-01 1.535500884056091309e-01
-1.517549008131027222e-01 9.986858814954757690e-02 2.190878689289093018e-01
-1.633895337581634521e-01 -7.729369401931762695e-02 1.686918884515762329e-01
4.429893195629119873e-02 -2.756615281105041504e-01 8.951240181922912598e-01
2.959355525672435760e-02 2.001931369304656982e-01 8.396358489990234375e-01
-1.288749277591705322e-01 -3.809082508087158203e-01 1.650791466236114502e-01
-1.026884913444519043e-01 -4.576308429241180420e-01 1.974866986274719238e-01
-9.333372116088867188e-02 -2.185962498188018799e-01 -8.277729153633117676e-01
-1.547482460737228394e-01 8.667578548192977905e-02 1.852199435234069824e-01
1.510722786188125610e-01 1.144631877541542053e-01 -1.841753572225570679e-01
-1.278057321906089783e-02 4.590521454811096191e-01 -8.295415341854095459e-02
8.769370615482330322e-02 3.585834503173828125e-01 2.431629002094268799e-01
3.039905242621898651e-02 4.178592264652252197e-01 -4.264209866523742676e-01
-6.833790242671966553e-02 -3.694916963577270508e-01 -7.174703478813171387e-01
8.484441787004470825e-03 -5.653833150863647461e-01 -4.880400002002716064e-02
1.480360925197601318e-01 -2.217083871364593506e-01 -1.762919276952743530e-01
1.287131905555725098e-01 -2.497735023498535156e-01 -4.336124062538146973e-01
-6.910523772239685059e-02 -3.879628777503967285e-01 6.728945374488830566e-01
-1.218276992440223694e-01 -1.287828087806701660e-01 -7.430477738380432129e-01
-5.669113621115684509e-02 4.212520718574523926e-01 -2.511150538921356201e-01
8.645679801702499390e-02 3.474757373332977295e-01 -3.889245688915252686e-01
-1.542281731963157654e-02 4.450747370719909668e-02 9.767754673957824707e-01
-1.233481317758560181e-01 -1.670062541961669922e-03 -7.481243014335632324e-01
-1.350135058164596558e-01 -1.762811243534088135e-01 -6.128591299057006836e-01
5.765244364738464355e-02 -4.526290893554687500e-01 -4.845512509346008301e-01
-1.596757620573043823e-01 -1.194178983569145203e-01 2.409456670284271240e-01
-4.920350015163421631e-02 -4.399112462997436523e-01 -6.191328763961791992e-01
6.734213232994079590e-02 3.363047242164611816e-01 -5.648722052574157715e-01
1.501671075820922852e-01 -2.346156835556030273e-01 4.446697235107421875e-02
1.347532495856285095e-02 5.708150565624237061e-02 -1.029934883117675781e+00
1.196919009089469910e-01 -3.197993040084838867e-01 -3.797391355037689209e-01
-8.662592619657516479e-02 3.670133948326110840e-01 -3.220781981945037842e-01
-1.000020503997802734e-01 -4.362510442733764648e-01 3.509713411331176758e-01
8.169130980968475342e-02 -2.826110124588012695e-01 -7.267854809761047363e-01
9.416437894105911255e-02 -2.125178650021553040e-02 -8.311337232589721680e-01
-1.487298011779785156e-01 -2.974535226821899414e-01 6.585244834423065186e-02
9.436240792274475098e-02 -4.160181879997253418e-01 4.275413751602172852e-01
1.128488481044769287e-01 3.010281622409820557e-01 -2.608610391616821289e-01
-2.828986942768096924e-02 4.361790120601654053e-01 1.827157735824584961e-01
-1.326160579919815063e-01 5.885055661201477051e-02 -6.501989364624023438e-01
-6.376118957996368408e-02 2.612551748752593994e-01 6.464880704879760742e-01
-1.657565087080001831e-01 -6.082247942686080933e-02 -2.083664536476135254e-01
-1.151603534817695618e-01 -2.377592325210571289e-01 -6.967074871063232422e-01
-1.528068482875823975e-01 1.208442822098731995e-01 -2.837880849838256836e-01
1.006096079945564270e-01 -3.915317356586456299e-01 -3.704760968685150146e-01
-6.497499346733093262e-02 -5.112668871879577637e-01 3.089996576309204102e-01
-1.256866306066513062e-01 1.176690384745597839e-01 5.162501335144042969e-01
8.164186775684356689e-02 -3.268212378025054932e-01 7.176113128662109375e-01
1.422995775938034058e-01 1.281082630157470703e-01 3.435645103454589844e-01
3.731725364923477173e-02 -2.328234314918518066e-01 9.412061572074890137e-01
1.447774171829223633e-01 -2.603187859058380127e-01 1.876156777143478394e-01
-1.374120265245437622e-01 -2.402999997138977051e-01 -5.120266079902648926e-01
-1.636145710945129395e-01 -1.993694156408309937e-02 -2.665638923645019531e-01
1.329894214868545532e-01 1.376295387744903564e-01 -4.597029685974121094e-01
9.228262305259704590e-02 -4.337592422962188721e-01 3.764971792697906494e-01
4.139809682965278625e-02 3.847819268703460693e-01 4.214821457862854004e-01
-4.725757613778114319e-02 1.642353534698486328e-01 8.362364768981933594e-01
1.530987620353698730e-01 -2.093267440795898438e-01 1.472462527453899384e-02
-1.325205415487289429e-01 1.835037767887115479e-01 -4.766563475131988525e-01
-8.271883428096771240e-02 3.901446759700775146e-01 -4.530217498540878296e-02
-1.059085875749588013e-01 1.272780895233154297e-01 -7.747488617897033691e-01
8.159632235765457153e-02 -4.591220617294311523e-01 -2.860892117023468018e-01
2.238597907125949860e-02 4.065650403499603271e-01 -4.997626245021820068e-01
-8.890500664710998535e-02 -3.846851885318756104e-01 -6.001991629600524902e-01
-1.413018554449081421e-01 -8.762267976999282837e-02 5.046460628509521484e-01
-1.594967991113662720e-01 -1.914831399917602539e-01 1.441909521818161011e-01
-7.771346718072891235e-02 -5.080519914627075195e-01 1.946935206651687622e-01
-1.429794877767562866e-01 1.017032638192176819e-01 -4.992057085037231445e-01
-1.277528554201126099e-01 2.368962764739990234e-01 2.214999645948410034e-01
-3.366421535611152649e-02 -5.533335804939270020e-01 -1.641370505094528198e-01
-1.592482924461364746e-01 -1.733541786670684814e-01 -2.845669984817504883e-01
9.529689699411392212e-02 -4.557633697986602783e-01 -8.755454421043395996e-02
1.075645238161087036e-01 3.351208269596099854e-01 -6.326813995838165283e-02
-1.580657213926315308e-01 6.512471288442611694e-02 1.534366160631179810e-01
-1.098996177315711975e-01 -5.872205272316932678e-02 7.375530004501342773e-01
1.355464309453964233e-01 -2.936298549175262451e-01 2.941286861896514893e-01
1.384134143590927124e-01 -2.800075896084308624e-02 5.436221361160278320e-01
-1.288846582174301147e-01 -1.025056988000869751e-01 6.122025251388549805e-01
-1.623299717903137207e-01 -1.254440248012542725e-01 -2.781518101692199707e-01
-1.032103151082992554e-01 2.163112461566925049e-01 -6.726147532463073730e-01
-3.644783422350883484e-02 6.990465521812438965e-02 9.373958110809326172e-01
7.597851008176803589e-02 -1.554987728595733643e-01 8.913728594779968262e-01
-1.519131660461425781e-01 1.531902551651000977e-01 -3.733787313103675842e-02
9.870240464806556702e-03 3.736498653888702393e-01 5.118014216423034668e-01
1.499184072017669678e-01 -2.199851870536804199e-01 1.926775723695755005e-01
1.267113834619522095e-01 -1.072548627853393555e-01 6.439813375473022461e-01
-1.466107964515686035e-01 -2.749057412147521973e-01 -3.056147992610931396e-01
4.599206149578094482e-02 -2.235831916332244873e-01 -9.133873581886291504e-01
1.586555093526840210e-01 3.896889835596084595e-02 1.315102726221084595e-01
1.494467258453369141e-01 -2.358968257904052734e-01 -4.523260518908500671e-02
-1.271867752075195312e-01 2.574161887168884277e-01 -2.968482971191406250e-01
1.127616837620735168e-01 1.490584909915924072e-01 6.115810275077819824e-01
-1.326597481966018677e-01 -3.756971955299377441e-01 7.779576629400253296e-02
5.469055101275444031e-02 1.244952455163002014e-01 -9.247195720672607422e-01
-1.239876374602317810e-01 6.626893579959869385e-02 -7.120593190193176270e-01
-6.892088055610656738e-02 -5.221400037407875061e-02 -9.819192886352539062e-01
-1.212004944682121277e-01 -1.277518868446350098e-01 6.628026366233825684e-01
-1.442606896162033081e-01 -3.205657601356506348e-01 8.933107554912567139e-02
8.079981803894042969e-02 -8.929371833801269531e-03 8.827503323554992676e-01
8.404430001974105835e-02 -3.893175423145294189e-01 5.854454636573791504e-01
8.532334864139556885e-02 1.880620121955871582e-01 -7.539127469062805176e-01
1.431284844875335693e-01 -8.483582735061645508e-02 -4.511914849281311035e-01
-1.372494995594024658e-01 -4.580413550138473511e-02 -6.495506763458251953e-01
-1.520421802997589111e-01 -2.059971690177917480e-01 -3.731511235237121582e-01
5.899726599454879761e-02 -5.147582292556762695e-01 -1.752317100763320923e-01
-5.641889572143554688e-02 -4.066860377788543701e-01 6.827267408370971680e-01
-6.365368515253067017e-02 -4.281951189041137695e-01 6.106820702552795410e-01
1.252848953008651733e-01 1.082396879792213440e-01 5.674280524253845215e-01
1.320402026176452637e-01 -2.314241230487823486e-01 -4.277766048908233643e-01
1.200897991657257080e-02 4.163107275962829590e-01 -4.767884314060211182e-01
1.354943960905075073e-01 -5.727351829409599304e-02 -5.443248748779296875e-01
1.393906921148300171e-01 -2.887136936187744141e-01 -1.381174176931381226e-01
7.762224972248077393e-02 -6.317049264907836914e-02 -8.987525105476379395e-01
-1.189767345786094666e-01 -3.929305970668792725e-01 -3.232244253158569336e-01
-1.617239415645599365e-01 -1.175901144742965698e-01 1.949615031480789185e-01
-1.184515804052352905e-01 -4.268633425235748291e-01 -8.028900623321533203e-02
-1.285690814256668091e-01 -3.235055506229400635e-01 -4.373280107975006104e-01
7.425565272569656372e-02 1.314725279808044434e-01 8.186483979225158691e-01
2.152601256966590881e-02 -4.011630117893218994e-01 7.654814124107360840e-01
-2.659095637500286102e-02 4.301731586456298828e-01 2.321670353412628174e-01
7.674383372068405151e-02 -3.203470706939697266e-01 7.487605810165405273e-01
8.782716095447540283e-02 -3.511260151863098145e-01 -5.781485438346862793e-01
2.460964024066925049e-03 -4.740357398986816406e-01 6.193749904632568359e-01
-1.240083500742912292e-01 -2.955179810523986816e-01 4.930518269538879395e-01
1.510309278964996338e-01 -1.897124648094177246e-01 -1.914014220237731934e-01
1.243017613887786865e-01 -3.404375016689300537e-01 -2.441286146640777588e-01
-1.018615439534187317e-01 -4.694961607456207275e-01 9.001585841178894043e-02
1.213653236627578735e-01 -3.831109404563903809e-01 9.534728527069091797e-02
2.356484159827232361e-02 1.316015124320983887e-01 9.180655479431152344e-01
-1.956953294575214386e-02 -1.634838134050369263e-01 -1.016648054122924805e+00
-1.262740343809127808e-01 1.118152514100074768e-01 -6.544231176376342773e-01
1.305839121341705322e-01 -3.362626135349273682e-01 -1.188514903187751770e-01
9.351557493209838867e-02 2.167848944664001465e-01 6.255424618721008301e-01
1.196363419294357300e-01 2.753975093364715576e-01 2.266440540552139282e-01
1.430836915969848633e-01 1.422671675682067871e-01 2.968190610408782959e-01
-1.237250268459320068e-01 2.275416553020477295e-01 3.124669790267944336e-01
-8.134946972131729126e-02 3.402280509471893311e-01 3.458774089813232422e-01
-1.390461921691894531e-01 -3.513681292533874512e-01 2.694480307400226593e-02
1.417732536792755127e-01 -1.017905771732330322e-01 5.025970935821533203e-01
-7.621837407350540161e-02 -2.745302617549896240e-01 -8.329502940177917480e-01
-1.056875661015510559e-01 3.282696306705474854e-01 1.156994998455047607e-01
1.497590839862823486e-01 -1.835482120513916016e-01 3.018437325954437256e-01
9.910371899604797363e-02 -3.191765546798706055e-01 -5.675989389419555664e-01
-1.115160882472991943e-01 3.217601478099822998e-01 -1.877847611904144287e-01
1.421613842248916626e-01 7.371362298727035522e-02 -4.247517585754394531e-01
-8.080930262804031372e-02 -3.507937490940093994e-01 6.868209242820739746e-01
6.194512173533439636e-02 -2.019286528229713440e-02 9.405503869056701660e-01
8.485632389783859253e-02 -4.717644751071929932e-01 2.513535022735595703e-01
-1.434017419815063477e-01 -7.335387170314788818e-02 -5.903378725051879883e-01
1.301386356353759766e-01 1.241644993424415588e-01 5.020374059677124023e-01
1.566477566957473755e-01 1.964871585369110107e-02 2.387506961822509766e-01
1.394668966531753540e-01 3.033308684825897217e-02 -4.900249838829040527e-01
-1.386991292238235474e-01 2.220127284526824951e-01 -1.933149993419647217e-01
-1.550204008817672729e-01 4.182628542184829712e-02 2.629329562187194824e-01
-7.795098423957824707e-02 2.056807577610015869e-01 6.843063831329345703e-01
8.163575828075408936e-02 8.580765873193740845e-02 -8.567752242088317871e-01
1.117470636963844299e-01 -4.160608351230621338e-01 1.473304443061351776e-02
-1.640996336936950684e-01 -1.300595998764038086e-01 1.085505485534667969e-01
6.157995387911796570e-02 -4.557846784591674805e-01 -4.531776010990142822e-01
1.057428419589996338e-01 -4.234027564525604248e-01 2.260173261165618896e-01
7.388185709714889526e-02 -4.205899685621261597e-02 9.119309782981872559e-01
1.563056707382202148e-01 -1.323075592517852783e-01 2.268217206001281738e-01
-1.219342723488807678e-01 2.645390629768371582e-01 -3.622950315475463867e-01
1.362379044294357300e-01 -1.222323477268218994e-01 -5.086453557014465332e-01
1.602226942777633667e-01 -1.022800654172897339e-01 1.128852963447570801e-01
-1.515560001134872437e-01 -2.806478738784790039e-01 -1.220559030771255493e-01
-1.634617894887924194e-01 1.247170567512512207e-02 9.714489430189132690e-02
-1.564382910728454590e-01 1.144844666123390198e-01 1.945313625037670135e-02
-2.272244356572628021e-02 -1.869972646236419678e-01 9.787146449089050293e-01
1.376477032899856567e-01 2.355310320854187012e-02 -5.133814215660095215e-01
5.956114083528518677e-02 -4.988421201705932617e-01 3.615898191928863525e-01
6.099652871489524841e-02 -3.318119645118713379e-01 7.899808287620544434e-01
-1.005915254354476929e-01 3.302259147167205811e-01 1.908876448869705200e-01
-6.781088560819625854e-02 2.611063122749328613e-01 6.310549378395080566e-01
1.587850600481033325e-01 2.850474417209625244e-02 -1.254382878541946411e-01
1.285503506660461426e-01 -3.547595739364624023e-01 -9.699240326881408691e-03
1.485489159822463989e-01 1.394487321376800537e-01 1.738471835851669312e-01
1.240594387054443359e-01 5.852954834699630737e-02 -6.231794357299804688e-01
-6.221996992826461792e-02 -2.484463155269622803e-01 -8.990932106971740723e-01
-1.214931085705757141e-01 -4.183123409748077393e-01 -5.892849713563919067e-02
-1.446346193552017212e-01 -1.731380075216293335e-02 4.565753638744354248e-01
4.799448698759078979e-02 -5.383569598197937012e-01 -5.026984959840774536e-02
-8.192268013954162598e-02 -4.095568656921386719e-01 5.677419304847717285e-01
-1.631528437137603760e-01 4.380308091640472412e-02 1.609448902308940887e-02
9.091905504465103149e-02 -3.131609559059143066e-01 -6.313623785972595215e-01
1.575607061386108398e-01 -9.222297370433807373e-02 -1.890489757061004639e-01
1.119454577565193176e-01 1.234300956130027771e-01 -6.660210490226745605e-01
7.024659216403961182e-02 -5.104093551635742188e-01 7.780566066503524780e-02
-4.968148097395896912e-02 -4.268141388893127441e-01 6.619076132774353027e-01
-1.547059267759323120e-01 1.299960613250732422e-01 5.294982343912124634e-03
1.098745539784431458e-01 2.560547888278961182e-01 4.234537482261657715e-01
-1.639272719621658325e-01 2.226939797401428223e-02 -1.891757696866989136e-01
-1.396301537752151489e-01 1.464734673500061035e-01 3.160758614540100098e-01
-1.660230010747909546e-01 -2.722603268921375275e-02 4.910025000572204590e-02
-6.526636332273483276e-02 3.752537965774536133e-01 3.165094852447509766e-01
-1.386037319898605347e-01 2.069694399833679199e-01 -2.973070740699768066e-01
-9.503702074289321899e-02 -3.355911970138549805e-01 -6.680507659912109375e-01
1.027480438351631165e-01 1.735383272171020508e-01 -6.733862161636352539e-01
6.852722167968750000e-02 -2.305380403995513916e-01 -8.404513001441955566e-01
-6.015581637620925903e-02 -1.571305096149444580e-03 -1.000466346740722656e+00
-1.407475471496582031e-01 1.378875672817230225e-01 -4.673188030719757080e-01
1.165088713169097900e-01 4.369874298572540283e-02 6.891232728958129883e-01
-7.688539475202560425e-02 -3.965121507644653320e-01 6.223116517066955566e-01
5.152182653546333313e-02 -4.855909943580627441e-01 -3.969623744487762451e-01
-1.127942278981208801e-01 1.739904582500457764e-01 5.351272225379943848e-01
-3.856170177459716797e-02 3.924675881862640381e-01 3.786727786064147949e-01
5.340114235877990723e-02 -1.577668190002441406e-01 -9.411237835884094238e-01
-1.648723930120468140e-01 -3.391913324594497681e-02 -2.341957986354827881e-01
2.365034632384777069e-02 2.464132010936737061e-01 7.808497548103332520e-01
9.405889362096786499e-02 -4.369427263736724854e-01 3.396824300289154053e-01
1.035517752170562744e-01 1.886818706989288330e-01 -6.480370163917541504e-01
-1.592549383640289307e-01 3.095434606075286865e-02 1.903861314058303833e-01
-8.110528439283370972e-02 1.518041491508483887e-01 7.428361773490905762e-01
-1.226625591516494751e-01 -2.157201468944549561e-01 -6.712324619293212891e-01
1.208795681595802307e-01 1.280304491519927979e-01 -5.924761295318603516e-01
-1.667858511209487915e-01 -1.005370765924453735e-01 4.508458077907562256e-03
-1.254887878894805908e-01 1.985217928886413574e-01 -5.236763954162597656e-01
-1.969784684479236603e-02 3.314515650272369385e-01 -7.358621358871459961e-01
-2.291108854115009308e-02 -2.803847789764404297e-01 -9.220257401466369629e-01
-9.391178190708160400e-02 3.673134744167327881e-01 -2.066421881318092346e-02
-1.052410528063774109e-01 -3.917333483695983887e-01 4.504640102386474609e-01
-1.337845772504806519e-01 1.353419721126556396e-01 4.107542037963867188e-01
-1.490983366966247559e-01 -2.904964089393615723e-01 1.022185757756233215e-01
1.463287174701690674e-01 -2.416143715381622314e-01 2.242891639471054077e-01
-1.161634325981140137e-01 1.233089789748191833e-01 -7.164623141288757324e-01
1.343706697225570679e-01 2.273065447807312012e-01 -1.822594404220581055e-01
3.380620107054710388e-02 -8.313116431236267090e-02 -1.011953353881835938e+00
1.285949647426605225e-01 -3.398638963699340820e-01 2.387361526489257812e-01
1.148175001144409180e-01 -4.056726694107055664e-01 9.833260625600814819e-02
-1.269726753234863281e-01 -2.238438725471496582e-01 -6.299589276313781738e-01
-1.410684138536453247e-01 -3.306453227996826172e-01 -1.924059689044952393e-01
9.654660522937774658e-02 -4.580141007900238037e-01 2.750907279551029205e-02
-1.504735052585601807e-01 -2.734717428684234619e-01 1.448662281036376953e-01
1.350752115249633789e-01 6.294010579586029053e-02 -5.181287527084350586e-01
-1.177630051970481873e-01 2.140619456768035889e-01 4.138998091220855713e-01
9.349814057350158691e-02 2.686208486557006836e-01 -5.747363567352294922e-01
5.914959684014320374e-02 -2.013286352157592773e-01 -8.962221145629882812e-01
-2.681166492402553558e-02 3.619787991046905518e-01 -6.518849134445190430e-01
9.536530822515487671e-02 2.478559911251068115e-01 -6.050944924354553223e-01
1.262798309326171875e-01 5.257137864828109741e-02 -6.079534888267517090e-01
1.324704289436340332e-01 -3.232189118862152100e-01 2.305612862110137939e-01
-8.998789638280868530e-02 -4.439845383167266846e-01 4.148390889167785645e-01
4.884899035096168518e-02 4.301083683967590332e-01 -2.331922203302383423e-01
-4.645533394068479538e-03 4.461936354637145996e-01 -3.124901950359344482e-01
1.551503986120223999e-01 -1.353161334991455078e-01 -1.986179351806640625e-01
1.450945585966110229e-01 -2.460647523403167725e-01 -1.689895093441009521e-01
9.129652380943298340e-02 3.086977303028106689e-01 4.224502444267272949e-01
-1.269039213657379150e-01 -3.855980932712554932e-01 -2.197772264480590820e-01
-7.499797642230987549e-02 2.279289066791534424e-01 -7.941426634788513184e-01
5.345651134848594666e-02 -7.271504402160644531e-02 -9.726964831352233887e-01
-1.052279248833656311e-01 1.887853741645812988e-01 5.640152692794799805e-01
-1.273216456174850464e-01 -3.889347016811370850e-01 -1.851244866847991943e-01
4.037136677652597427e-04 -5.608479380607604980e-01 2.119392603635787964e-01
1.198847219347953796e-01 -2.219326496124267578e-01 6.196259260177612305e-01
1.560053080320358276e-01 -1.347472518682479858e-01 -1.746162474155426025e-01
9.828428179025650024e-02 -4.023812413215637207e-01 4.378149211406707764e-01
1.199001520872116089e-01 -7.655465602874755859e-02 6.994621157646179199e-01
1.577493101358413696e-01 -4.592468589544296265e-02 -2.098813354969024658e-01
1.041973531246185303e-01 -4.178047925233840942e-02 -7.784826159477233887e-01
-1.443357914686203003e-01 2.041793614625930786e-02 4.366428852081298828e-01
-4.058673605322837830e-02 3.466896414756774902e-01 5.263405442237854004e-01
5.262865126132965088e-02 4.331684112548828125e-01 1.500760205090045929e-02
-9.470202028751373291e-02 -8.514022082090377808e-02 -8.949432969093322754e-01
8.726546168327331543e-02 -2.891798317432403564e-01 7.431851029396057129e-01
4.956567287445068359e-02 -3.674344420433044434e-01 -7.194960713386535645e-01
9.308598935604095459e-02 3.657037615776062012e-01 -1.698445677757263184e-01
1.551237255334854126e-01 -1.295867264270782471e-01 2.646159231662750244e-01
-3.083647415041923523e-02 -5.574448704719543457e-01 1.793033927679061890e-01
1.597349792718887329e-01 -1.177842095494270325e-01 1.013241782784461975e-01
1.367673426866531372e-01 1.548748314380645752e-01 3.690505027770996094e-01
-9.775196760892868042e-02 -1.801217496395111084e-01 -8.396566510200500488e-01
8.743724972009658813e-02 1.392068266868591309e-01 7.613204121589660645e-01
-1.534640640020370483e-01 1.427719891071319580e-01 -4.584071412682533264e-02
1.201774403452873230e-01 -2.894780039787292480e-01 -4.474363029003143311e-01
-7.231606543064117432e-02 -2.590729892253875732e-01 -8.619740009307861328e-01
4.424156993627548218e-02 4.409379363059997559e-01 -1.346133947372436523e-01
1.169429495930671692e-01 -3.596451282501220703e-01 -2.858502566814422607e-01
-1.382552832365036011e-01 1.026359722018241882e-01 -5.533262491226196289e-01
1.524594873189926147e-01 1.988936960697174072e-02 -3.076910674571990967e-01
-9.715195000171661377e-02 -4.047895669937133789e-01 -4.975607395172119141e-01
4.010260105133056641e-02 -4.529775679111480713e-01 -5.557516217231750488e-01
-1.291610002517700195e-01 2.639532089233398438e-01 -1.791773885488510132e-01
1.094878464937210083e-01 1.331901550292968750e-01 6.534811258316040039e-01
1.586560159921646118e-01 -1.440245658159255981e-03 -1.696894764900207520e-01
5.764640867710113525e-02 4.041368961334228516e-01 2.540068328380584717e-01
1.212761774659156799e-01 -1.438062191009521484e-01 6.705086827278137207e-01
1.484512835741043091e-01 -8.262462168931961060e-02 4.225557744503021240e-01
-1.635636687278747559e-01 2.299764007329940796e-02 6.851722300052642822e-02
-1.646426171064376831e-01 -1.482034623622894287e-01 4.050050675868988037e-02
-1.588028818368911743e-01 -9.242750704288482666e-02 2.701621949672698975e-01
1.519577652215957642e-01 1.169124320149421692e-01 1.472114324569702148e-01
-1.545714586973190308e-01 1.198264434933662415e-01 7.864690572023391724e-02
-1.048018410801887512e-01 3.804036229848861694e-02 7.306630015373229980e-01
-5.252383649349212646e-02 4.490315169095993042e-02 9.200194478034973145e-01
2.446626499295234680e-02 -4.994622468948364258e-01 5.144135355949401855e-01
1.382927447557449341e-01 1.311438381671905518e-01 3.965727388858795166e-01
1.123718321323394775e-01 -4.137957096099853516e-01 1.990508288145065308e-03
1.450165361166000366e-02 -5.073851346969604492e-02 -1.042176485061645508e+00
-1.023870483040809631e-01 -4.278714358806610107e-01 3.592595458030700684e-01
-7.569082081317901611e-02 3.111780881881713867e-01 4.778018295764923096e-01
-8.771892637014389038e-02 1.300456374883651733e-02 8.241306543350219727e-01
-1.610503196716308594e-01 -3.498212248086929321e-02 2.170749455690383911e-01
-1.508278101682662964e-01 -2.321805953979492188e-01 -3.409306406974792480e-01
1.090627908706665039e-01 -3.526039421558380127e-01 4.832600951194763184e-01
-1.293309181928634644e-01 -1.156811416149139404e-01 6.062975525856018066e-01
5.198991671204566956e-02 2.319320440292358398e-01 -8.264743089675903320e-01
1.274741291999816895e-01 -1.840932965278625488e-01 5.934052467346191406e-01
6.326760351657867432e-02 -2.509131729602813721e-01 -8.383427858352661133e-01
3.853936120867729187e-02 4.433752596378326416e-01 6.122995913028717041e-02
7.107880711555480957e-02 4.012632071971893311e-01 -2.355080395936965942e-01
-7.221659179776906967e-03 4.458457827568054199e-01 1.709091216325759888e-01
-1.290724724531173706e-01 1.858457624912261963e-01 3.606227338314056396e-01
1.565860211849212646e-01 -1.720552891492843628e-01 6.500402837991714478e-02
1.422788649797439575e-01 -3.429532796144485474e-02 -4.730656445026397705e-01
1.492247432470321655e-01 1.478977203369140625e-01 9.739822149276733398e-02
8.398938179016113281e-02 1.703253388404846191e-01 7.396410703659057617e-01
-1.130435094237327576e-01 -1.400543451309204102e-01 -7.894563674926757812e-01
-7.778323441743850708e-02 -4.490621387958526611e-01 -4.824314117431640625e-01
-1.383844166994094849e-01 2.035390138626098633e-01 -3.183869421482086182e-01
-1.219849586486816406e-01 -3.370463848114013672e-01 -4.727885723114013672e-01
-1.021480783820152283e-01 3.134030997753143311e-01 2.564547955989837646e-01
6.207240745425224304e-02 -4.667986333370208740e-01 4.868723750114440918e-01
-1.448031514883041382e-01 3.121757507324218750e-02 4.222527146339416504e-01
-1.772060059010982513e-02 -2.449336647987365723e-01 -9.592863321304321289e-01
4.494302719831466675e-02 4.313481748104095459e-01 1.461475938558578491e-01
6.782773882150650024e-02 -3.461306989192962646e-01 7.456743717193603516e-01
1.565085649490356445e-01 -7.583558559417724609e-02 2.764885425567626953e-01
1.546577364206314087e-01 -1.010158360004425049e-01 3.047554194927215576e-01
-4.974834248423576355e-02 1.252347230911254883e-01 8.694487214088439941e-01
-1.570298671722412109e-01 6.461761146783828735e-02 -3.230529427528381348e-01
-1.472837775945663452e-01 -2.947600483894348145e-01 1.438145935535430908e-01
-1.604391038417816162e-01 -2.090078294277191162e-01 -1.175945773720741272e-01
1.368210911750793457e-01 -5.405885726213455200e-02 -5.314765572547912598e-01
1.324564069509506226e-01 -3.154310882091522217e-01 2.711051702499389648e-01
-1.500542908906936646e-01 -2.181447148323059082e-01 3.029407560825347900e-01
-4.984832555055618286e-02 8.983411639928817749e-02 -9.902729392051696777e-01
-1.309676319360733032e-01 1.348887681961059570e-01 -5.839008092880249023e-01
-1.600192040205001831e-01 8.030160516500473022e-02 -1.707677245140075684e-01
-2.004619129002094269e-02 4.530220031738281250e-01 4.757986217737197876e-02
-1.638554185628890991e-01 -1.716922521591186523e-01 -7.037376612424850464e-02
1.333753317594528198e-01 2.384439706802368164e-01 -1.339146643877029419e-01
1.310615241527557373e-01 2.302684187889099121e-01 -2.526848018169403076e-01
1.371337175369262695e-01 -2.297979891300201416e-01 -3.648268580436706543e-01
-1.161538287997245789e-01 2.776147425174713135e-01 -3.939491808414459229e-01
1.465626209974288940e-01 -1.426160037517547607e-01 4.145313203334808350e-01
-1.440879553556442261e-01 -2.823531441390514374e-02 -5.834871530532836914e-01
1.098123416304588318e-01 -2.844613194465637207e-01 6.150175929069519043e-01
-5.682781711220741272e-02 -5.350070595741271973e-01 2.033813744783401489e-01
-1.211654171347618103e-01 -3.684133887290954590e-01 3.532468974590301514e-01
-1.965963467955589294e-02 -2.773525714874267578e-01 9.237155914306640625e-01
8.600606024265289307e-02 3.283531665802001953e-01 3.954810500144958496e-01
-1.204295381903648376e-01 2.914926409721374512e-01 5.392535030841827393e-02
1.040713787078857422e-01 -4.301990270614624023e-01 -1.175952330231666565e-01
-7.687601447105407715e-02 -3.824605643749237061e-01 6.500458717346191406e-01
-4.338847845792770386e-02 -2.627097070217132568e-01 9.022558927536010742e-01
1.791160926222801208e-02 4.354397952556610107e-01 -3.647975921630859375e-01
-1.145365312695503235e-01 -3.183551132678985596e-01 5.353705883026123047e-01
1.500425338745117188e-01 -2.353649139404296875e-01 1.702774502336978912e-02
-1.194663792848587036e-01 -6.072496250271797180e-02 -7.770588397979736328e-01
-1.510029286146163940e-01 -2.549238801002502441e-01 -2.740315496921539307e-01
-6.059465929865837097e-02 -5.868852511048316956e-02 -1.000450015068054199e+00
3.899052366614341736e-02 -2.131278216838836670e-01 9.511694312095642090e-01
-1.574089191854000092e-02 -5.534259676933288574e-01 2.733027040958404541e-01
1.156053915619850159e-01 -1.311279088258743286e-01 -6.789143681526184082e-01
-1.562345772981643677e-01 -1.123748570680618286e-01 3.093405961990356445e-01
4.477046430110931396e-02 3.959207236766815186e-01 -4.700356721878051758e-01
-9.748198091983795166e-02 -3.788225948810577393e-01 -5.642935037612915039e-01
-5.140798911452293396e-02 1.076022908091545105e-01 -9.773513078689575195e-01
5.274501815438270569e-02 -5.217416286468505859e-01 2.682514190673828125e-01
5.902957171201705933e-02 -7.050576806068420410e-02 -9.582404494285583496e-01
1.179077774286270142e-01 -2.920191735029220581e-03 7.026607394218444824e-01
1.074907109141349792e-01 1.039704158902168274e-01 -7.122251987457275391e-01
1.219261661171913147e-01 -1.872576773166656494e-01 -5.861812233924865723e-01
-1.380475461483001709e-01 1.852155327796936035e-01 -3.918006420135498047e-01
1.606469750404357910e-01 -5.967861041426658630e-02 -1.000652685761451721e-01
1.612445116043090820e-01 -5.046747624874114990e-03 -3.374642133712768555e-02
-5.800170823931694031e-02 -3.639340996742248535e-01 7.519207596778869629e-01
-1.652238368988037109e-01 -1.175252869725227356e-01 7.867759466171264648e-02
-1.051006913185119629e-01 2.179200351238250732e-01 -6.572650671005249023e-01
7.642924040555953979e-02 -4.988607168197631836e-01 -2.472408488392829895e-02
1.323091089725494385e-01 -3.075507283210754395e-01 -2.272797971963882446e-01
-5.221036076545715332e-02 -3.112662732601165771e-01 -8.494033217430114746e-01
-4.411655291914939880e-02 -5.518032312393188477e-01 -9.913340955972671509e-02
3.075296245515346527e-02 -5.044787526130676270e-01 -4.109042286872863770e-01
4.357348009943962097e-02 -1.344670653343200684e-01 -9.761192798614501953e-01
-8.749919384717941284e-02 -2.311860024929046631e-01 -8.392299413681030273e-01
-5.591814965009689331e-02 -2.635137736797332764e-01 8.735178709030151367e-01
-1.123786866664886475e-01 2.043779194355010986e-02 -8.077222704887390137e-01
6.144509837031364441e-02 -4.938870966434478760e-01 3.737430870532989502e-01
4.663968831300735474e-02 -1.552595198154449463e-01 9.650985002517700195e-01
9.926611185073852539e-02 2.132495045661926270e-01 -6.400091648101806641e-01
-7.305110991001129150e-02 -2.445802465081214905e-02 -9.715075492858886719e-01
-1.627191603183746338e-01 4.336522519588470459e-02 -1.855469048023223877e-01
2.804758585989475250e-02 -4.098142087459564209e-01 7.406667470932006836e-01
1.365073472261428833e-01 1.116932108998298645e-01 -4.536153078079223633e-01
9.755896031856536865e-02 -1.523960530757904053e-01 8.065407276153564453e-01
9.069845080375671387e-02 -1.545667946338653564e-01 -8.082999587059020996e-01
1.601378917694091797e-01 3.143567591905593872e-02 -2.332989126443862915e-03
-1.426194459199905396e-01 -2.304401397705078125e-01 3.930842280387878418e-01
-3.366957232356071472e-02 -1.283646523952484131e-01 -1.023625493049621582e+00
1.464063376188278198e-01 1.554168164730072021e-01 -1.790402680635452271e-01
7.813247293233871460e-02 3.742009699344635010e-01 -3.412622213363647461e-01
-1.532970964908599854e-01 -2.539501786231994629e-01 1.380436122417449951e-01
9.793044626712799072e-02 7.219458371400833130e-02 -7.875759005546569824e-01
-4.417627304792404175e-02 -5.478507280349731445e-01 -1.527146995067596436e-01
-1.357416957616806030e-01 1.230730190873146057e-01 4.098993539810180664e-01
-1.186426877975463867e-01 2.724618911743164062e-01 -3.794393241405487061e-01
5.134448036551475525e-02 -3.478942215442657471e-01 -7.477267980575561523e-01
1.512540876865386963e-01 1.849599182605743408e-02 3.550521433353424072e-01
9.943103045225143433e-02 3.563445210456848145e-01 -1.969625800848007202e-02
1.394300460815429688e-01 -2.977733612060546875e-01 -7.381549477577209473e-02
-8.576464653015136719e-02 2.658311277627944946e-02 -9.235176444053649902e-01
-1.472198218107223511e-01 8.449786156415939331e-02 -4.669310152530670166e-01
-5.940254777669906616e-02 -3.195023238658905029e-01 8.078765869140625000e-01
-1.402570456266403198e-01 1.434117555618286133e-02 -6.079702377319335938e-01
-1.528916358947753906e-01 -2.640001773834228516e-01 1.045319065451622009e-01
9.101503342390060425e-02 -4.708901345729827881e-01 2.527557872235774994e-02
-1.666104793548583984e-01 -1.297107338905334473e-02 -7.036832720041275024e-02
5.785077810287475586e-02 3.640673756599426270e-01 -5.277289152145385742e-01
-1.090558469295501709e-01 -3.492383062839508057e-01 5.202602148056030273e-01
-1.725204847753047943e-02 3.856081962585449219e-01 4.581170976161956787e-01
1.426029652357101440e-01 -7.961809635162353516e-03 4.917659163475036621e-01
1.216520816087722778e-01 1.892517507076263428e-01 -4.975239038467407227e-01
4.759845882654190063e-02 4.274379611015319824e-01 -2.712861895561218262e-01
-9.971232153475284576e-03 4.428321421146392822e-01 1.905188262462615967e-01
1.586731225252151489e-01 -4.947340488433837891e-02 -1.819935142993927002e-01
7.126530259847640991e-02 -5.057678818702697754e-01 -6.537639349699020386e-02
9.180190414190292358e-02 1.913382709026336670e-01 -7.162360548973083496e-01
5.618345364928245544e-02 5.861034989356994629e-02 -9.548660516738891602e-01
8.011772483587265015e-02 3.920281529426574707e-01 -1.668622642755508423e-01
-2.388993091881275177e-02 -4.693468213081359863e-01 -5.832179188728332520e-01
-1.516368091106414795e-01 1.196223571896553040e-01 1.681151688098907471e-01
1.455002278089523315e-01 -2.652103900909423828e-01 1.109987795352935791e-01
-3.402676060795783997e-02 2.215393781661987305e-01 -9.020823836326599121e-01
-1.989216357469558716e-02 -5.467323064804077148e-01 -2.632735669612884521e-01
1.540145277976989746e-01 -1.997113525867462158e-01 -4.493253305554389954e-03
1.309815347194671631e-01 2.024487257003784180e-01 3.291188478469848633e-01
1.451442092657089233e-01 -1.754239946603775024e-01 -3.394176065921783447e-01
-3.198349848389625549e-02 -4.786933362483978271e-01 -5.450626015663146973e-01
9.562162309885025024e-02 -7.813134789466857910e-02 8.330243825912475586e-01
-3.850112855434417725e-02 -5.186323523521423340e-01 -3.786235153675079346e-01
1.413422226905822754e-01 1.547342240810394287e-01 -3.040223419666290283e-01
-8.927033841609954834e-02 -4.131374359130859375e-01 5.144625306129455566e-01
-1.566228121519088745e-01 9.987918287515640259e-02 -2.384727895259857178e-01
-1.338409632444381714e-01 3.217007219791412354e-02 5.335071682929992676e-01
6.222044304013252258e-02 -3.169150650501251221e-01 8.059086799621582031e-01
-1.632694602012634277e-01 -7.948740571737289429e-02 -2.875306308269500732e-01
2.664838451892137527e-03 -4.180617630481719971e-01 7.469731569290161133e-01
-5.907421931624412537e-02 -4.474282562732696533e-01 5.812020301818847656e-01
-1.329942941665649414e-01 -3.121743798255920410e-01 -4.137513935565948486e-01
-6.873682141304016113e-02 -5.234891772270202637e-01 -1.505324691534042358e-01
1.337793916463851929e-01 2.413730025291442871e-01 -7.188533246517181396e-02
7.449364662170410156e-02 4.000694453716278076e-01 -1.889287680387496948e-01
1.002304479479789734e-01 3.287418186664581299e-01 2.515143752098083496e-01
-1.189941912889480591e-01 -3.870052695274353027e-01 3.165447413921356201e-01
-1.117629706859588623e-01 1.504898071289062500e-03 -8.164444565773010254e-01
1.191562563180923462e-01 2.463532984256744385e-02 6.824359297752380371e-01
-1.426453143358230591e-01 3.509085625410079956e-02 4.435255825519561768e-01
-1.103690266609191895e-01 -4.503102600574493408e-01 -6.127838790416717529e-02
1.834380440413951874e-02 4.115358293056488037e-01 3.648602962493896484e-01
1.416006088256835938e-01 4.293788224458694458e-02 -4.573406279087066650e-01
1.091243028640747070e-01 -2.076841518282890320e-02 7.607855796813964844e-01
-1.612372696399688721e-01 -7.584100216627120972e-02 2.225335389375686646e-01
1.175972297787666321e-01 3.045533597469329834e-01 -7.090242952108383179e-02
1.583210527896881104e-01 -1.331701278686523438e-01 -8.603869378566741943e-02
-1.205490007996559143e-01 -3.482240140438079834e-01 4.177226126194000244e-01
-1.578996926546096802e-01 -5.814947932958602905e-02 -4.050687849521636963e-01
-7.933160662651062012e-02 3.314664363861083984e-01 3.925615847110748291e-01
-1.346586048603057861e-01 -2.928967475891113281e-01 3.830650746822357178e-01
-9.421382099390029907e-02 3.528729379177093506e-01 -3.091371059417724609e-01
1.397315412759780884e-01 -1.012888997793197632e-01 -4.833359122276306152e-01
1.234380900859832764e-01 2.849455177783966064e-01 -5.853262729942798615e-03
1.237302869558334351e-01 -2.731867134571075439e-01 -4.435670077800750732e-01
-4.762981086969375610e-02 -5.525049567222595215e-01 -1.415414735674858093e-03
1.511664837598800659e-01 9.817852824926376343e-02 2.348906993865966797e-01
-1.005650386214256287e-01 -4.503720402717590332e-01 -2.870898544788360596e-01
-1.646862328052520752e-01 -1.216678619384765625e-01 -2.049179375171661377e-01
2.945171482861042023e-02 1.884387433528900146e-01 -9.260599613189697266e-01
1.019642576575279236e-01 -1.739933788776397705e-01 -7.358362078666687012e-01
-1.077849715948104858e-01 -1.032216548919677734e-01 7.492840290069580078e-01
-1.309841871261596680e-01 -3.608163297176361084e-01 2.293379902839660645e-01
2.388544008135795593e-02 -1.035485565662384033e-01 1.005414009094238281e+00
-9.976828843355178833e-02 2.403637766838073730e-01 5.018423795700073242e-01
5.608414486050605774e-02 -4.894563257694244385e-01 4.311642050743103027e-01
1.482678800821304321e-01 -1.944885849952697754e-01 -2.464847117662429810e-01
1.280615329742431641e-01 -2.221214771270751953e-01 -4.865270853042602539e-01
9.724796563386917114e-02 2.539226412773132324e-01 5.290572643280029297e-01
1.167883947491645813e-01 1.678469479084014893e-01 5.537539720535278320e-01
1.631191000342369080e-03 1.195519343018531799e-01 -1.007578969001770020e+00
7.495298236608505249e-02 3.226354122161865234e-01 4.847382307052612305e-01
-1.075265184044837952e-01 1.720752120018005371e-01 -7.137532830238342285e-01
5.219251289963722229e-02 3.542041033506393433e-02 9.428466558456420898e-01
6.202254816889762878e-02 6.153132021427154541e-02 9.073771238327026367e-01
-1.011226624250411987e-01 3.438378870487213135e-01 -2.502438426017761230e-01
7.544527202844619751e-02 -3.556197881698608398e-01 6.989367008209228516e-01
-7.078304141759872437e-02 -5.022192001342773438e-01 3.137363791465759277e-01
-1.301774680614471436e-01 -1.765365898609161377e-01 -6.527873277664184570e-01
-9.645051509141921997e-02 3.448624312877655029e-01 -3.292698264122009277e-01
9.597395360469818115e-02 3.522812724113464355e-01 -2.353145927190780640e-01
-1.142508462071418762e-01 2.328551113605499268e-01 4.012183845043182373e-01
-1.361799538135528564e-01 2.105201780796051025e-01 -3.356490731239318848e-01
8.614924550056457520e-02 2.121014595031738281e-01 -7.185482382774353027e-01
1.154455766081809998e-01 2.925415635108947754e-01 2.101815193891525269e-01
1.556853204965591431e-01 5.327294021844863892e-02 2.126825898885726929e-01
5.173812434077262878e-02 -2.064098715782165527e-01 9.318983554840087891e-01
-1.390227228403091431e-01 6.900668889284133911e-02 4.488705098628997803e-01
-1.608213484287261963e-01 1.108674705028533936e-02 1.806653439998626709e-01
9.075582772493362427e-02 -4.695440530776977539e-01 1.292812973260879517e-01
1.161701902747154236e-01 -2.718572616577148438e-01 -5.196595191955566406e-01
-8.499839901924133301e-02 -2.157044410705566406e-01 -8.622502684593200684e-01
1.509189754724502563e-01 -1.875933408737182617e-01 2.654271423816680908e-01
1.625600270926952362e-03 3.605652451515197754e-01 5.515038371086120605e-01
1.441935896873474121e-01 -2.753208577632904053e-01 8.574249595403671265e-02
1.401707977056503296e-01 -2.149713337421417236e-01 4.145266711711883545e-01
-1.597583442926406860e-01 -8.704577386379241943e-02 2.525838613510131836e-01
1.530382633209228516e-01 -8.127246052026748657e-02 -3.027546703815460205e-01
5.381006374955177307e-02 -5.263366699218750000e-01 -1.281175762414932251e-01
8.467953652143478394e-02 2.329760789871215820e-01 6.421570777893066406e-01
-3.263590857386589050e-02 4.492934346199035645e-01 -1.369822621345520020e-01
-1.365094035863876343e-01 2.068820893764495850e-01 1.840823590755462646e-01
1.493909507989883423e-01 1.525405347347259521e-01 2.185183949768543243e-02
-1.298275738954544067e-01 2.021989524364471436e-01 3.085034787654876709e-01
3.372479975223541260e-02 -4.352898001670837402e-01 6.772792339324951172e-01
-1.548288762569427490e-01 3.440193086862564087e-02 2.762164771556854248e-01
1.180247887969017029e-01 -3.860062956809997559e-01 -1.212917640805244446e-01
1.321213692426681519e-01 -2.126716673374176025e-01 5.178015828132629395e-01
3.976432979106903076e-02 -5.114108324050903320e-01 4.158077538013458252e-01
-1.657031923532485962e-01 4.597857594490051270e-03 -1.144545804709196091e-02
1.598955988883972168e-01 3.628652542829513550e-02 3.036271594464778900e-02
1.264876127243041992e-01 1.607954204082489014e-01 -4.963599443435668945e-01
1.449896395206451416e-02 1.809772551059722900e-01 -9.520582556724548340e-01
1.112634986639022827e-01 -2.764817140996456146e-02 7.501938343048095703e-01
7.362306118011474609e-02 2.142040729522705078e-01 7.194043993949890137e-01
7.299859076738357544e-02 -3.039256632328033447e-01 -7.360990643501281738e-01
8.918388187885284424e-02 2.532798647880554199e-01 -6.343079805374145508e-01
4.507335275411605835e-02 -4.727792739868164062e-01 5.446848273277282715e-01
1.054232120513916016e-01 -2.557337284088134766e-04 -7.701572179794311523e-01
-2.281300257891416550e-03 -2.292841076850891113e-01 -9.726148843765258789e-01
-1.427374631166458130e-01 -1.577459275722503662e-01 -5.550273060798645020e-01
1.160675287246704102e-01 2.810489535331726074e-01 -3.065074682235717773e-01
-1.208402439951896667e-01 1.925270557403564453e-01 -5.816559791564941406e-01
-1.307694166898727417e-01 -2.967522144317626953e-01 -4.771823883056640625e-01
-7.072146236896514893e-02 -2.690467536449432373e-01 8.251348137855529785e-01
1.484958231449127197e-01 -4.151527211070060730e-02 -3.904009163379669189e-01
-2.310507744550704956e-02 -4.176835119724273682e-01 -7.108812928199768066e-01
-4.869116097688674927e-02 -2.632767856121063232e-01 8.908330202102661133e-01
-1.518508493900299072e-01 -2.347511947154998779e-01 -3.143136501312255859e-01
1.458837240934371948e-01 -1.849007308483123779e-01 -3.115496039390563965e-01
-7.817152142524719238e-02 -2.715640068054199219e-01 7.960584163665771484e-01
-1.296301186084747314e-01 2.810214459896087646e-02 -6.927578449249267578e-01
-1.341451853513717651e-01 -8.837569504976272583e-03 -6.705602407455444336e-01
1.131992861628532410e-01 2.828548848628997803e-01 2.942174375057220459e-01
1.513334959745407104e-01 -2.447809092700481415e-02 3.780218958854675293e-01
-1.524996906518936157e-01 5.010671168565750122e-02 2.954353392124176025e-01
1.147482320666313171e-01 -1.499642133712768555e-01 7.121830582618713379e-01
-1.077484637498855591e-01 -3.238919377326965332e-01 5.769241452217102051e-01
7.186629623174667358e-02 -3.294240236282348633e-01 7.554317116737365723e-01
1.322788447141647339e-01 -9.483702480792999268e-02 -5.634173154830932617e-01
8.174317330121994019e-02 1.961127817630767822e-01 7.143262624740600586e-01
-1.019147858023643494e-01 3.487831652164459229e-01 -1.548757310956716537e-02
1.352654546499252319e-01 1.859584152698516846e-01 -3.291823863983154297e-01
1.251906454563140869e-01 2.003607451915740967e-01 -4.359569847583770752e-01
-3.966966643929481506e-02 -1.093352437019348145e-01 -1.023954629898071289e+00
