-4.866283535957336426e-01 -3.905367851257324219e-01 -1.840487718582153320e-01
-6.711636185646057129e-01 -3.815041482448577881e-01 2.705645859241485596e-01
-4.561428129673004150e-01 -1.168446987867355347e-01 -4.376285672187805176e-01
-3.360864818096160889e-01 3.279305994510650635e-02 1.831885240972042084e-02
-5.246348977088928223e-01 -4.553997814655303955e-01 2.615864574909210205e-01
-5.191742181777954102e-01 -9.413066506385803223e-02 1.991798579692840576e-01
-5.869781374931335449e-01 -2.401376962661743164e-01 3.778682053089141846e-01
-4.880047142505645752e-01 -1.283466815948486328e-01 -4.048864841461181641e-01
-4.997820556163787842e-01 -3.745175898075103760e-02 -8.995766192674636841e-02
-4.310636520385742188e-01 -3.452286720275878906e-01 4.014011919498443604e-01
-4.953018724918365479e-01 -4.463802576065063477e-01 2.360455840826034546e-01
-2.391339838504791260e-01 -1.993989497423171997e-01 -7.833457738161087036e-02
-4.903867244720458984e-01 -4.482777416706085205e-01 1.109693497419357300e-01
-4.868869781494140625e-01 -2.630836963653564453e-01 -3.896653950214385986e-01
-2.596567869186401367e-01 -2.361038029193878174e-01 -3.597647696733474731e-02
-4.424668550491333008e-01 -3.207806348800659180e-01 -3.135115206241607666e-01
-6.391042470932006836e-01 -2.502886950969696045e-01 2.514009475708007812e-01
-5.209171175956726074e-01 -4.309514760971069336e-01 -7.558372616767883301e-02
-2.907910943031311035e-01 -4.022926092147827148e-02 1.879388839006423950e-01
-4.463726878166198730e-01 -3.938990235328674316e-01 -1.258664578199386597e-01
-3.808937370777130127e-01 -3.325498104095458984e-01 3.220650851726531982e-01
-4.605106115341186523e-01 -3.555012345314025879e-01 -2.540819942951202393e-01
-6.657218933105468750e-01 -3.753999173641204834e-01 -1.221847720444202423e-02
-6.134597063064575195e-01 -4.401700496673583984e-01 -1.060429774224758148e-02
-5.384103059768676758e-01 -1.282588541507720947e-01 -3.033758103847503662e-01
-4.595072865486145020e-01 -6.572106480598449707e-02 -3.822714388370513916e-01
-5.972067117691040039e-01 -3.836218416690826416e-01 -1.652533262968063354e-01
-3.817468285560607910e-01 3.818790614604949951e-02 -1.559265702962875366e-01
-4.529661238193511963e-01 -4.226346313953399658e-01 1.190524641424417496e-02
-2.406635731458663940e-01 -7.311715185642242432e-02 -3.734802007675170898e-01
-5.973131656646728516e-01 -3.798632025718688965e-01 4.315099120140075684e-01
-4.721855819225311279e-01 -4.391720592975616455e-01 1.774326413869857788e-01
-3.998159170150756836e-01 -2.967661023139953613e-01 4.053638875484466553e-01
-3.692045509815216064e-01 -1.888845562934875488e-01 -4.462676346302032471e-01
-6.199201941490173340e-01 -3.196600675582885742e-01 3.977711498737335205e-01
-3.579926192760467529e-01 -2.884636223316192627e-01 -2.856226563453674316e-01
-4.573473036289215088e-01 -3.554572463035583496e-01 4.234525263309478760e-01
-6.659337282180786133e-01 -3.093175292015075684e-01 -3.164950385689735413e-02
-4.302381575107574463e-01 -2.907949686050415039e-02 1.598612964153289795e-01
-3.471384048461914062e-01 -3.423566222190856934e-01 -2.579156309366226196e-02
-4.704741239547729492e-01 -4.384211897850036621e-01 9.702247381210327148e-02
-2.081811726093292236e-01 -1.174239814281463623e-01 -4.188293218612670898e-02
-4.141980111598968506e-01 -1.140679419040679932e-02 1.205434575676918030e-01
-4.466823339462280273e-01 -1.702777892351150513e-01 4.125283956527709961e-01
-4.272022843360900879e-01 9.054183959960937500e-03 -2.303580939769744873e-01
-4.722698926925659180e-01 -2.674575150012969971e-01 4.694557189941406250e-01
-5.189670920372009277e-01 -6.612630188465118408e-02 -2.015637159347534180e-01
-5.996137857437133789e-01 -1.581098288297653198e-01 1.258689016103744507e-01
-6.644380092620849609e-01 -2.701446115970611572e-01 4.688821732997894287e-02
-5.814290046691894531e-01 -4.248735904693603516e-01 -9.231477230787277222e-02
-4.919872879981994629e-01 -8.479142189025878906e-02 2.301505655050277710e-01
-4.978528022766113281e-01 -4.717899858951568604e-02 6.126517057418823242e-02
-3.697163164615631104e-01 -1.078222021460533142e-01 -4.804616272449493408e-01
-2.664036750793457031e-01 -4.637338221073150635e-02 -4.217620491981506348e-01
-4.601084291934967041e-01 -8.479535579681396484e-03 -4.567904770374298096e-02
-3.127263188362121582e-01 -2.211908698081970215e-01 2.999533116817474365e-01
-2.279845327138900757e-01 -1.282956600189208984e-01 9.079805761575698853e-02
-5.404048562049865723e-01 -7.762454450130462646e-02 -1.054783836007118225e-01
-4.072341322898864746e-01 -3.875767886638641357e-01 2.327048331499099731e-01
-5.251817107200622559e-01 -1.112253218889236450e-01 2.377065271139144897e-01
-2.055455297231674194e-01 -1.094341278076171875e-02 -2.312240600585937500e-01
-5.288316607475280762e-01 -4.343100190162658691e-01 3.587941527366638184e-01
-2.701407372951507568e-01 -2.426311671733856201e-01 9.260600060224533081e-02
-2.414662241935729980e-01 -1.380821466445922852e-01 -3.102085888385772705e-01
-4.119138717651367188e-01 -3.305735588073730469e-01 -2.664660513401031494e-01
-3.035067021846771240e-01 -9.298627823591232300e-02 2.657661139965057373e-01
-3.175800442695617676e-01 -2.799777090549468994e-01 -2.092495113611221313e-01
-4.795765280723571777e-01 -8.496496826410293579e-02 2.510462105274200439e-01
-3.069518506526947021e-01 -2.960967123508453369e-01 1.128419414162635803e-01
-4.350204765796661377e-01 -1.563440561294555664e-01 -4.616689980030059814e-01
-6.457084417343139648e-01 -2.346462458372116089e-01 1.570931375026702881e-01
-5.494185686111450195e-01 -2.077073007822036743e-01 3.904125690460205078e-01
-4.559692144393920898e-01 -1.156237721443176270e-02 -2.287798374891281128e-01
-4.487076997756958008e-01 -4.052891731262207031e-01 -8.148443698883056641e-02
-6.618164777755737305e-01 -2.750187516212463379e-01 1.825441122055053711e-01
-5.146666765213012695e-01 -2.318279445171356201e-01 -3.887314498424530029e-01
-4.737399518489837646e-01 -1.456838101148605347e-01 3.739374577999114990e-01
-6.437262296676635742e-01 -2.215801179409027100e-01 1.505053788423538208e-02
-2.932963669300079346e-01 -1.566712707281112671e-01 2.790582478046417236e-01
-6.608371138572692871e-01 -4.292167723178863525e-01 2.468145340681076050e-01
-2.609400153160095215e-01 5.183404684066772461e-02 -1.665900498628616333e-01
-4.686300754547119141e-01 -1.749128103256225586e-02 -7.109844591468572617e-03
-6.633583307266235352e-01 -2.715123891830444336e-01 1.492600440979003906e-01
-5.863372087478637695e-01 -4.382101893424987793e-01 -4.803106188774108887e-02
-4.486402273178100586e-01 -3.343813121318817139e-02 1.447423398494720459e-01
-6.344627141952514648e-01 -4.486967921257019043e-01 2.826861739158630371e-01
-4.579705595970153809e-01 -4.182721078395843506e-01 2.784985899925231934e-01
-5.926488637924194336e-01 -4.508104324340820312e-01 3.330943286418914795e-01
-6.756403446197509766e-01 -3.715776205062866211e-01 4.003259539604187012e-02
-2.693158388137817383e-01 -1.052304059267044067e-01 -4.107647836208343506e-01
-4.954038262367248535e-01 -1.836500316858291626e-01 -4.150627851486206055e-01
-3.134334683418273926e-01 -2.537563145160675049e-01 2.682980000972747803e-01
-2.550281286239624023e-01 -3.505684435367584229e-02 1.255199164152145386e-01
-5.953382253646850586e-01 -1.591690033674240112e-01 -1.479787379503250122e-01
-2.965255081653594971e-01 -1.708973646163940430e-01 -3.915627300739288330e-01
-2.243047356605529785e-01 -1.143869757652282715e-02 -3.242736756801605225e-01
-3.154315054416656494e-01 1.811158657073974609e-02 7.628311216831207275e-02
-2.493131756782531738e-01 -1.996255815029144287e-01 -1.895831376314163208e-01
-4.979901611804962158e-01 -8.933825790882110596e-02 -3.418504893779754639e-01
-6.444082260131835938e-01 -2.703254818916320801e-01 -1.154411137104034424e-01
-2.913182377815246582e-01 -8.762317895889282227e-02 2.446265667676925659e-01
-5.884630680084228516e-01 -1.700886338949203491e-01 -2.101442217826843262e-01
-2.549876570701599121e-01 -2.208879590034484863e-02 1.051968187093734741e-01
-2.375184148550033569e-01 -1.811872720718383789e-01 6.168898940086364746e-02
-4.043236672878265381e-01 2.068522572517395020e-02 -2.490026354789733887e-01
-3.635331690311431885e-01 -2.498233318328857422e-01 -3.689746856689453125e-01
-5.613833665847778320e-01 -1.123662590980529785e-01 1.153941452503204346e-01
-3.102855682373046875e-01 3.221087157726287842e-02 2.390218898653984070e-02
-2.634316980838775635e-01 -5.775195360183715820e-02 1.700577139854431152e-01
-5.023032426834106445e-01 -4.925264418125152588e-02 -2.052248418331146240e-01
-2.910057306289672852e-01 -1.065223366022109985e-01 -4.398175477981567383e-01
-3.526046574115753174e-01 -3.488636016845703125e-01 1.268946081399917603e-01
-5.666651725769042969e-01 -1.095225363969802856e-01 -1.124425604939460754e-01
-5.185894966125488281e-01 -5.441239476203918457e-02 -7.978896796703338623e-02
-4.485163688659667969e-01 -1.216785162687301636e-01 3.520394265651702881e-01
-3.284808397293090820e-01 5.026832222938537598e-02 -8.812082558870315552e-02
-4.984663128852844238e-01 -3.832921385765075684e-02 -1.432755887508392334e-01
-2.594953775405883789e-01 -1.058153957128524780e-01 1.968030333518981934e-01
-2.145759314298629761e-01 5.158141255378723145e-03 -8.311489224433898926e-02
-2.592365443706512451e-01 -2.186673730611801147e-01 1.043608486652374268e-01
-3.714414834976196289e-01 -5.614459514617919922e-04 -3.916369974613189697e-01
-6.272979974746704102e-01 -2.120656222105026245e-01 -1.108140870928764343e-01
-3.453194499015808105e-01 -2.867034673690795898e-01 -2.648624181747436523e-01
-5.720791816711425781e-01 -2.870786786079406738e-01 4.428548812866210938e-01
-6.424612998962402344e-01 -4.241961836814880371e-01 3.278300762176513672e-01
-4.152552783489227295e-01 -2.390603721141815186e-01 4.392928481101989746e-01
-2.322798967361450195e-01 3.636415302753448486e-02 -1.620908528566360474e-01
-6.399176120758056641e-01 -3.398076295852661133e-01 -1.334221065044403076e-01
-5.540555715560913086e-01 -3.019366264343261719e-01 4.639672040939331055e-01
-2.663649320602416992e-01 -1.857575625181198120e-01 1.973267346620559692e-01
-4.188974499702453613e-01 -3.307469189167022705e-02 1.861390322446823120e-01
-4.041930139064788818e-01 -3.666787147521972656e-01 3.034317195415496826e-01
-3.737287223339080811e-01 -2.739451527595520020e-01 -3.393052220344543457e-01
-5.615053176879882812e-01 -4.680895805358886719e-01 1.155259758234024048e-01
-5.805509686470031738e-01 -1.223254948854446411e-01 7.899881340563297272e-03
-3.607753515243530273e-01 -3.553981781005859375e-01 1.472800672054290771e-01
-2.337196171283721924e-01 1.133976876735687256e-02 -3.203299045562744141e-01
-4.347394406795501709e-01 -1.971603333950042725e-01 4.330878257751464844e-01
-3.529334366321563721e-01 4.439055919647216797e-02 -2.461334466934204102e-01
-5.146673917770385742e-01 -1.330043077468872070e-01 -3.639903664588928223e-01
-2.139900326728820801e-01 -1.324566900730133057e-01 -1.331492234021425247e-02
-3.673139214515686035e-01 -2.205652296543121338e-01 -4.130877852439880371e-01
-5.724908113479614258e-01 -3.095728754997253418e-01 4.533339738845825195e-01
-6.498125791549682617e-01 -4.311858415603637695e-01 2.920005023479461670e-01
-5.705464482307434082e-01 -1.315724253654479980e-01 -1.934352666139602661e-01
-3.659912049770355225e-01 4.323306679725646973e-02 -1.152495071291923523e-01
-5.150486230850219727e-01 -2.930452823638916016e-01 -3.492479026317596436e-01
-2.582868337631225586e-01 -1.594658792018890381e-01 1.899456381797790527e-01
-4.890486001968383789e-01 -2.905543148517608643e-02 -1.247779130935668945e-01
-2.085881978273391724e-01 -1.235847100615501404e-01 -6.343818455934524536e-02
-2.710807323455810547e-01 -1.698821187019348145e-01 -3.425084948539733887e-01
-2.889868021011352539e-01 2.425149083137512207e-03 -4.083316326141357422e-01
-3.069379925727844238e-01 -3.769397735595703125e-04 1.244616582989692688e-01
-5.468137264251708984e-01 -3.912994265556335449e-01 4.417506754398345947e-01
-2.420745491981506348e-01 -1.662623435258865356e-01 -2.555118203163146973e-01
-3.205038011074066162e-01 5.444756150245666504e-02 -2.213572710752487183e-01
-4.758911132812500000e-01 -7.494774460792541504e-02 -3.658553361892700195e-01
-4.939135909080505371e-01 -1.134908795356750488e-01 -3.827246129512786865e-01
-6.254839301109313965e-01 -2.864445745944976807e-01 -1.896960437297821045e-01
-4.090336263179779053e-01 -3.515493869781494141e-01 3.514787852764129639e-01
-6.302890777587890625e-01 -2.011058628559112549e-01 -4.405923187732696533e-02
-6.030874252319335938e-01 -3.397507071495056152e-01 -2.128582447767257690e-01
-6.119022369384765625e-01 -2.987407445907592773e-01 -2.219191640615463257e-01
-2.869083583354949951e-01 5.645722150802612305e-02 -1.532012820243835449e-01
-5.272984504699707031e-01 -4.238778948783874512e-01 3.836569190025329590e-01
-4.896106421947479248e-01 -4.361705482006072998e-02 -2.417155206203460693e-01
-3.964554965496063232e-01 -2.687583863735198975e-02 1.878899633884429932e-01
-2.491038143634796143e-01 -7.341057062149047852e-02 1.541878879070281982e-01
-4.910938143730163574e-01 -6.679393351078033447e-02 -3.132143020629882812e-01
-5.865906476974487305e-01 -1.415643990039825439e-01 -1.354706138372421265e-01
-6.317910552024841309e-01 -3.368511199951171875e-01 -1.568353623151779175e-01
-3.644784688949584961e-01 -2.855316698551177979e-01 3.552748858928680420e-01
-5.380604267120361328e-01 -2.695825397968292236e-01 -3.487898707389831543e-01
-2.408300340175628662e-01 -1.806069016456604004e-01 -2.072411775588989258e-01
-3.123333156108856201e-01 2.664910256862640381e-02 -3.678999841213226318e-01
-4.589145183563232422e-01 -2.115844190120697021e-02 -2.676778733730316162e-01
-3.363479673862457275e-01 -1.093526780605316162e-01 3.150611817836761475e-01
-6.628845930099487305e-01 -4.028257131576538086e-01 2.934611439704895020e-01
-3.997538983821868896e-01 1.019842922687530518e-02 5.152106285095214844e-02
-2.854929864406585693e-01 -2.649926543235778809e-01 1.103396415710449219e-01
-5.544752478599548340e-01 -4.381249547004699707e-01 -6.004676222801208496e-02
-2.740987241268157959e-01 -1.555564850568771362e-01 2.364107370376586914e-01
-5.450855493545532227e-01 -1.209541633725166321e-01 -2.697290182113647461e-01
-2.743821740150451660e-01 -2.253660708665847778e-01 1.718174517154693604e-01
-5.760218501091003418e-01 -1.737357825040817261e-01 -2.599282562732696533e-01
-3.143775463104248047e-01 4.499080777168273926e-02 -3.030493259429931641e-01
-6.368850469589233398e-01 -2.672070264816284180e-01 -1.451513469219207764e-01
-2.090294212102890015e-01 -5.989690124988555908e-02 3.842595033347606659e-03
-3.169682919979095459e-01 -2.078557014465332031e-01 -3.726228177547454834e-01
-3.976331353187561035e-01 1.250816881656646729e-02 -3.124068677425384521e-01
-3.617640137672424316e-01 2.984967827796936035e-02 1.050703227519989014e-02
-6.202445030212402344e-01 -4.646513760089874268e-01 2.166391164064407349e-01
-4.344795644283294678e-01 -1.997099816799163818e-02 -3.357025384902954102e-01
-3.365298807621002197e-01 -3.297931849956512451e-01 1.394383460283279419e-01
-6.556429862976074219e-01 -4.246436655521392822e-01 4.991091042757034302e-02
-5.541893839836120605e-01 -1.214007064700126648e-01 1.882134974002838135e-01
-4.214164614677429199e-01 -4.079360365867614746e-01 6.177409738302230835e-02
-3.169956207275390625e-01 -1.023418828845024109e-01 -4.646529257297515869e-01
-4.109113216400146484e-01 -3.504063189029693604e-01 -2.122881710529327393e-01
-2.503020167350769043e-01 -1.189913526177406311e-01 -3.609862923622131348e-01
-3.345727026462554932e-01 -3.332434892654418945e-01 4.368183016777038574e-02
-5.190302133560180664e-01 -2.796310186386108398e-01 4.716309905052185059e-01
-2.387680560350418091e-01 3.137683868408203125e-02 -2.799184620380401611e-01
-4.773072302341461182e-01 -1.616848409175872803e-01 3.935574293136596680e-01
-6.397321820259094238e-01 -2.166023552417755127e-01 1.127706840634346008e-01
-3.611649572849273682e-01 -2.039226740598678589e-01 3.859277665615081787e-01
-6.215790510177612305e-01 -4.237379729747772217e-01 -4.652988165616989136e-02
-3.911349773406982422e-01 3.291061520576477051e-02 -1.016157492995262146e-01
-4.532387256622314453e-01 -8.761572092771530151e-02 -4.193342924118041992e-01
-4.731934964656829834e-01 -2.946570515632629395e-02 5.978564918041229248e-02
-4.595163166522979736e-01 -5.285075306892395020e-02 -3.593630194664001465e-01
-2.327425330877304077e-01 -1.861407756805419922e-01 -2.386638708412647247e-02
-5.424398779869079590e-01 -7.827125489711761475e-02 -3.149855136871337891e-02
-5.221864581108093262e-01 -1.334887444972991943e-01 2.996246218681335449e-01
-4.473546743392944336e-01 -9.353386610746383667e-02 3.043709993362426758e-01
-3.280366361141204834e-01 -7.132865488529205322e-02 2.666212618350982666e-01
-4.693832397460937500e-01 -7.180592417716979980e-02 2.313471287488937378e-01
-5.764929056167602539e-01 -3.847683370113372803e-01 4.421201348304748535e-01
-2.081602513790130615e-01 4.958391189575195312e-03 -1.528859734535217285e-01
-5.432643294334411621e-01 -2.196059376001358032e-01 -3.560555577278137207e-01
-2.006004899740219116e-01 -8.580520004034042358e-02 -7.680214196443557739e-02
-1.993281990289688110e-01 -8.260104060173034668e-02 -9.863375127315521240e-02
-4.616497755050659180e-01 -2.875386178493499756e-02 9.481281787157058716e-02
-3.132022023200988770e-01 5.611729621887207031e-02 -1.473837047815322876e-01
-4.667722880840301514e-01 -3.166056871414184570e-01 4.614106714725494385e-01
-3.875039517879486084e-01 -3.579530715942382812e-01 -1.330544948577880859e-01
-4.177099466323852539e-01 -4.016457796096801758e-01 1.021704543381929398e-02
-4.306938946247100830e-01 -4.134327769279479980e-01 1.729654371738433838e-01
-6.313365697860717773e-01 -2.710803449153900146e-01 -1.678349971771240234e-01
-5.328720211982727051e-01 -3.715899586677551270e-01 -2.341769337654113770e-01
-4.147771000862121582e-01 -2.802180647850036621e-01 -3.650021255016326904e-01
-2.057620286941528320e-01 -4.381583631038665771e-02 -2.891100943088531494e-02
-6.542145013809204102e-01 -3.021669983863830566e-01 2.886542677879333496e-01
-5.874329805374145508e-01 -4.683663249015808105e-01 2.433191686868667603e-01
-2.401117086410522461e-01 -1.944497972726821899e-01 3.497830033302307129e-02
-4.041735231876373291e-01 -5.700530111789703369e-02 2.556864917278289795e-01
-6.531640291213989258e-01 -3.754618167877197266e-01 -6.068208068609237671e-02
-4.436821043491363525e-01 2.495497465133666992e-04 -2.565999701619148254e-02
-6.520290374755859375e-01 -3.901162445545196533e-01 -4.336570203304290771e-02
-6.109820008277893066e-01 -1.702817678451538086e-01 -7.495110481977462769e-02
-5.397348403930664062e-01 -3.876814842224121094e-01 -2.005264014005661011e-01
-2.681651413440704346e-01 -2.403553873300552368e-01 -1.274208128452301025e-01
-6.103160381317138672e-01 -2.668586969375610352e-01 3.677380383014678955e-01
-2.633979320526123047e-01 -1.843441277742385864e-01 -2.942883670330047607e-01
-4.492932558059692383e-01 -1.944582313299179077e-01 -4.462166428565979004e-01
-4.833017587661743164e-01 -4.218208193778991699e-01 -7.191228866577148438e-02
-2.382986843585968018e-01 -1.633843034505844116e-01 1.044455394148826599e-01
-2.436565905809402466e-01 -2.080101221799850464e-01 -1.679780706763267517e-02
-4.593032002449035645e-01 -7.425093650817871094e-02 2.511149048805236816e-01
-5.165789723396301270e-01 -3.804156184196472168e-01 -2.186265885829925537e-01
-6.550962328910827637e-01 -4.013669192790985107e-01 3.226192891597747803e-01
-2.788730263710021973e-01 -2.650982141494750977e-01 -1.507780700922012329e-02
-6.748660802841186523e-01 -3.152103126049041748e-01 3.805074095726013184e-02
-6.666789054870605469e-01 -3.551674187183380127e-01 2.897567749023437500e-01
-4.965879321098327637e-01 -5.816519260406494141e-02 1.251121312379837036e-01
-2.932149171829223633e-01 -2.174373120069503784e-01 -3.079145252704620361e-01
-5.942499637603759766e-01 -1.820735782384872437e-01 2.458089888095855713e-01
-5.167371630668640137e-01 -4.499104619026184082e-01 2.544026263058185577e-02
-3.481893539428710938e-01 -3.315179347991943359e-01 2.078249156475067139e-01
-5.140351653099060059e-01 -9.001240879297256470e-02 -3.007922470569610596e-01
-5.402024984359741211e-01 -4.586906135082244873e-01 5.136009305715560913e-02
-4.480597078800201416e-01 -3.696112036705017090e-01 -2.079884409904479980e-01
-3.783279955387115479e-01 -3.752768039703369141e-01 8.220576494932174683e-02
-2.517578601837158203e-01 4.785701632499694824e-02 -2.168851643800735474e-01
-5.498257875442504883e-01 -4.420332312583923340e-01 3.537863790988922119e-01
-5.150161385536193848e-01 -1.706900745630264282e-01 3.769415020942687988e-01
-6.044194102287292480e-01 -4.597413241863250732e-01 2.897368669509887695e-01
-4.217135310173034668e-01 -2.238313108682632446e-01 -4.326454401016235352e-01
-5.848321914672851562e-01 -4.016271233558654785e-01 4.246922731399536133e-01
-3.364690542221069336e-01 -3.063613176345825195e-01 2.414192259311676025e-01
-6.443642377853393555e-01 -2.219841182231903076e-01 7.305777072906494141e-02
-5.878468155860900879e-01 -1.321789026260375977e-01 -4.746337980031967163e-02
-3.368512392044067383e-01 2.318468689918518066e-02 -3.660482764244079590e-01
-6.196892261505126953e-01 -1.814858466386795044e-01 -4.660175740718841553e-02
-6.057710051536560059e-01 -2.317012250423431396e-01 3.248345255851745605e-01
-3.143177628517150879e-01 -3.013996183872222900e-01 1.427701413631439209e-01
-4.402765035629272461e-01 -1.224616169929504395e-02 -2.943795621395111084e-01
-6.635751128196716309e-01 -2.848850488662719727e-01 -1.814079843461513519e-02
-4.389782547950744629e-01 -1.033824458718299866e-01 3.271974623203277588e-01
-4.216863512992858887e-01 -1.654506623744964600e-01 4.071152806282043457e-01
-2.655860185623168945e-01 5.351504683494567871e-02 -1.894779950380325317e-01
-3.352814912796020508e-01 -3.336269855499267578e-01 7.132127135992050171e-02
-6.002141237258911133e-01 -1.726340204477310181e-01 1.902728825807571411e-01
-5.620495080947875977e-01 -4.524007141590118408e-01 3.263750970363616943e-01
-5.873155593872070312e-01 -4.391815662384033203e-01 3.666172623634338379e-01
-4.851088225841522217e-01 -2.682447433471679688e-02 -3.932613879442214966e-02
-4.377150833606719971e-01 -5.647577345371246338e-02 -4.038661122322082520e-01
-5.305153727531433105e-01 -4.631765782833099365e-01 1.326401382684707642e-01
-2.402068376541137695e-01 -1.504931747913360596e-01 1.286849826574325562e-01
-5.521271824836730957e-01 -9.445266425609588623e-02 5.767870694398880005e-02
-4.810121655464172363e-01 -1.967978030443191528e-01 4.304226040840148926e-01
-6.216216087341308594e-01 -2.353967428207397461e-01 -1.769596636295318604e-01
-3.658167719841003418e-01 -3.483151793479919434e-01 -1.006104052066802979e-01
-3.351790010929107666e-01 -2.091289311647415161e-01 3.492564857006072998e-01
-2.127454727888107300e-01 -6.645104289054870605e-02 2.705418691039085388e-02
-6.053341031074523926e-01 -2.752491533756256104e-01 -2.410707175731658936e-01
-3.110944032669067383e-01 -2.581460475921630859e-01 -2.563865482807159424e-01
-6.330934762954711914e-01 -4.388718307018280029e-01 2.448660507798194885e-02
-5.427488088607788086e-01 -8.220171928405761719e-02 -1.284146159887313843e-01
-5.630984902381896973e-01 -2.591450214385986328e-01 4.314638972282409668e-01
-3.692027926445007324e-01 -3.585284352302551270e-01 -5.344763398170471191e-02
-2.996924817562103271e-01 2.322863042354583740e-02 5.254521965980529785e-02
-5.206305384635925293e-01 -3.948589861392974854e-01 4.292775690555572510e-01
-3.067491650581359863e-01 -2.891803681850433350e-01 -1.201755106449127197e-01
-3.390061557292938232e-01 3.981778025627136230e-02 -3.040967881679534912e-01
-5.294317603111267090e-01 -3.119155764579772949e-01 4.755722880363464355e-01
-3.557647466659545898e-01 -3.445414900779724121e-01 1.870299577713012695e-01
-5.560811161994934082e-01 -2.170673161745071411e-01 -3.351412713527679443e-01
-4.167634546756744385e-01 -1.556327939033508301e-02 -3.607535958290100098e-01
-6.068845987319946289e-01 -2.515215277671813965e-01 -2.341916263103485107e-01
-6.711272597312927246e-01 -3.754363656044006348e-01 1.546730846166610718e-02
-3.186672031879425049e-01 -3.017117679119110107e-01 1.709183156490325928e-01
-2.676281332969665527e-01 -2.039358019828796387e-01 -2.624358534812927246e-01
-2.686166465282440186e-01 -1.708683669567108154e-01 2.157614976167678833e-01
-5.394384860992431641e-01 -2.300198674201965332e-01 4.273180067539215088e-01
-4.328167736530303955e-01 -2.677580416202545166e-01 4.515510499477386475e-01
-5.543881058692932129e-01 -1.010941639542579651e-01 -1.621012985706329346e-01
-2.902061939239501953e-01 5.695894360542297363e-02 -2.052628546953201294e-01
-2.246438115835189819e-01 -1.207429692149162292e-01 -2.742510437965393066e-01
-3.906313776969909668e-01 -2.540025115013122559e-01 4.153262376785278320e-01
-4.744805991649627686e-01 -2.608051896095275879e-02 -2.230708897113800049e-01
-5.460787415504455566e-01 -4.248563647270202637e-01 -1.049693077802658081e-01
-3.408860266208648682e-01 -2.281092256307601929e-01 -3.757793605327606201e-01
-5.137604475021362305e-01 -8.405265212059020996e-02 1.784887164831161499e-01
-5.539008975028991699e-01 -1.158593222498893738e-01 -2.232286930084228516e-01
-2.998844385147094727e-01 5.567759275436401367e-02 -1.284314095973968506e-01
-2.516812682151794434e-01 -1.508080959320068359e-02 -3.878774344921112061e-01
-3.207978606224060059e-01 -1.260512173175811768e-01 -4.582091271877288818e-01
-6.339925527572631836e-01 -4.279950261116027832e-01 -9.027658030390739441e-03
-6.019421815872192383e-01 -1.656691581010818481e-01 1.504250466823577881e-01
-6.152518987655639648e-01 -4.196116924285888672e-01 -6.774737685918807983e-02
-4.507014453411102295e-01 7.832050323486328125e-05 -9.777627885341644287e-02
-2.112362533807754517e-01 -1.011659204959869385e-02 -5.542128533124923706e-02
-2.629418969154357910e-01 -2.081307619810104370e-01 1.522077172994613647e-01
-3.053930997848510742e-01 -2.989923059940338135e-01 6.028276681900024414e-02
-4.975497722625732422e-01 -4.119516015052795410e-01 -1.267773956060409546e-01
-6.364608407020568848e-01 -2.977536320686340332e-01 3.421823680400848389e-01
-5.334910750389099121e-01 -9.452613443136215210e-02 1.565152406692504883e-01
-2.529516816139221191e-01 -6.215146183967590332e-02 -4.015313982963562012e-01
-2.191637605428695679e-01 -1.408344209194183350e-01 -1.915935128927230835e-01
-3.056448996067047119e-01 4.975289106369018555e-02 -2.811000645160675049e-01
-3.818092346191406250e-01 -3.691207170486450195e-01 2.025981545448303223e-01
-5.989518761634826660e-01 -2.009158283472061157e-01 2.797412872314453125e-01
-4.100893735885620117e-01 -2.908225357532501221e-02 -3.995258212089538574e-01
-2.123156338930130005e-01 -1.375706046819686890e-01 -8.276650309562683105e-02
-1.988713145256042480e-01 -3.079818189144134521e-02 -1.180227175354957581e-01
-4.097078740596771240e-01 -5.025242269039154053e-02 -4.306490123271942139e-01
-3.774035871028900146e-01 -2.479642629623413086e-03 1.285883635282516479e-01
-5.249615311622619629e-01 -6.322066485881805420e-02 -1.324544101953506470e-01
-3.810011148452758789e-01 3.798784315586090088e-02 -1.825375109910964966e-01
-6.013087034225463867e-01 -1.499964147806167603e-01 2.323888801038265228e-02
-3.849698603153228760e-01 -3.246465921401977539e-01 3.463655412197113037e-01
-2.731688022613525391e-01 1.997652649879455566e-02 3.784473240375518799e-02
-4.733168780803680420e-01 -1.648813486099243164e-02 -7.131639868021011353e-02
-4.232676327228546143e-01 -3.838773965835571289e-01 -1.182213798165321350e-01
-2.213283479213714600e-01 -6.076523661613464355e-02 6.133969128131866455e-02
-2.702267467975616455e-01 -9.926099330186843872e-02 2.170452475547790527e-01
-2.715724110603332520e-01 1.050730049610137939e-02 6.276013702154159546e-02
-6.593077182769775391e-01 -4.339224696159362793e-01 1.126518025994300842e-01
-3.832722902297973633e-01 -2.523379027843475342e-01 -3.840340673923492432e-01
-4.592151939868927002e-01 -3.269198536872863770e-02 -3.097216188907623291e-01
-5.668445825576782227e-01 -1.682517975568771362e-01 2.890773713588714600e-01
-2.392402738332748413e-01 -3.775164484977722168e-03 -3.551508188247680664e-01
-4.209563136100769043e-01 -3.169809579849243164e-01 4.176714718341827393e-01
-6.053760647773742676e-01 -2.256914675235748291e-01 -2.241507619619369507e-01
-6.504408717155456543e-01 -2.838898301124572754e-01 2.739508748054504395e-01
-2.745830714702606201e-01 5.266502499580383301e-02 -1.222587823867797852e-01
-6.821156144142150879e-01 -3.504037857055664062e-01 1.583021283149719238e-01
-3.074666559696197510e-01 -2.827056646347045898e-01 1.810886114835739136e-01
-2.728590667247772217e-01 -7.896092534065246582e-02 2.076738476753234863e-01
-6.196658611297607422e-01 -3.490250110626220703e-01 -1.738826930522918701e-01
-3.028232455253601074e-01 -2.752801477909088135e-01 -1.678597182035446167e-01
-3.889910876750946045e-01 3.280536830425262451e-02 -2.105959355831146240e-01
-5.627610087394714355e-01 -1.099794507026672363e-01 9.196954965591430664e-02
-5.824735164642333984e-01 -2.431686073541641235e-01 -2.892682254314422607e-01
-2.990047931671142578e-01 -2.136133313179016113e-01 -3.292449712753295898e-01
-5.702555179595947266e-01 -1.921975761651992798e-01 -2.946403622627258301e-01
-4.790985286235809326e-01 -9.216928482055664062e-02 -3.845784962177276611e-01
-5.129606723785400391e-01 -6.719313561916351318e-02 -2.371907532215118408e-01
-4.946403801441192627e-01 -2.824198007583618164e-01 4.749241173267364502e-01
-4.451619982719421387e-01 -2.308298051357269287e-01 4.524953067302703857e-01
-3.518070578575134277e-01 -3.500106632709503174e-01 9.639387577772140503e-02
-4.164310097694396973e-01 -2.131075114011764526e-01 4.341640472412109375e-01
-5.076437592506408691e-01 -4.619124531745910645e-02 -2.021430060267448425e-02
-2.665163874626159668e-01 -2.451910525560379028e-01 2.951652370393276215e-02
-4.859846234321594238e-01 -4.216382205486297607e-01 3.352339565753936768e-01
-4.436287283897399902e-01 -9.083867073059082031e-03 4.509811103343963623e-02
-4.250904023647308350e-01 -4.082737863063812256e-01 3.039621375501155853e-02
-2.677941620349884033e-01 -1.431305408477783203e-01 -3.728210031986236572e-01
-3.790651857852935791e-01 -3.012613356113433838e-01 -2.903905510902404785e-01
-4.130203425884246826e-01 1.521760225296020508e-02 -1.362101826816797256e-02
-4.255753755569458008e-01 -3.751942217350006104e-01 -1.572900563478469849e-01
-4.148983955383300781e-01 -3.930397331714630127e-01 -4.404629766941070557e-02
-5.934529304504394531e-01 -2.708298265933990479e-01 -2.669188678264617920e-01
-5.685132741928100586e-01 -2.329524457454681396e-01 -3.151619434356689453e-01
-4.923861622810363770e-01 -4.354283809661865234e-01 2.955102324485778809e-01
-2.004431039094924927e-01 -6.579406559467315674e-02 -2.070565223693847656e-01
-4.229376614093780518e-01 -3.886856436729431152e-01 -9.552072733640670776e-02
-4.894263446331024170e-01 -3.198356926441192627e-02 -1.314599998295307159e-02
-3.754696846008300781e-01 -7.085339725017547607e-02 2.858427762985229492e-01
-6.500734686851501465e-01 -2.714629173278808594e-01 2.498544007539749146e-01
-4.963471293449401855e-01 -1.824641078710556030e-01 4.080212712287902832e-01
-2.875310182571411133e-01 1.655066013336181641e-02 -3.856232762336730957e-01
-6.487523913383483887e-01 -4.496058821678161621e-01 1.757491081953048706e-01
-4.925621151924133301e-01 -9.658302366733551025e-02 -3.649076819419860840e-01
-4.893218874931335449e-01 -4.151326417922973633e-01 3.600391447544097900e-01
-6.204673051834106445e-01 -4.303969740867614746e-01 3.573196828365325928e-01
-4.829934835433959961e-01 -4.317883849143981934e-01 -1.990424096584320068e-02
-5.875045061111450195e-01 -4.479854702949523926e-01 -1.106875296682119370e-02
-6.467660069465637207e-01 -2.588154673576354980e-01 -8.968149870634078979e-02
-6.792881488800048828e-01 -3.246053457260131836e-01 1.395298838615417480e-01
-2.464074194431304932e-01 -1.803642064332962036e-01 1.199583336710929871e-01
-3.247389495372772217e-01 -3.187479078769683838e-01 -4.194007068872451782e-02
-3.528581559658050537e-01 -3.062078058719635010e-01 -2.270244956016540527e-01
-2.279874980449676514e-01 -1.657249629497528076e-01 2.741200663149356842e-02
-2.074906826019287109e-01 -1.179497539997100830e-01 -1.493175476789474487e-01
-3.765087723731994629e-01 1.408365368843078613e-02 -3.476504087448120117e-01
-4.181317687034606934e-01 -1.897539198398590088e-02 1.423368901014328003e-01
-2.756244540214538574e-01 3.687986731529235840e-02 -2.058412320911884308e-02
-3.536519110202789307e-01 4.555454850196838379e-02 -9.339422732591629028e-02
-6.309682130813598633e-01 -3.427162170410156250e-01 3.878856003284454346e-01
-4.943502247333526611e-01 -1.535868942737579346e-01 3.705219924449920654e-01
-5.549131035804748535e-01 -3.933119177818298340e-01 -1.832491755485534668e-01
-2.181068658828735352e-01 -1.202623918652534485e-01 4.318545013666152954e-02
-4.437103867530822754e-01 -3.242149949073791504e-03 5.205610301345586777e-03
-4.526301026344299316e-01 -4.223769009113311768e-01 2.333904355764389038e-01
-6.462519168853759766e-01 -2.308972626924514771e-01 -1.487459428608417511e-02
-6.474053859710693359e-01 -3.702754378318786621e-01 -8.483410626649856567e-02
-3.259759843349456787e-01 -3.237053453922271729e-01 1.945982314646244049e-02
-5.218454599380493164e-01 -5.774335563182830811e-02 -4.469640552997589111e-02
-2.489362210035324097e-01 -2.147635817527770996e-01 -1.009243205189704895e-01
-4.118272066116333008e-01 2.159772813320159912e-02 -1.993657797574996948e-01
-2.072957158088684082e-01 -7.834678888320922852e-02 -2.474946975708007812e-01
-5.677844285964965820e-01 -2.179737240076065063e-01 3.788403272628784180e-01
-5.145112276077270508e-01 -1.100530177354812622e-01 2.568996846675872803e-01
-4.835337698459625244e-01 -2.744938433170318604e-02 -1.718029230833053589e-01
-5.025067329406738281e-01 -4.087780416011810303e-01 3.919505178928375244e-01
-3.484767377376556396e-01 -3.079888820648193359e-01 2.801489233970642090e-01
-3.610975146293640137e-01 -5.642040073871612549e-02 -4.665980339050292969e-01
-3.616773784160614014e-01 -1.472350955009460449e-01 3.653569519519805908e-01
-4.152300655841827393e-01 -3.111079931259155273e-01 -3.120653629302978516e-01
-5.891866683959960938e-01 -4.287237524986267090e-01 3.869348168373107910e-01
-6.567413806915283203e-01 -3.341732621192932129e-01 3.153700530529022217e-01
-5.306962132453918457e-01 -7.170012593269348145e-02 -1.546657979488372803e-01
-3.344142138957977295e-01 -3.247563242912292480e-01 -7.408753782510757446e-02
-4.109761118888854980e-01 -1.882791519165039062e-01 -4.569901525974273682e-01
-5.279269814491271973e-01 -4.390525817871093750e-01 -4.699534922838211060e-02
-6.606693267822265625e-01 -3.370340466499328613e-01 -6.305085122585296631e-02
-6.729364991188049316e-01 -3.395299315452575684e-01 3.606254234910011292e-03
-5.813423395156860352e-01 -1.272239983081817627e-01 6.441369652748107910e-02
-5.882307291030883789e-01 -4.708549380302429199e-01 2.056154459714889526e-01
-2.884670495986938477e-01 4.509133100509643555e-02 -4.760125279426574707e-02
-3.252379298210144043e-01 -4.584491252899169922e-04 -4.186586439609527588e-01
-6.369838118553161621e-01 -3.306584358215332031e-01 3.693847954273223877e-01
-5.157871246337890625e-01 -6.056667864322662354e-02 5.489028245210647583e-02
-2.854650616645812988e-01 -2.400934547185897827e-01 -2.246336042881011963e-01
-6.521546840667724609e-01 -4.067816734313964844e-01 -1.151188462972640991e-02
-5.627746582031250000e-01 -1.008164435625076294e-01 -8.651912212371826172e-03
-5.466786026954650879e-01 -4.031095504760742188e-01 -1.641729921102523804e-01
-2.292129844427108765e-01 -9.316876530647277832e-02 1.047806590795516968e-01
-3.332158923149108887e-01 -3.300444483757019043e-01 9.769277274608612061e-02
-3.534042835235595703e-01 7.204338908195495605e-03 1.098657026886940002e-01
-3.980552554130554199e-01 -1.353348195552825928e-01 -4.761312603950500488e-01
-2.084917724132537842e-01 -6.034271419048309326e-02 -2.706575095653533936e-01
-3.021828532218933105e-01 -2.344316542148590088e-01 -2.926774024963378906e-01
-5.403333306312561035e-01 -1.478879749774932861e-01 2.991985678672790527e-01
-5.112636685371398926e-01 -5.370713770389556885e-02 -1.744691431522369385e-01
-5.384055376052856445e-01 -3.071407973766326904e-01 -3.199291527271270752e-01
-5.600771903991699219e-01 -2.871062755584716797e-01 -3.138701021671295166e-01
-2.647477984428405762e-01 -2.440339624881744385e-01 -2.502657938748598099e-03
-2.322895377874374390e-01 -1.609824746847152710e-01 7.329120486974716187e-02
-5.886385440826416016e-01 -3.516132831573486328e-01 4.461078047752380371e-01
-5.291657447814941406e-01 -1.487240195274353027e-01 3.204593062400817871e-01
-3.772359192371368408e-01 -1.441754400730133057e-02 1.647831201553344727e-01
-2.262470126152038574e-01 3.122702240943908691e-02 -1.973524838685989380e-01
-5.058432817459106445e-01 -4.426772594451904297e-01 -1.593437511473894119e-03
-4.683159291744232178e-01 -9.916453808546066284e-02 2.975863516330718994e-01
-6.218389272689819336e-01 -4.519760608673095703e-01 5.354414135217666626e-02
-3.348857164382934570e-01 3.959181904792785645e-02 -1.619182527065277100e-02
-2.617039382457733154e-01 -1.714317947626113892e-01 -3.149044513702392578e-01
-3.241044878959655762e-01 -3.119434118270874023e-01 -9.234824776649475098e-02
-3.109015226364135742e-01 -2.804917097091674805e-01 2.050114870071411133e-01
-4.607529640197753906e-01 -3.765920996665954590e-01 3.983695805072784424e-01
-6.612899303436279297e-01 -2.630830407142639160e-01 1.277043521404266357e-01
-5.796605944633483887e-01 -1.370607167482376099e-01 -1.623984575271606445e-01
-2.742704451084136963e-01 -2.549470067024230957e-01 5.811800807714462280e-02
-2.042839974164962769e-01 -1.096037477254867554e-01 -9.363612532615661621e-02
-5.504139065742492676e-01 -4.125167429447174072e-01 -1.397328227758407593e-01
-4.936669170856475830e-01 -7.338216900825500488e-02 1.916425824165344238e-01
-3.636977374553680420e-01 -3.579849004745483398e-01 -1.784765161573886871e-02
-3.699772357940673828e-01 -3.528723418712615967e-01 2.238986790180206299e-01
-5.294411182403564453e-01 -4.595807492733001709e-01 8.016008138656616211e-02
-4.135630726814270020e-01 -4.033813476562500000e-01 1.135132983326911926e-01
-5.735889673233032227e-01 -3.028059005737304688e-01 -2.864378094673156738e-01
-4.351236820220947266e-01 -4.030604958534240723e-01 2.715665698051452637e-01
-4.626330137252807617e-01 -4.088739156723022461e-01 3.276940584182739258e-01
-2.121045738458633423e-01 -1.167089864611625671e-01 -2.081774473190307617e-01
-2.877558469772338867e-01 3.208845853805541992e-02 1.204932201653718948e-02
-6.752102375030517578e-01 -3.060624897480010986e-01 7.276150584220886230e-02
-6.132723689079284668e-01 -2.545796930789947510e-01 3.440980017185211182e-01
-6.047612428665161133e-01 -3.531860709190368652e-01 4.298946261405944824e-01
-6.809358000755310059e-01 -3.852877020835876465e-01 1.736821234226226807e-01
-6.801946163177490234e-01 -3.504118919372558594e-01 1.938436180353164673e-01
-3.597677648067474365e-01 3.182908892631530762e-02 -3.090449273586273193e-01
-6.447844505310058594e-01 -4.447852969169616699e-01 9.016123414039611816e-02
-3.404936194419860840e-01 -1.498720943927764893e-01 3.473939299583435059e-01
-6.193709373474121094e-01 -1.781626939773559570e-01 -1.772033609449863434e-02
-5.610523223876953125e-01 -3.530911803245544434e-01 4.626579582691192627e-01
-2.536801993846893311e-01 3.727316856384277344e-02 -6.287257373332977295e-02
-5.351865887641906738e-01 -7.101510465145111084e-02 -8.487129211425781250e-02
-3.905202746391296387e-01 -3.833827972412109375e-01 1.489229053258895874e-01
-5.771675109863281250e-01 -4.651827216148376465e-01 2.693400382995605469e-01
-4.646131098270416260e-01 -1.623962521553039551e-01 -4.425837397575378418e-01
-6.291935443878173828e-01 -2.218042463064193726e-01 2.188382893800735474e-01
-3.286375403404235840e-01 5.437397956848144531e-02 -1.873576641082763672e-01
-5.901035070419311523e-01 -1.874472945928573608e-01 -2.326969951391220093e-01
-3.525827825069427490e-01 -3.296669125556945801e-01 2.357468307018280029e-01
-3.141954541206359863e-01 -2.759271860122680664e-01 2.306062430143356323e-01
-6.619874835014343262e-01 -4.352815151214599609e-01 1.640051454305648804e-01
-4.303388893604278564e-01 -8.600614964962005615e-02 -4.441082477569580078e-01
-3.975919485092163086e-01 -3.900036811828613281e-01 4.456470906734466553e-02
-2.429271787405014038e-01 -9.556930512189865112e-02 -3.649408519268035889e-01
-5.649126172065734863e-01 -4.675390124320983887e-01 2.402266114950180054e-01
-3.043085634708404541e-01 4.322409629821777344e-02 -2.893691696226596832e-02
-3.488767445087432861e-01 -1.226724535226821899e-01 3.369902372360229492e-01
-2.514015138149261475e-01 -1.316950917243957520e-01 1.781619042158126831e-01
-3.834616839885711670e-01 -9.081767499446868896e-02 -4.758138954639434814e-01
-4.516243338584899902e-01 -2.327206581830978394e-01 -4.240756034851074219e-01
-5.866843461990356445e-01 -2.091256678104400635e-01 3.290431499481201172e-01
-3.854148983955383301e-01 -5.623956024646759033e-02 -4.562049210071563721e-01
-2.287400364875793457e-01 -1.737983673810958862e-01 5.972075741738080978e-04
-6.691823005676269531e-01 -3.360450863838195801e-01 -2.045292966067790985e-02
-2.309446930885314941e-01 -1.727308034896850586e-01 -1.650577336549758911e-01
-2.324790060520172119e-01 -1.229588761925697327e-01 1.139360219240188599e-01
-4.605709612369537354e-01 -6.052884459495544434e-02 2.128615230321884155e-01
-3.570597171783447266e-01 -2.636069357395172119e-01 3.609878718852996826e-01
-5.344707965850830078e-01 -4.641947150230407715e-01 1.950675547122955322e-01
-2.510425448417663574e-01 -1.274475455284118652e-02 8.057906478643417358e-02
-4.719246923923492432e-01 -4.399633705615997314e-01 1.432472318410873413e-01
-5.341105461120605469e-01 -8.704777061939239502e-02 1.194906383752822876e-01
-5.159233212471008301e-01 -4.230146110057830811e-01 -1.018587052822113037e-01
-2.990323305130004883e-01 -4.987396299839019775e-02 2.113380432128906250e-01
-4.395697712898254395e-01 3.740951418876647949e-03 -2.031438499689102173e-01
-3.524346351623535156e-01 -7.108107209205627441e-03 -4.188247025012969971e-01
-6.683934926986694336e-01 -2.956071496009826660e-01 1.918386965990066528e-01
-3.331506550312042236e-01 -2.656851112842559814e-01 3.071080744266510010e-01
-2.397219836711883545e-01 3.758580982685089111e-02 -1.143585816025733948e-01
-3.634363710880279541e-01 -9.317637234926223755e-02 3.148564398288726807e-01
-3.364987969398498535e-01 -2.907698154449462891e-01 -2.319464683532714844e-01
-6.242469549179077148e-01 -4.467946887016296387e-01 3.124929070472717285e-01
-6.315102577209472656e-01 -2.082877755165100098e-01 -6.721096485853195190e-02
-4.435028433799743652e-01 -3.373284935951232910e-01 -2.818058431148529053e-01
-4.396857619285583496e-01 -4.157368540763854980e-01 2.159802615642547607e-01
-5.630604028701782227e-01 -4.703033864498138428e-01 1.705131679773330688e-01
-2.326528131961822510e-01 3.488744795322418213e-02 -1.366830766201019287e-01
-3.649432063102722168e-01 -3.085461258888244629e-01 3.255228400230407715e-01
-3.506294488906860352e-01 -1.205045953392982483e-01 -4.761001765727996826e-01
-6.144720911979675293e-01 -2.069249451160430908e-01 -1.675409078598022461e-01
-6.523718237876892090e-01 -2.402248084545135498e-01 2.431850507855415344e-02
-5.888893008232116699e-01 -1.338851749897003174e-01 3.226461261510848999e-02
-4.083354473114013672e-01 -3.800542950630187988e-01 2.720230817794799805e-01
-2.172047942876815796e-01 1.420585811138153076e-02 -1.058760657906532288e-01
-5.816161632537841797e-01 -4.588997364044189453e-01 3.049286305904388428e-01
-3.765880167484283447e-01 -3.725552558898925781e-01 3.155609965324401855e-02
-4.888815283775329590e-01 -3.775976300239562988e-01 4.286888539791107178e-01
-4.681690633296966553e-01 -1.218752562999725342e-02 -1.156115457415580750e-01
-3.502584397792816162e-01 -2.999055087566375732e-01 3.015087842941284180e-01
-5.733938217163085938e-01 -3.532027602195739746e-01 -2.368935197591781616e-01
-4.992383420467376709e-01 -3.110372424125671387e-01 -3.360220789909362793e-01
-3.273133337497711182e-01 5.307054519653320312e-02 -1.207334399223327637e-01
-2.157774716615676880e-01 -2.287688851356506348e-02 -5.558725912123918533e-03
-4.920175075531005859e-01 -4.290584027767181396e-01 -5.187316983938217163e-02
-2.237322926521301270e-01 -1.666178256273269653e-01 -1.003190502524375916e-01
-4.893279969692230225e-01 -4.431250393390655518e-01 4.518366605043411255e-02
-3.872961997985839844e-01 2.212461829185485840e-02 -2.952707111835479736e-01
-3.318247795104980469e-01 3.154282271862030029e-02 -3.446573317050933838e-01
-3.367459774017333984e-01 5.241286754608154297e-02 -1.433276981115341187e-01
-6.728006601333618164e-01 -2.943909168243408203e-01 9.748921543359756470e-02
-6.765994429588317871e-01 -4.043752551078796387e-01 1.883629411458969116e-01
-5.757640600204467773e-01 -1.354495882987976074e-01 1.549735963344573975e-01
-3.912592828273773193e-01 -3.797000646591186523e-01 -2.172506414353847504e-02
-2.616950273513793945e-01 2.087278664112091064e-02 1.776562631130218506e-02
-4.836977720260620117e-01 -4.426486492156982422e-01 2.158444523811340332e-01
-2.195866554975509644e-01 -1.287972927093505859e-01 -2.304106652736663818e-01
-3.361696600914001465e-01 -3.108302354812622070e-01 -1.588699072599411011e-01
-2.851758301258087158e-01 -2.613803744316101074e-01 -1.352350115776062012e-01
-6.209813356399536133e-01 -1.796263307332992554e-01 3.539060801267623901e-02
-2.196119129657745361e-01 -1.516241133213043213e-01 -1.477294117212295532e-01
-3.462281227111816406e-01 -3.259225785732269287e-01 -1.311175674200057983e-01
-6.702982187271118164e-01 -2.871050834655761719e-01 1.213270723819732666e-01
-4.194244444370269775e-01 4.673004150390625000e-05 -3.065973818302154541e-01
-4.760925471782684326e-01 -3.383675217628479004e-01 4.556890726089477539e-01
-6.396445631980895996e-01 -3.058387935161590576e-01 -1.466048508882522583e-01
-5.003767609596252441e-01 -3.672746717929840088e-01 4.483575820922851562e-01
-5.867045521736145020e-01 -4.161532521247863770e-01 4.073080718517303467e-01
-6.034587621688842773e-01 -1.555430293083190918e-01 -5.580551177263259888e-02
-4.033834636211395264e-01 -3.899365663528442383e-01 1.951586157083511353e-01
-2.524791359901428223e-01 -8.769764006137847900e-02 1.716819852590560913e-01
-1.997313797473907471e-01 -8.327946811914443970e-02 -1.584534943103790283e-01
-3.100699782371520996e-01 -1.461915075778961182e-01 3.065106570720672607e-01
-4.013320207595825195e-01 -3.269779682159423828e-01 3.761402368545532227e-01
-4.486739933490753174e-01 -3.880364894866943359e-01 3.556545972824096680e-01
-5.391179323196411133e-01 -1.051710993051528931e-01 -2.534692883491516113e-01
-3.081966638565063477e-01 -1.801738739013671875e-01 3.066948354244232178e-01
-6.463235616683959961e-01 -3.627209067344665527e-01 3.587641417980194092e-01
-4.392026066780090332e-01 -3.654427528381347656e-01 3.840231299400329590e-01
-3.999085724353790283e-01 -1.491059362888336182e-01 3.875795602798461914e-01
-5.845668315887451172e-01 -3.648959994316101074e-01 -2.090014070272445679e-01
-4.125610291957855225e-01 -4.020512104034423828e-01 1.364530622959136963e-01
-3.620688915252685547e-01 4.567563533782958984e-02 -1.630494147539138794e-01
-3.924640417098999023e-01 -3.719663619995117188e-01 -8.086144924163818359e-02
-5.571045875549316406e-01 -4.354175925254821777e-01 3.748036921024322510e-01
-1.995389759540557861e-01 -6.399050354957580566e-02 -7.084289938211441040e-02
-6.709536910057067871e-01 -4.004021286964416504e-01 5.989022552967071533e-02
-4.284622967243194580e-01 -2.556973993778228760e-01 -4.025768339633941650e-01
-3.464491963386535645e-01 4.109826683998107910e-02 -3.775702416896820068e-02
-3.418085277080535889e-01 -3.733162581920623779e-02 2.199662774801254272e-01
-3.050182461738586426e-01 -2.995612323284149170e-01 2.540373429656028748e-02
-5.566702485084533691e-01 -1.298564076423645020e-01 -2.483446151018142700e-01
-2.970518469810485840e-01 -1.903970092535018921e-01 -3.653100430965423584e-01
