-2.135467231273651123e-01 -1.168652065098285675e-02 -2.100675404071807861e-01
2.275989949703216553e-01 -2.761236391961574554e-02 -4.559454321861267090e-02
2.163239121437072754e-01 -8.962599933147430420e-02 -4.119487851858139038e-02
1.182460039854049683e-01 -1.610531508922576904e-01 -4.207546263933181763e-02
-2.463265508413314819e-02 1.415715217590332031e-01 2.286873385310173035e-02
-3.972851112484931946e-02 7.782420516014099121e-02 1.776712536811828613e-01
-9.418874979019165039e-02 7.967180758714675903e-02 1.662223190069198608e-01
-1.080417558550834656e-01 -1.616168916225433350e-01 1.812858507037162781e-02
2.194741666316986084e-01 -1.473663467913866043e-02 9.715119749307632446e-02
-2.617246657609939575e-02 -1.794056594371795654e-01 -1.516732014715671539e-02
-1.276379078626632690e-01 -1.363659650087356567e-01 -1.788715422153472900e-01
1.959809809923171997e-01 -6.906820833683013916e-02 -1.020887792110443115e-01
2.936618030071258545e-02 -8.193095773458480835e-02 1.754212975502014160e-01
2.241721451282501221e-01 -8.158017694950103760e-02 3.888106718659400940e-02
-1.410625278949737549e-01 -1.560627482831478119e-02 1.722927391529083252e-01
2.564999461174011230e-02 -1.251040995121002197e-01 1.310355961322784424e-01
-4.909818619489669800e-02 -1.445721387863159180e-01 9.168618917465209961e-02
-1.164105534553527832e-01 -1.119524165987968445e-01 -2.111383080482482910e-01
-3.702864795923233032e-02 6.603226810693740845e-02 -1.853014826774597168e-01
1.103381514549255371e-01 8.071028441190719604e-02 -8.867581933736801147e-02
1.156421154737472534e-01 -1.447280645370483398e-01 6.824880093336105347e-02
8.769281208515167236e-02 3.484618663787841797e-02 -1.651555150747299194e-01
4.466213285923004150e-03 -9.573839604854583740e-02 1.639277637004852295e-01
-1.907799839973449707e-01 1.599629223346710205e-01 1.260833740234375000e-01
-3.427738249301910400e-01 1.323332637548446655e-01 1.687509417533874512e-01
-3.995707035064697266e-01 6.705459207296371460e-02 1.676614135503768921e-01
-4.116008877754211426e-01 1.468641757965087891e-01 -1.123677790164947510e-01
-1.013741344213485718e-01 1.001774519681930542e-01 4.593738541007041931e-02
-2.869198918342590332e-01 5.120802670717239380e-02 1.365527957677841187e-01
-2.273816466331481934e-01 2.061932086944580078e-01 -2.480772510170936584e-02
-4.452095329761505127e-01 1.453022956848144531e-01 9.972842037677764893e-02
-1.785325407981872559e-01 1.695167124271392822e-01 9.956087172031402588e-02
-4.247598052024841309e-01 9.171961247920989990e-02 1.684535294771194458e-03
-1.090672314167022705e-01 9.642605483531951904e-02 4.797260463237762451e-02
-2.223254442214965820e-01 2.077143490314483643e-01 -4.092570766806602478e-02
-6.390848755836486816e-02 1.387062817811965942e-01 8.308733999729156494e-02
-2.939094603061676025e-01 7.942420989274978638e-02 2.280798554420471191e-01
-2.519864141941070557e-01 5.965626984834671021e-02 9.005045890808105469e-02
-4.760732650756835938e-01 1.497559398412704468e-01 6.445186585187911987e-02
-4.925075471401214600e-01 1.420204788446426392e-01 -6.004810705780982971e-02
-2.450833320617675781e-01 1.867492645978927612e-01 6.153237447142601013e-02
-5.009270906448364258e-01 1.264555901288986206e-01 6.791969388723373413e-02
-4.776057004928588867e-01 1.810058504343032837e-01 -5.123930051922798157e-02
-1.464120000600814819e-01 8.255729824304580688e-02 5.675695836544036865e-02
-4.510508179664611816e-01 8.328664302825927734e-02 5.541016533970832825e-02
-4.933719038963317871e-01 1.523140221834182739e-01 -6.908053159713745117e-02
-1.579272747039794922e-01 6.103217601776123047e-02 1.742626726627349854e-01
-2.281203120946884155e-01 6.141075491905212402e-02 8.964091539382934570e-02
-4.470337033271789551e-01 7.883501052856445312e-02 7.607823610305786133e-02
-4.388623535633087158e-01 8.172120898962020874e-02 4.781245440244674683e-02
-2.038509249687194824e-01 2.055300474166870117e-01 -4.020944610238075256e-02
-3.243041634559631348e-01 5.934988707304000854e-02 8.846926689147949219e-02
-4.396674036979675293e-01 8.760996162891387939e-02 2.477896027266979218e-02
-1.613432765007019043e-01 7.326116412878036499e-02 7.828472554683685303e-02
-3.067812323570251465e-01 1.126227155327796936e-01 -6.671716272830963135e-02
-3.547712266445159912e-01 1.071212291717529297e-01 -5.495943501591682434e-02
-2.810200750827789307e-01 7.835964858531951904e-02 1.770601794123649597e-02
-3.538473844528198242e-01 1.752012073993682861e-01 7.918696105480194092e-02
-3.358805179595947266e-01 2.010471820831298828e-01 -1.427683532238006592e-01
-7.907314598560333252e-02 1.543935686349868774e-01 6.872117519378662109e-02
-2.685861587524414062e-01 7.923407107591629028e-02 2.316306382417678833e-01
-3.257375955581665039e-01 1.983422040939331055e-01 1.488181389868259430e-02
-2.134724557399749756e-01 1.021363437175750732e-01 2.194971293210983276e-01
-3.012622594833374023e-01 1.960970759391784668e-01 2.812679670751094818e-02
-3.499542772769927979e-01 8.896222710609436035e-02 -1.209041476249694824e-02
-3.278338611125946045e-01 9.011338651180267334e-02 -1.665165647864341736e-02
-2.514446973800659180e-01 2.039843648672103882e-01 -4.352256655693054199e-03
-4.686363935470581055e-01 9.442527592182159424e-02 2.891622111201286316e-02
-1.975080966949462891e-01 1.834157705307006836e-01 6.421305239200592041e-02
-4.685264825820922852e-01 1.321902722120285034e-01 -6.639578938484191895e-02
-2.438484728336334229e-01 2.065631300210952759e-01 -2.032023668289184570e-02
-3.553806245326995850e-01 5.822175741195678711e-02 1.840429455041885376e-01
-4.012206792831420898e-01 1.653543263673782349e-01 8.415050804615020752e-02
-2.174036502838134766e-01 2.062773704528808594e-01 -3.217324241995811462e-02
-3.323029875755310059e-01 7.218576967716217041e-02 3.681630268692970276e-02
-1.359440833330154419e-01 1.348516494035720825e-01 -4.860822483897209167e-02
-1.072126775979995728e-01 1.782008111476898193e-01 4.733741283416748047e-03
-1.166919171810150146e-01 1.683224737644195557e-01 7.026358693838119507e-02
-1.282052695751190186e-01 8.275425434112548828e-02 2.012536078691482544e-01
-3.016323745250701904e-01 8.145846426486968994e-02 7.044117897748947144e-03
-4.793267250061035156e-01 1.428848505020141602e-01 7.422128319740295410e-02
-3.009354174137115479e-01 1.463078111410140991e-01 -1.197557151317596436e-01
-4.405042231082916260e-01 1.953737735748291016e-01 -8.995297551155090332e-02
-3.971689045429229736e-01 2.057072669267654419e-01 -9.973555803298950195e-02
-2.139138579368591309e-01 1.448029428720474243e-01 -9.924465417861938477e-02
-3.902074098587036133e-01 6.144444644451141357e-02 1.191129982471466064e-01
-4.581761956214904785e-01 1.445252746343612671e-01 -9.066946804523468018e-02
-2.394060194492340088e-01 2.104237377643585205e-01 -5.506194010376930237e-02
-4.324826002120971680e-01 7.171276211738586426e-02 1.173040270805358887e-01
-4.436483383178710938e-01 1.886195838451385498e-01 -1.110479086637496948e-01
-1.490673124790191650e-01 1.034390032291412354e-01 2.051631659269332886e-01
-3.541041016578674316e-01 2.116027772426605225e-01 -9.893439710140228271e-02
-2.528318166732788086e-01 1.475926339626312256e-01 -1.136018037796020508e-01
-3.330111205577850342e-01 1.467299163341522217e-01 -1.218674033880233765e-01
-4.949689507484436035e-01 1.332562118768692017e-01 -4.422913119196891785e-02
-1.015189439058303833e-01 8.288919925689697266e-02 1.707392334938049316e-01
-3.924317359924316406e-01 1.679899394512176514e-01 8.210393786430358887e-02
-3.331435620784759521e-01 1.408465057611465454e-01 -1.142346709966659546e-01
-4.623585939407348633e-01 1.204296797513961792e-01 -4.872405156493186951e-02
-1.137162595987319946e-01 1.275533735752105713e-01 -2.155277505517005920e-02
-3.867193758487701416e-01 1.032961905002593994e-01 -4.167379066348075867e-02
-1.725991964340209961e-01 5.807423591613769531e-02 1.598850488662719727e-01
-8.737123012542724609e-02 1.168812960386276245e-01 2.328177727758884430e-02
-1.262920498847961426e-01 7.183130085468292236e-02 1.257072389125823975e-01
-3.186837732791900635e-01 5.451600998640060425e-02 1.157664060592651367e-01
-6.129227578639984131e-02 1.405700743198394775e-01 5.807738751173019409e-02
-4.649877548217773438e-01 1.661061942577362061e-01 3.672812134027481079e-02
-1.855726242065429688e-01 2.004759907722473145e-01 -8.488994836807250977e-02
-2.845041453838348389e-01 2.074393928050994873e-01 -1.284383833408355713e-01
-4.039868414402008057e-01 9.213206917047500610e-02 -8.541140705347061157e-03
-1.465667486190795898e-01 6.883990764617919922e-02 1.120665371417999268e-01
-3.792569935321807861e-01 2.017282247543334961e-01 -2.275602146983146667e-02
-3.136427700519561768e-01 8.112880587577819824e-02 2.235512733459472656e-01
-3.553348481655120850e-01 1.177085265517234802e-01 -7.609672844409942627e-02
-4.752191305160522461e-01 9.170249849557876587e-02 1.029284521937370300e-01
-3.407598137855529785e-01 8.575458824634552002e-02 -4.261501133441925049e-03
-1.907251477241516113e-01 1.852468550205230713e-01 5.602524057030677795e-02
-9.723205864429473877e-02 8.258796483278274536e-02 1.230525076389312744e-01
-2.065270543098449707e-01 1.333496123552322388e-01 1.797154694795608521e-01
-2.094177603721618652e-01 1.914682984352111816e-01 3.955529630184173584e-02
-2.597622275352478027e-01 1.759327948093414307e-01 9.303583204746246338e-02
-3.817915320396423340e-01 2.031603753566741943e-01 -1.275313198566436768e-01
-3.132249414920806885e-01 2.135633230209350586e-01 -1.014463901519775391e-01
-3.076840043067932129e-01 7.891795039176940918e-02 1.427291892468929291e-02
-5.924627184867858887e-02 1.210818812251091003e-01 7.529319822788238525e-02
-1.651425063610076904e-01 1.961561739444732666e-01 -7.328504323959350586e-02
-4.072960615158081055e-01 6.545203924179077148e-02 1.094343513250350952e-01
-1.235706508159637451e-01 9.556780755519866943e-02 3.670129552483558655e-02
-3.256116211414337158e-01 1.722458302974700928e-01 -1.453723013401031494e-01
-1.896673887968063354e-01 2.015944123268127441e-01 -2.125666663050651550e-02
-1.450593769550323486e-01 8.579103648662567139e-02 4.764472320675849915e-02
-3.591540455818176270e-01 1.093936786055564880e-01 1.924918740987777710e-01
-2.234516888856887817e-01 6.351059675216674805e-02 8.232260495424270630e-02
-3.648255765438079834e-01 1.471490412950515747e-01 1.370605379343032837e-01
-4.139137864112854004e-01 2.025782167911529541e-01 -7.219824194908142090e-02
-4.121843278408050537e-01 8.615200966596603394e-02 1.782454699277877808e-01
-3.019564747810363770e-01 5.211833119392395020e-02 1.302969604730606079e-01
-3.873049020767211914e-01 9.783754497766494751e-02 1.899395138025283813e-01
-4.419033527374267578e-01 1.686894297599792480e-01 5.046958103775978088e-02
-3.729428052902221680e-01 2.085900753736495972e-01 -1.101025789976119995e-01
-2.872503101825714111e-01 4.961106926202774048e-02 1.602610200643539429e-01
-4.393662810325622559e-01 8.007629215717315674e-02 5.624076724052429199e-02
-3.288428783416748047e-01 2.057591229677200317e-01 -1.869574561715126038e-02
-3.510501682758331299e-01 2.119110226631164551e-01 -8.100326359272003174e-02
-3.427117168903350830e-01 5.365442484617233276e-02 1.408088803291320801e-01
-3.883628845214843750e-01 1.726053655147552490e-01 7.245533168315887451e-02
-7.820813357830047607e-02 1.332884281873703003e-01 1.218372434377670288e-01
-4.219031035900115967e-01 7.190699130296707153e-02 8.044723421335220337e-02
-2.656054794788360596e-01 1.928398907184600830e-01 4.212273284792900085e-02
-1.517424285411834717e-01 1.937709152698516846e-01 -1.407884806394577026e-02
-3.395376503467559814e-01 1.928066313266754150e-01 -1.487095803022384644e-01
-2.181150615215301514e-01 1.385286748409271240e-01 -9.261673688888549805e-02
-2.500446736812591553e-01 1.934197545051574707e-01 3.948971629142761230e-02
-3.875994384288787842e-01 8.690286427736282349e-02 1.104563474655151367e-03
-3.518112897872924805e-01 6.068222969770431519e-02 8.972525596618652344e-02
-2.900935113430023193e-01 1.672168225049972534e-01 1.126270145177841187e-01
-3.200142979621887207e-01 1.950866281986236572e-01 2.836894430220127106e-02
-3.869794905185699463e-01 1.599792242050170898e-01 -1.317604035139083862e-01
-3.155850470066070557e-01 2.029160559177398682e-01 -1.696415245532989502e-03
-4.177432060241699219e-01 1.832523792982101440e-01 -1.331140398979187012e-01
-1.385510116815567017e-01 1.854055821895599365e-01 2.212501503527164459e-02
-3.117027282714843750e-01 6.485368311405181885e-02 6.244475394487380981e-02
-6.863918900489807129e-02 1.109276711940765381e-01 6.858158856630325317e-02
-4.432241320610046387e-01 1.894642412662506104e-01 -2.352901920676231384e-02
-3.613010346889495850e-01 8.515833318233489990e-02 6.129592657089233398e-05
-3.509792387485504150e-01 8.146905899047851562e-02 9.265031665563583374e-03
-1.866921186447143555e-01 2.033441364765167236e-01 -4.896808043122291565e-02
-3.033695816993713379e-01 1.300496160984039307e-01 -9.712892770767211914e-02
-4.566931724548339844e-01 8.114325255155563354e-02 8.466970920562744141e-02
-3.095881044864654541e-01 2.004392892122268677e-01 1.004908233880996704e-02
-1.606751829385757446e-01 1.861141920089721680e-01 3.842298313975334167e-02
-1.186670660972595215e-01 1.171656697988510132e-01 1.779304891824722290e-01
-2.326632589101791382e-01 8.072715997695922852e-02 2.040477283298969269e-02
-2.465822100639343262e-01 2.023196220397949219e-01 2.906344830989837646e-03
-3.449385762214660645e-01 1.380568146705627441e-01 -1.101714968681335449e-01
-4.012380838394165039e-01 6.560543924570083618e-02 9.698176383972167969e-02
-2.189874947071075439e-01 2.084813117980957031e-01 -7.877022027969360352e-02
-3.730881512165069580e-01 2.054775059223175049e-01 -3.954012319445610046e-02
-1.744173020124435425e-01 1.910233795642852783e-01 -9.662576019763946533e-02
-2.067172825336456299e-01 1.988197714090347290e-01 7.385846227407455444e-03
-4.558305144309997559e-01 1.855587959289550781e-01 -1.021825075149536133e-01
-4.800591468811035156e-01 1.186676546931266785e-01 1.053031235933303833e-01
-3.260369896888732910e-01 5.751668661832809448e-02 2.017442584037780762e-01
-1.641157865524291992e-01 1.912449449300765991e-01 1.793253421783447266e-02
-4.112873077392578125e-01 7.179172337055206299e-02 1.660151332616806030e-01
-4.824960231781005859e-01 1.205873638391494751e-01 -3.302114084362983704e-02
-1.813655197620391846e-01 1.663668155670166016e-01 1.085230708122253418e-01
-2.195574641227722168e-01 1.559126377105712891e-01 1.390118747949600220e-01
-1.520537734031677246e-01 1.192489936947822571e-01 -3.403550758957862854e-02
-3.816702961921691895e-01 2.086419910192489624e-01 -8.796679973602294922e-02
-1.952043175697326660e-01 1.329621076583862305e-01 -7.660241425037384033e-02
-2.125027626752853394e-01 5.460283160209655762e-02 2.011504024267196655e-01
-4.217583537101745605e-01 1.992306709289550781e-01 -5.258278921246528625e-02
-1.622973680496215820e-01 1.890015900135040283e-01 2.714233472943305969e-02
-4.539628028869628906e-01 8.005848526954650879e-02 1.131757795810699463e-01
-2.551493644714355469e-01 2.119699120521545410e-01 -6.214009597897529602e-02
-4.341165423393249512e-01 1.485743075609207153e-01 -1.069810688495635986e-01
-3.900217711925506592e-01 6.276571005582809448e-02 1.633189618587493896e-01
-1.389674991369247437e-01 6.687489897012710571e-02 1.383074969053268433e-01
-2.405437827110290527e-01 9.913559257984161377e-02 -2.847546711564064026e-02
-3.763980567455291748e-01 1.471434086561203003e-01 -1.197042167186737061e-01
-1.722984910011291504e-01 1.102000623941421509e-01 -2.754650637507438660e-02
-3.208019435405731201e-01 1.023695543408393860e-01 -4.595375433564186096e-02
-3.077098727226257324e-01 6.119150668382644653e-02 7.774393260478973389e-02
-4.297083616256713867e-01 8.824287354946136475e-02 1.646303683519363403e-01
-3.042375147342681885e-01 1.680609434843063354e-01 1.086729168891906738e-01
-2.799722254276275635e-01 1.269312798976898193e-01 1.889596730470657349e-01
-1.672073304653167725e-01 8.106183260679244995e-02 4.743267968297004700e-02
-3.691372871398925781e-01 1.810497343540191650e-01 -1.466391086578369141e-01
-4.732723832130432129e-01 9.391352534294128418e-02 3.843137249350547791e-02
-2.831313014030456543e-01 1.729919165372848511e-01 9.934171289205551147e-02
-2.173863351345062256e-01 1.249493286013603210e-01 1.933373957872390747e-01
-2.411277741193771362e-01 2.077676802873611450e-01 -2.921720221638679504e-02
-1.160836815834045410e-01 9.643945097923278809e-02 4.101993888616561890e-02
-2.406934648752212524e-01 1.144345849752426147e-01 2.076912671327590942e-01
-4.095652103424072266e-01 8.871515095233917236e-02 3.572598099708557129e-03
-1.400071233510971069e-01 1.599905639886856079e-01 -7.598634064197540283e-02
-2.132930308580398560e-01 1.182587668299674988e-01 -5.921918526291847229e-02
-1.650530099868774414e-01 8.968973159790039062e-02 2.370856516063213348e-02
-4.210552573204040527e-01 1.981065720319747925e-01 -4.287916049361228943e-02
-3.133730292320251465e-01 6.539426743984222412e-02 2.191597819328308105e-01
-1.526572704315185547e-01 1.859672963619232178e-01 3.321890905499458313e-02
-1.534399986267089844e-01 9.357798099517822266e-02 2.031222917139530182e-02
-4.165259897708892822e-01 6.723607331514358521e-02 1.141619086265563965e-01
-3.252727091312408447e-01 1.426242589950561523e-01 1.564103066921234131e-01
-5.050664544105529785e-01 1.208802163600921631e-01 -5.730055272579193115e-04
-3.082913458347320557e-01 2.126467227935791016e-01 -5.935752764344215393e-02
-4.603339135646820068e-01 1.300342231988906860e-01 -6.798286736011505127e-02
-1.923760771751403809e-01 2.010057121515274048e-01 -9.126055240631103516e-02
-3.847036361694335938e-01 1.966738849878311157e-01 -1.377889513969421387e-01
-3.880932331085205078e-01 2.069795727729797363e-01 -1.038403809070587158e-01
-2.004305124282836914e-01 1.129791140556335449e-01 -4.492809250950813293e-02
-4.180018901824951172e-01 1.947571039199829102e-01 -1.230239123106002808e-01
-4.344367980957031250e-01 1.095808893442153931e-01 1.540371775627136230e-01
-1.991364210844039917e-01 1.040877699851989746e-01 -2.642362937331199646e-02
-1.325257122516632080e-01 1.590344160795211792e-01 1.080294102430343628e-01
-5.009412765502929688e-01 1.142667755484580994e-01 1.087198406457901001e-02
-3.485042750835418701e-01 7.083000987768173218e-02 4.411805048584938049e-02
-2.122353911399841309e-01 1.118513494729995728e-01 2.096432745456695557e-01
-2.600261270999908447e-01 1.825882494449615479e-01 7.458232343196868896e-02
-4.509206414222717285e-01 1.881401091814041138e-01 -2.816965058445930481e-02
-3.815798163414001465e-01 8.153393119573593140e-02 1.574884913861751556e-02
-2.917722761631011963e-01 1.022394374012947083e-01 -4.408775642514228821e-02
-2.606687545776367188e-01 1.362881064414978027e-01 -1.005415171384811401e-01
-3.140898644924163818e-01 1.486850678920745850e-01 -1.236341595649719238e-01
-1.833192110061645508e-01 5.677428841590881348e-02 1.869626939296722412e-01
-3.819378018379211426e-01 1.926079243421554565e-01 1.462658680975437164e-02
-3.439810276031494141e-01 1.978303641080856323e-01 1.141127571463584900e-02
-2.794778645038604736e-01 5.012079328298568726e-02 1.862201094627380371e-01
-2.111756950616836548e-01 5.299321562051773071e-02 1.554225087165832520e-01
-4.606746435165405273e-01 1.789474785327911377e-01 -1.054808199405670166e-01
-1.404996216297149658e-01 1.124647259712219238e-01 1.933243274688720703e-01
-1.605985462665557861e-01 1.243807300925254822e-01 -4.748751595616340637e-02
-1.893242001533508301e-01 6.267408281564712524e-02 1.041653305292129517e-01
-1.722067892551422119e-01 1.999076902866363525e-01 -3.496835008263587952e-02
-1.813520640134811401e-01 9.877882897853851318e-02 2.177656888961791992e-01
-2.027525901794433594e-01 1.869421303272247314e-01 5.391500145196914673e-02
-2.120393663644790649e-01 2.039863169193267822e-01 -1.005023866891860962e-01
-1.592480093240737915e-01 7.838337123394012451e-02 6.127757951617240906e-02
-2.180144488811492920e-01 1.091664582490921021e-01 -4.349061474204063416e-02
-1.498625576496124268e-01 1.586699634790420532e-01 -8.203896880149841309e-02
-3.849402666091918945e-01 6.825201958417892456e-02 6.767713278532028198e-02
-4.047334194183349609e-01 1.975139975547790527e-01 -2.132998034358024597e-02
-4.079003334045410156e-01 2.024510502815246582e-01 -5.620061978697776794e-02
-1.842912584543228149e-01 1.765543222427368164e-01 -1.100227981805801392e-01
-1.101589798927307129e-01 1.288098990917205811e-01 1.569826602935791016e-01
-2.852020561695098877e-01 2.099522054195404053e-01 -3.529148176312446594e-02
-4.359977245330810547e-01 1.837237179279327393e-01 8.883241564035415649e-03
-3.796416521072387695e-01 2.083249986171722412e-01 -7.147267460823059082e-02
-2.953164875507354736e-01 2.055375576019287109e-01 -1.345977485179901123e-01
-1.809990406036376953e-01 1.842333972454071045e-01 5.593100935220718384e-02
-2.876742780208587646e-01 9.519909322261810303e-02 -2.763531729578971863e-02
-4.030547142028808594e-01 1.380696594715118408e-01 -1.027838289737701416e-01
-3.678788244724273682e-01 1.249205693602561951e-01 -8.788850903511047363e-02
-4.877383708953857422e-01 1.515313833951950073e-01 4.679163917899131775e-02
-2.022248953580856323e-01 5.874565243721008301e-02 1.163404881954193115e-01
-1.108937114477157593e-01 7.536628842353820801e-02 1.422424465417861938e-01
-4.355762004852294922e-01 1.172671988606452942e-01 -5.654273554682731628e-02
-4.028741419315338135e-01 1.857309043407440186e-01 2.673487365245819092e-02
-1.725012063980102539e-01 2.003874182701110840e-01 -5.303699150681495667e-02
-1.831793785095214844e-01 1.616820544004440308e-01 1.204300671815872192e-01
-2.690178751945495605e-01 6.511222571134567261e-02 6.376629322767257690e-02
-2.783239483833312988e-01 1.888934075832366943e-01 -1.448686122894287109e-01
-4.691154360771179199e-01 1.270948648452758789e-01 1.082616895437240601e-01
-3.449012637138366699e-01 2.082041203975677490e-01 -1.269706487655639648e-01
-2.659868597984313965e-01 9.930080175399780273e-02 -3.413710370659828186e-02
-2.072762548923492432e-01 1.581444442272186279e-01 1.328723728656768799e-01
-3.850211799144744873e-01 1.134356558322906494e-01 1.781541407108306885e-01
-1.019244045019149780e-01 9.274388849735260010e-02 6.735893338918685913e-02
-4.887443184852600098e-01 1.029283702373504639e-01 9.240654110908508301e-02
-4.813511967658996582e-01 1.017250716686248779e-01 1.893784478306770325e-02
-1.672338843345642090e-01 1.937233060598373413e-01 7.635157555341720581e-03
-3.998984098434448242e-01 1.395817995071411133e-01 1.360353827476501465e-01
-3.846122324466705322e-01 7.945205271244049072e-02 2.353991754353046417e-02
-4.525956809520721436e-01 1.691618710756301880e-01 4.022632166743278503e-02
-4.932711124420166016e-01 1.211712211370468140e-01 -2.212753519415855408e-02
-3.237308859825134277e-01 9.478339552879333496e-02 -2.840613946318626404e-02
-2.210066914558410645e-01 2.072554975748062134e-01 -9.409534931182861328e-02
-3.117256462574005127e-01 1.791115552186965942e-01 -1.479090154170989990e-01
-1.730806529521942139e-01 7.954858988523483276e-02 2.228522300720214844e-01
-1.286698132753372192e-01 1.197634860873222351e-01 -2.008109167218208313e-02
-5.060237646102905273e-01 1.353856027126312256e-01 -3.080797567963600159e-02
-3.446114957332611084e-01 2.121258080005645752e-01 -7.475881278514862061e-02
-1.883056312799453735e-01 1.359999179840087891e-01 1.728870719671249390e-01
-1.194274425506591797e-01 7.486645877361297607e-02 1.190673261880874634e-01
-2.521823942661285400e-01 1.977301985025405884e-01 -1.339144408702850342e-01
-2.981747984886169434e-01 7.149036973714828491e-02 2.265929281711578369e-01
-3.824977278709411621e-01 1.058018952608108521e-01 1.864883750677108765e-01
-2.469962239265441895e-01 1.821154952049255371e-01 -1.370340585708618164e-01
-2.265873253345489502e-01 1.116373538970947266e-01 -5.094971880316734314e-02
-4.771614670753479004e-01 1.385892033576965332e-01 8.388446271419525146e-02
-4.457777738571166992e-01 1.463995128870010376e-01 -9.939193725585937500e-02
-2.524913251399993896e-01 1.536032259464263916e-01 1.448310911655426025e-01
-3.443925082683563232e-01 6.367310136556625366e-02 7.233457267284393311e-02
-4.716849327087402344e-01 8.783885836601257324e-02 9.297563135623931885e-02
-9.503513574600219727e-02 1.488498896360397339e-01 -2.743526920676231384e-02
-3.368479907512664795e-01 2.100925743579864502e-01 -1.216359734535217285e-01
-1.376751810312271118e-01 1.717814952135086060e-01 -7.709011435508728027e-02
-3.044738769531250000e-01 1.988089978694915771e-01 -1.444151699542999268e-01
-3.467041254043579102e-01 1.511532962322235107e-01 1.352552324533462524e-01
-8.036218583583831787e-02 9.851285815238952637e-02 1.541401743888854980e-01
-1.598962694406509399e-01 9.455246478319168091e-02 1.398879289627075195e-02
-3.387163877487182617e-01 2.122003436088562012e-01 -1.070273369550704956e-01
-4.157387614250183105e-01 2.015817761421203613e-01 -6.315685808658599854e-02
-4.470533132553100586e-01 1.127271279692649841e-01 -4.129221662878990173e-02
-1.044006794691085815e-01 1.462934017181396484e-01 1.203217804431915283e-01
-1.755187511444091797e-01 9.983507543802261353e-02 -6.882194429636001587e-03
-4.524293839931488037e-01 1.029479280114173889e-01 -1.392670720815658569e-02
-3.548558950424194336e-01 1.346603929996490479e-01 1.615565568208694458e-01
-2.395549118518829346e-01 1.658338606357574463e-01 1.180339753627777100e-01
-4.981460273265838623e-01 1.076310425996780396e-01 3.181273117661476135e-02
-3.472729325294494629e-01 2.102103829383850098e-01 -5.518232658505439758e-02
-1.281194090843200684e-01 1.351396292448043823e-01 1.561745554208755493e-01
-2.779768407344818115e-01 1.433973163366317749e-01 1.627069562673568726e-01
-2.568438649177551270e-01 5.525442957878112793e-02 1.114860028028488159e-01
-3.682428598403930664e-01 8.005987107753753662e-02 1.686763949692249298e-02
-3.803404569625854492e-01 1.895977258682250977e-01 2.612556703388690948e-02
-4.916217327117919922e-01 1.008675843477249146e-01 4.934225231409072876e-02
-1.391564309597015381e-01 9.798802435398101807e-02 1.851961761713027954e-02
-4.867235422134399414e-01 1.753165423870086670e-01 -3.847860172390937805e-02
-3.448911607265472412e-01 5.686061084270477295e-02 1.875398159027099609e-01
-1.914700865745544434e-01 1.022333428263664246e-01 -1.936450600624084473e-02
-3.621197640895843506e-01 1.528333127498626709e-01 1.271656453609466553e-01
-3.203522562980651855e-01 1.152482330799102783e-01 -7.235230505466461182e-02
-1.403593569993972778e-01 1.359813809394836426e-01 1.599579304456710815e-01
-1.891505718231201172e-01 1.284040361642837524e-01 -6.728695333003997803e-02
-4.881253838539123535e-01 1.121557652950286865e-01 -5.537264049053192139e-03
-4.174450933933258057e-01 9.938382357358932495e-02 -2.293201908469200134e-02
-1.012128144502639771e-01 1.588584035634994507e-01 8.538857102394104004e-02
-3.718720674514770508e-01 1.972351968288421631e-01 1.925189048051834106e-03
-2.324225306510925293e-01 1.777976155281066895e-01 -1.314706206321716309e-01
-2.790790796279907227e-01 9.538152068853378296e-02 2.233774513006210327e-01
-3.103874623775482178e-01 1.647270321846008301e-01 1.153368353843688965e-01
-4.259769320487976074e-01 1.604801118373870850e-01 8.156443387269973755e-02
-2.074934691190719604e-01 1.085850447416305542e-01 -3.882778808474540710e-02
-4.230421185493469238e-01 6.883826851844787598e-02 1.233895421028137207e-01
-2.945339977741241455e-01 5.776851624250411987e-02 2.140097171068191528e-01
-4.255509078502655029e-01 1.445958912372589111e-01 1.138149946928024292e-01
-5.001881718635559082e-01 1.531191468238830566e-01 2.273895964026451111e-02
-5.066110491752624512e-01 1.572953462600708008e-01 -1.102871447801589966e-02
-2.982980310916900635e-01 5.841082334518432617e-02 9.047253429889678955e-02
-1.415366083383560181e-01 7.499153912067413330e-02 8.846324682235717773e-02
-2.656733095645904541e-01 1.981757581233978271e-01 2.244790270924568176e-02
-4.967343509197235107e-01 1.052782610058784485e-01 7.027234882116317749e-02
-2.941309213638305664e-01 1.934926360845565796e-01 3.827484697103500366e-02
-1.750293076038360596e-01 5.763939023017883301e-02 1.781582236289978027e-01
-4.515927433967590332e-01 1.651677638292312622e-01 5.180067941546440125e-02
-3.732593655586242676e-01 8.792854845523834229e-02 -5.488187074661254883e-03
-9.792011976242065430e-02 1.030797213315963745e-01 1.762674450874328613e-01
-3.689182400703430176e-01 8.422952890396118164e-02 4.239935427904129028e-03
-1.129136681556701660e-01 1.438046544790267944e-01 -4.163279756903648376e-02
-1.592954248189926147e-01 1.120336353778839111e-01 -2.455675974488258362e-02
-2.975065112113952637e-01 4.983392357826232910e-02 1.665415912866592407e-01
-1.874490082263946533e-01 1.954516172409057617e-01 1.372314244508743286e-02
-4.548851847648620605e-01 9.256254136562347412e-02 2.023469842970371246e-02
-5.003251433372497559e-01 1.646619737148284912e-01 -4.890636727213859558e-02
-1.680228561162948608e-01 1.440997123718261719e-01 1.540788859128952026e-01
-4.886802136898040771e-01 1.430641710758209229e-01 6.282541900873184204e-02
-2.146346569061279297e-01 5.211342871189117432e-02 1.777199059724807739e-01
-3.830159604549407959e-01 8.992021530866622925e-02 -8.759144693613052368e-03
-8.527915179729461670e-02 9.216918796300888062e-02 9.858749806880950928e-02
-2.624438703060150146e-01 1.994933038949966431e-01 -1.355083286762237549e-01
-5.931282043457031250e-02 1.292796730995178223e-01 5.963545292615890503e-02
-9.782211482524871826e-02 1.295010298490524292e-01 -9.861253201961517334e-03
-2.724909484386444092e-01 1.386376768350601196e-01 1.714447587728500366e-01
-3.603024482727050781e-01 5.730073153972625732e-02 1.183333396911621094e-01
-1.182603240013122559e-01 9.258227050304412842e-02 4.985334351658821106e-02
-2.564007043838500977e-01 1.649935543537139893e-01 -1.313673704862594604e-01
-3.698416054248809814e-01 9.639643132686614990e-02 -2.844109013676643372e-02
-2.092655599117279053e-01 5.428711324930191040e-02 1.426674276590347290e-01
-7.459340989589691162e-02 1.387640088796615601e-01 1.057338863611221313e-01
-1.112406998872756958e-01 1.185651272535324097e-01 -4.318378865718841553e-03
-1.481094956398010254e-01 1.939064264297485352e-01 -2.909205481410026550e-02
-2.015694230794906616e-01 1.197991222143173218e-01 -5.786762014031410217e-02
-6.756615638732910156e-02 1.497967243194580078e-01 3.278052434325218201e-02
-7.789100706577301025e-02 9.347349405288696289e-02 1.271109431982040405e-01
-1.942814886569976807e-01 1.800863444805145264e-01 -1.156199276447296143e-01
-1.808701753616333008e-01 1.257114857435226440e-01 -5.946988239884376526e-02
-1.771000027656555176e-01 6.906310468912124634e-02 8.375816792249679565e-02
-3.541308641433715820e-01 1.952524483203887939e-01 -1.461599022150039673e-01
-4.006091356277465820e-01 2.046560943126678467e-01 -6.540457904338836670e-02
-4.374434351921081543e-01 1.365362703800201416e-01 -8.968511223793029785e-02
-1.547192186117172241e-01 1.638320386409759521e-01 -8.821783959865570068e-02
-1.263727843761444092e-01 1.835595369338989258e-01 -5.019455030560493469e-02
-4.606809318065643311e-01 1.374366879463195801e-01 1.011736690998077393e-01
-1.251180320978164673e-01 7.112447917461395264e-02 1.344778835773468018e-01
-1.932231336832046509e-01 1.973977833986282349e-01 7.467318326234817505e-03
-1.946862936019897461e-01 9.273877739906311035e-02 1.514628529548645020e-03
-2.364104241132736206e-01 1.573503464460372925e-01 -1.197273135185241699e-01
-1.265388876199722290e-01 1.868237406015396118e-01 -1.992962509393692017e-02
-3.210739791393280029e-01 1.919119656085968018e-01 3.911628574132919312e-02
-2.888797521591186523e-01 1.413029879331588745e-01 1.651525944471359253e-01
-2.856007218360900879e-01 1.065590456128120422e-01 -5.263508483767509460e-02
-2.730872035026550293e-01 9.194511175155639648e-02 -1.794415712356567383e-02
-2.340819090604782104e-01 1.875620633363723755e-01 -1.326815038919448853e-01
-1.273460537195205688e-01 1.411094367504119873e-01 1.449232846498489380e-01
-2.578732073307037354e-01 1.503494232892990112e-01 1.511330902576446533e-01
-3.374449610710144043e-01 2.102886736392974854e-01 -4.992139711976051331e-02
-5.100347399711608887e-01 1.457015722990036011e-01 -3.329312428832054138e-02
-1.259945183992385864e-01 7.552473992109298706e-02 1.043360829353332520e-01
-3.774382472038269043e-01 1.384323239326477051e-01 -1.080027818679809570e-01
-1.163016706705093384e-01 1.454324871301651001e-01 1.302411556243896484e-01
-4.093793332576751709e-01 1.822362989187240601e-01 -1.367081254720687866e-01
-3.514719009399414062e-01 5.436660349369049072e-02 1.557224392890930176e-01
-3.916631340980529785e-01 6.554882973432540894e-02 1.724337935447692871e-01
-3.108880221843719482e-01 1.596504449844360352e-01 1.264126300811767578e-01
-1.912560462951660156e-01 8.135411143302917480e-02 3.385020047426223755e-02
-4.529021978378295898e-01 9.358422458171844482e-02 1.431021988391876221e-01
-5.096420049667358398e-01 1.436518579721450806e-01 2.327713742852210999e-02
-3.375677168369293213e-01 7.417710125446319580e-02 2.158970534801483154e-01
-2.768580317497253418e-01 5.043060332536697388e-02 1.447511762380599976e-01
-2.443425059318542480e-01 5.811125785112380981e-02 2.196585536003112793e-01
-3.542070984840393066e-01 2.011169493198394775e-01 -6.214432418346405029e-03
-1.108446121215820312e-01 1.747407466173171997e-01 3.797619789838790894e-02
-3.628208935260772705e-01 2.104707807302474976e-01 -1.035213768482208252e-01
-9.296277165412902832e-02 1.200117319822311401e-01 1.080249249935150146e-02
-3.304882049560546875e-01 5.817539989948272705e-02 9.617557376623153687e-02
-9.113669395446777344e-02 1.580058187246322632e-01 7.623310387134552002e-02
-1.391645222902297974e-01 6.694596260786056519e-02 1.816348284482955933e-01
-2.065736651420593262e-01 1.004529967904090881e-01 -2.121726796030998230e-02
-2.037071287631988525e-01 1.769042164087295532e-01 8.543999493122100830e-02
-2.931005060672760010e-01 1.811286360025405884e-01 7.668186724185943604e-02
-4.383648633956909180e-01 1.219791397452354431e-01 -6.461483240127563477e-02
-2.649571597576141357e-01 2.115607857704162598e-01 -5.121092125773429871e-02
-1.857451945543289185e-01 1.548712998628616333e-01 1.363668441772460938e-01
-3.039888143539428711e-01 1.669150739908218384e-01 -1.405482441186904907e-01
-1.254266202449798584e-01 1.036811918020248413e-01 1.497428119182586670e-02
-9.242303669452667236e-02 1.446439027786254883e-01 1.138130426406860352e-01
-1.647334247827529907e-01 1.720103919506072998e-01 8.797891438007354736e-02
-3.023990690708160400e-01 1.254710108041763306e-01 -8.962550759315490723e-02
-3.635358214378356934e-01 5.720116198062896729e-02 1.688326001167297363e-01
-2.353425025939941406e-01 1.568883210420608521e-01 1.378916054964065552e-01
-3.069700002670288086e-01 1.014700233936309814e-01 2.141417860984802246e-01
-1.543324589729309082e-01 1.626132726669311523e-01 1.091520637273788452e-01
-3.192286789417266846e-01 2.138124853372573853e-01 -9.243160486221313477e-02
-1.782369017601013184e-01 2.015552520751953125e-01 -4.399685934185981750e-02
-4.635255932807922363e-01 1.817377656698226929e-01 -1.616472005844116211e-02
-3.484241962432861328e-01 1.277436017990112305e-01 1.738422214984893799e-01
-9.417368471622467041e-02 1.345803141593933105e-01 1.357995569705963135e-01
-2.154193520545959473e-01 2.023255527019500732e-01 -6.906360387802124023e-03
-1.218578219413757324e-01 1.803721338510513306e-01 2.614338323473930359e-02
-4.065809845924377441e-01 1.286996603012084961e-01 1.493799984455108643e-01
-4.810347259044647217e-01 1.544950455427169800e-01 -8.428044617176055908e-02
-2.351882755756378174e-01 7.275407016277313232e-02 4.423153400421142578e-02
-3.543898463249206543e-01 9.734935313463211060e-02 -3.287616744637489319e-02
-2.589083015918731689e-01 7.329810410737991333e-02 3.674407675862312317e-02
-9.452328085899353027e-02 1.720066517591476440e-01 4.573535174131393433e-03
-1.868810653686523438e-01 7.479439675807952881e-02 5.675402283668518066e-02
-5.038657784461975098e-01 1.112416833639144897e-01 4.032495990395545959e-02
-4.012260437011718750e-01 1.236464232206344604e-01 1.587883234024047852e-01
-2.759811282157897949e-01 6.094554811716079712e-02 2.227212041616439819e-01
-1.913496404886245728e-01 1.498384177684783936e-01 1.479077339172363281e-01
-3.416213095188140869e-01 8.031596988439559937e-02 1.155661791563034058e-02
-2.672576904296875000e-01 2.045184373855590820e-01 -5.166385322809219360e-03
-7.482460141181945801e-02 1.468430012464523315e-01 8.542314171791076660e-02
-3.905229568481445312e-01 1.805838197469711304e-01 4.953972250223159790e-02
-4.424143433570861816e-01 1.918085217475891113e-01 -3.548561409115791321e-02
-1.178598403930664062e-01 1.264688074588775635e-01 1.649967581033706665e-01
-9.621809422969818115e-02 1.660568118095397949e-01 5.391021445393562317e-02
-1.653707325458526611e-01 1.110523268580436707e-01 2.028184086084365845e-01
-3.806558251380920410e-01 1.821084767580032349e-01 -1.448097825050354004e-01
-2.858428061008453369e-01 8.467689156532287598e-02 2.281583547592163086e-01
-3.353954851627349854e-01 1.693615466356277466e-01 -1.436833888292312622e-01
-9.529621899127960205e-02 1.633692234754562378e-01 6.321923434734344482e-02
-3.754252791404724121e-01 1.122462302446365356e-01 1.834465414285659790e-01
-4.881817102432250977e-01 1.619261801242828369e-01 1.910466514527797699e-02
-1.156627237796783447e-01 1.018771082162857056e-01 2.736348100006580353e-02
-4.082522988319396973e-01 1.367619037628173828e-01 1.365154385566711426e-01
-3.508430719375610352e-01 1.400086134672164917e-01 1.541290730237960815e-01
-4.747083783149719238e-01 1.810750663280487061e-01 -3.729681298136711121e-02
-3.751549124717712402e-01 9.370207786560058594e-02 -2.065078914165496826e-02
-4.096488058567047119e-01 2.001036703586578369e-01 -4.092412069439888000e-02
-4.824603199958801270e-01 1.645436882972717285e-01 -8.685010671615600586e-02
-3.170186281204223633e-01 9.202838689088821411e-02 -2.161490544676780701e-02
-1.764110922813415527e-01 8.676952123641967773e-02 2.556285820901393890e-02
-4.282075464725494385e-01 7.724290341138839722e-02 5.790288746356964111e-02
-4.802032709121704102e-01 1.709257066249847412e-01 1.811448484659194946e-03
-4.196098744869232178e-01 1.796652078628540039e-01 3.530854731798171997e-02
-7.932773232460021973e-02 1.105264127254486084e-01 4.842162132263183594e-02
-3.749328553676605225e-01 1.194919869303703308e-01 -7.728503644466400146e-02
-1.144819408655166626e-01 1.818554401397705078e-01 -1.983547210693359375e-02
-8.882430195808410645e-02 1.524650007486343384e-01 9.015850722789764404e-02
-1.912964284420013428e-01 9.775077551603317261e-02 2.203647345304489136e-01
-3.310970067977905273e-01 1.141411662101745605e-01 -7.032471895217895508e-02
-1.427189409732818604e-01 1.713497489690780640e-01 7.942603528499603271e-02
-4.368830919265747070e-01 1.331599205732345581e-01 1.254377812147140503e-01
-3.283976316452026367e-01 2.041945755481719971e-01 -1.386933028697967529e-01
-2.661240100860595703e-01 1.455972343683242798e-01 1.596891433000564575e-01
-1.132039278745651245e-01 9.195087850093841553e-02 1.919098198413848877e-01
-3.642768263816833496e-01 1.297156661748886108e-01 -9.626549482345581055e-02
-1.642368435859680176e-01 1.977713555097579956e-01 -6.051693484187126160e-02
-2.022226750850677490e-01 5.348187685012817383e-02 1.660767644643783569e-01
-3.476785719394683838e-01 6.022343784570693970e-02 1.961613893508911133e-01
-2.208030521869659424e-01 6.901524960994720459e-02 2.299444228410720825e-01
-3.411784172058105469e-01 8.886504173278808594e-02 -1.266818866133689880e-02
-3.901640772819519043e-01 6.582795083522796631e-02 8.390872180461883545e-02
-2.856235802173614502e-01 6.603567302227020264e-02 5.830657109618186951e-02
-4.068700969219207764e-01 7.406376302242279053e-02 5.479210615158081055e-02
-3.752561509609222412e-01 5.795303732156753540e-02 1.398230940103530884e-01
-2.539175748825073242e-01 9.635934233665466309e-02 -2.513616904616355896e-02
-3.451705873012542725e-01 2.073444128036499023e-01 -3.380759432911872864e-02
-2.668598890304565430e-01 7.875125110149383545e-02 1.850496791303157806e-02
-3.675350248813629150e-01 5.682218819856643677e-02 1.550154387950897217e-01
-1.582939922809600830e-01 1.517766565084457397e-01 -8.172360062599182129e-02
-3.028581738471984863e-01 5.520643293857574463e-02 1.082136631011962891e-01
-2.786366641521453857e-01 1.830054819583892822e-01 7.270063459873199463e-02
-1.488690972328186035e-01 1.499460786581039429e-01 -7.432962954044342041e-02
-3.328666687011718750e-01 5.230510979890823364e-02 1.517022997140884399e-01
-1.810512840747833252e-01 1.469625979661941528e-01 -8.860030770301818848e-02
-9.444844722747802734e-02 8.963658660650253296e-02 9.016117453575134277e-02
-1.744038760662078857e-01 1.910648941993713379e-01 2.613093331456184387e-02
-1.815640628337860107e-01 1.024843901395797729e-01 -1.565006747841835022e-02
-3.449543714523315430e-01 1.789007633924484253e-01 7.208649069070816040e-02
-2.269919812679290771e-01 8.906280249357223511e-02 -6.057545542716979980e-04
-5.109643936157226562e-01 1.397737115621566772e-01 -2.529748156666755676e-02
-4.419183135032653809e-01 1.002986729145050049e-01 1.535460352897644043e-01
-1.160388141870498657e-01 1.739860475063323975e-01 4.848079383373260498e-02
-3.382512927055358887e-01 1.112228110432624817e-01 -6.443467736244201660e-02
-4.555980563163757324e-01 1.052436679601669312e-01 1.394165903329849243e-01
-2.575523257255554199e-01 1.397985219955444336e-01 1.704350709915161133e-01
-9.165546298027038574e-02 1.390862613916397095e-01 1.249786615371704102e-01
-3.632315695285797119e-01 1.949516534805297852e-01 -1.449365019798278809e-01
-2.525393962860107422e-01 1.283283233642578125e-01 1.889358460903167725e-01
-4.217610359191894531e-01 1.128196045756340027e-01 -5.274992808699607849e-02
-1.813750267028808594e-01 5.692099779844284058e-02 1.540103405714035034e-01
-1.375773698091506958e-01 1.803139746189117432e-01 4.448020085692405701e-02
-1.287882030010223389e-01 1.300972998142242432e-01 1.648523658514022827e-01
-4.417698681354522705e-01 1.537555307149887085e-01 8.569010347127914429e-02
-2.584063112735748291e-01 6.690029054880142212e-02 5.890422314405441284e-02
-2.585419118404388428e-01 2.118341326713562012e-01 -9.784550964832305908e-02
-1.588904708623886108e-01 1.442913562059402466e-01 1.511320024728775024e-01
-2.884570360183715820e-01 2.019510865211486816e-01 -1.389919519424438477e-01
-2.044100165367126465e-01 1.808046102523803711e-01 7.411523163318634033e-02
-5.975063145160675049e-02 1.166917756199836731e-01 9.716609120368957520e-02
-2.562437057495117188e-01 9.037498384714126587e-02 -1.113943755626678467e-02
-9.719875454902648926e-02 1.686807274818420410e-01 4.371076822280883789e-02
-9.616595506668090820e-02 1.671757996082305908e-01 -2.636996284127235413e-02
-2.729465365409851074e-01 1.082049310207366943e-01 -5.430911108851432800e-02
-4.159582257270812988e-01 1.232874616980552673e-01 -7.528403401374816895e-02
-2.379035502672195435e-01 6.288386881351470947e-02 2.264350205659866333e-01
-3.237076699733734131e-01 2.087659835815429688e-01 -3.390231356024742126e-02
-2.903658151626586914e-01 5.292811244726181030e-02 2.011255025863647461e-01
-2.062922418117523193e-01 1.712578088045120239e-01 1.013205498456954956e-01
-2.180804014205932617e-01 2.084524631500244141e-01 -5.818167701363563538e-02
-3.790140748023986816e-01 1.230743005871772766e-01 1.694261580705642700e-01
-4.036632478237152100e-01 1.995043754577636719e-01 -1.233655959367752075e-01
-3.223230242729187012e-01 1.970643997192382812e-01 -1.467537730932235718e-01
-3.282399177551269531e-01 6.395421922206878662e-02 2.124235630035400391e-01
-3.372379839420318604e-01 5.523233115673065186e-02 1.182392090559005737e-01
-3.472457826137542725e-01 2.051520943641662598e-01 -2.252503111958503723e-02
-4.633660018444061279e-01 9.673690050840377808e-02 1.403920538723468781e-02
-3.053485751152038574e-01 1.911183744668960571e-01 4.474020749330520630e-02
-3.004910647869110107e-01 2.025817632675170898e-01 2.422381192445755005e-03
-3.478814363479614258e-01 1.302849054336547852e-01 -9.833362698554992676e-02
-1.380544006824493408e-01 8.331025391817092896e-02 6.096950173377990723e-02
-3.387683033943176270e-01 5.437400937080383301e-02 1.799359768629074097e-01
-8.319842815399169922e-02 9.836283326148986816e-02 7.743493467569351196e-02
-2.598741054534912109e-01 5.245989561080932617e-02 1.290969848632812500e-01
-3.158622682094573975e-01 6.286692619323730469e-02 7.096447050571441650e-02
-2.961328625679016113e-01 7.749339938163757324e-02 1.900637336075305939e-02
-4.679096937179565430e-01 1.560534089803695679e-01 5.907418578863143921e-02
-2.117586731910705566e-01 7.138957083225250244e-02 2.298879623413085938e-01
-2.347612380981445312e-01 1.916527450084686279e-01 4.414616525173187256e-02
-4.601721763610839844e-01 1.618391126394271851e-01 5.262732133269309998e-02
-4.837176501750946045e-01 1.297278553247451782e-01 -5.008654668927192688e-02
-5.842532217502593994e-02 1.313356757164001465e-01 7.420013844966888428e-02
-4.264211654663085938e-01 1.056102737784385681e-01 -3.469644114375114441e-02
-3.977440893650054932e-01 7.451197504997253418e-02 4.732747748494148254e-02
-3.598948717117309570e-01 7.507210224866867065e-02 3.143137693405151367e-02
-2.986916303634643555e-01 1.410971283912658691e-01 -1.128292530775070190e-01
-1.531483381986618042e-01 1.872403323650360107e-01 -8.124242722988128662e-02
-3.117967545986175537e-01 1.184505894780158997e-01 1.953609436750411987e-01
-2.876957654953002930e-01 1.736684143543243408e-01 -1.429025083780288696e-01
-1.546992063522338867e-01 1.705859601497650146e-01 8.782462775707244873e-02
-1.792538166046142578e-01 6.122538447380065918e-02 1.203074008226394653e-01
-4.210397005081176758e-01 9.359092265367507935e-02 1.716162413358688354e-01
-4.322995245456695557e-01 9.762717783451080322e-02 1.621874868869781494e-01
-4.070989489555358887e-01 6.769023090600967407e-02 8.931620419025421143e-02
-2.874472141265869141e-01 4.958537966012954712e-02 1.731277108192443848e-01
-4.609151482582092285e-01 1.886455863714218140e-01 -6.009202823042869568e-02
-1.186229437589645386e-01 7.221749424934387207e-02 1.498894244432449341e-01
-2.229741662740707397e-01 6.606884300708770752e-02 7.214052230119705200e-02
-4.980080127716064453e-01 1.343262940645217896e-01 6.378497183322906494e-02
-2.084131985902786255e-01 6.028462201356887817e-02 2.175218909978866577e-01
-4.427311122417449951e-01 1.008944362401962280e-01 -1.455106958746910095e-02
-2.331130355596542358e-01 1.217121854424476624e-01 -7.121060788631439209e-02
-3.526853621006011963e-01 1.220324337482452393e-01 -8.417813479900360107e-02
-1.748998165130615234e-01 1.225451976060867310e-01 -5.152242258191108704e-02
-4.262197613716125488e-01 1.218213886022567749e-01 1.473095566034317017e-01
-8.528597652912139893e-02 1.220762729644775391e-01 1.617366634309291840e-02
-2.992972731590270996e-01 5.114658176898956299e-02 1.392432302236557007e-01
-1.852789521217346191e-01 1.925828754901885986e-01 2.566163241863250732e-02
-2.857347428798675537e-01 6.634239852428436279e-02 2.264682054519653320e-01
-3.060249686241149902e-01 2.067392170429229736e-01 -1.334195137023925781e-01
-4.466632604598999023e-01 9.105258435010910034e-02 1.822049543261528015e-02
-3.244226276874542236e-01 9.189046174287796021e-02 2.168171256780624390e-01
-4.348561763763427734e-01 1.553186178207397461e-01 -1.138080358505249023e-01
-6.786601245403289795e-02 1.328689306974411011e-01 1.066514253616333008e-01
-1.342585384845733643e-01 1.880094558000564575e-01 -1.782473176717758179e-03
-1.461228877305984497e-01 1.330579370260238647e-01 1.670436859130859375e-01
-3.296439647674560547e-01 1.736942231655120850e-01 8.985818177461624146e-02
-3.196780979633331299e-01 1.880606412887573242e-01 -1.497616171836853027e-01
-2.572425901889801025e-01 7.847798615694046021e-02 2.104653604328632355e-02
-3.860138654708862305e-01 6.001301109790802002e-02 1.453425288200378418e-01
-4.571676254272460938e-01 8.082970231771469116e-02 9.990769624710083008e-02
-4.322126507759094238e-01 1.818834841251373291e-01 1.868138834834098816e-02
-4.691211879253387451e-01 1.678554564714431763e-01 2.717812545597553253e-02
-8.092851936817169189e-02 1.304663866758346558e-01 8.763283491134643555e-03
