-2.658275961875915527e-01 4.398033022880554199e-03 2.938393652439117432e-01
-4.725276231765747070e-01 -5.489729344844818115e-02 -5.673434585332870483e-02
-2.044733911752700806e-01 -1.591271460056304932e-01 4.098885655403137207e-01
-2.359711229801177979e-01 3.651798516511917114e-02 -4.411953389644622803e-01
-1.818352937698364258e-02 -3.200518339872360229e-02 -1.860212087631225586e-01
-5.537831783294677734e-02 -2.256839275360107422e-01 -3.861269950866699219e-01
-4.291570782661437988e-01 8.347369730472564697e-03 -3.023486435413360596e-01
-3.391737937927246094e-01 -1.382225900888442993e-01 -3.533923327922821045e-01
-3.597922027111053467e-01 -2.319807708263397217e-01 5.186190456151962280e-02
-2.577042281627655029e-01 -2.603284120559692383e-01 3.104712069034576416e-01
-4.569770097732543945e-01 3.287292271852493286e-02 -2.153425216674804688e-01
-2.805486917495727539e-01 6.430532783269882202e-02 1.807064563035964966e-01
-2.208977937698364258e-03 -5.358187109231948853e-02 -2.493106015026569366e-02
-4.191968441009521484e-01 8.599916845560073853e-02 -2.478002607822418213e-01
-1.828534901142120361e-01 1.967633515596389771e-02 -4.383513927459716797e-01
-4.480941593647003174e-01 -1.144263371825218201e-01 -4.846171289682388306e-02
-4.090273380279541016e-01 -5.015145987272262573e-02 -3.238040506839752197e-01
-3.399306833744049072e-01 1.154689565300941467e-01 -2.649943232536315918e-01
-3.308929204940795898e-01 -2.574653625488281250e-01 3.494422137737274170e-02
2.251288294792175293e-02 -3.407161831855773926e-01 8.144579082727432251e-02
-3.739378154277801514e-01 -2.119936794042587280e-01 1.294614970684051514e-01
-3.843347430229187012e-01 -1.156688332557678223e-01 2.921154499053955078e-01
1.429769396781921387e-02 -9.602314233779907227e-02 7.250704616308212280e-02
-2.808015048503875732e-02 -4.140222817659378052e-02 5.781319737434387207e-02
5.704583227634429932e-02 -1.423234641551971436e-01 -3.802331537008285522e-02
-2.123745828866958618e-01 -2.499767541885375977e-01 -3.202097117900848389e-01
-3.594771623611450195e-01 -1.561818122863769531e-01 -2.874068617820739746e-01
-2.959617674350738525e-01 1.255251169204711914e-01 -1.108306273818016052e-01
3.392669558525085449e-02 -1.023438945412635803e-01 -1.738071590662002563e-01
-1.611988842487335205e-01 -1.308862715959548950e-01 3.911743164062500000e-01
-1.965054869651794434e-02 -1.618361473083496094e-01 2.712456583976745605e-01
-2.951319217681884766e-01 -1.829895973205566406e-01 3.660577237606048584e-01
-3.339965343475341797e-01 1.275422871112823486e-01 -1.735388934612274170e-01
-1.249854266643524170e-02 -6.071076542139053345e-02 -2.853904664516448975e-01
-1.197131499648094177e-01 -2.808096408843994141e-01 3.516573309898376465e-01
-8.109632134437561035e-02 -5.089510232210159302e-02 2.201960980892181396e-01
1.028108596801757812e-02 -3.232651650905609131e-01 -1.592483222484588623e-01
-2.490429282188415527e-01 1.667419821023941040e-02 2.685679495334625244e-01
-1.952610611915588379e-01 -3.152801096439361572e-01 -1.491611301898956299e-01
-2.593424916267395020e-01 -2.905145287513732910e-01 2.214187681674957275e-01
-2.465702593326568604e-02 -3.005766272544860840e-01 2.731403410434722900e-01
-2.222357541322708130e-01 -2.822481095790863037e-02 3.255665600299835205e-01
-5.242258310317993164e-03 -1.212464347481727600e-01 -3.548960685729980469e-01
-2.604882121086120605e-01 1.104204878211021423e-01 -2.619909346103668213e-01
-1.113817095756530762e-02 -3.587232530117034912e-01 5.181252956390380859e-02
-2.230697870254516602e-02 -2.054340243339538574e-01 3.017206788063049316e-01
4.379257559776306152e-02 -1.954567432403564453e-01 1.549438983201980591e-01
-3.639914095401763916e-01 -1.965442597866058350e-01 -1.740658432245254517e-01
-3.000265657901763916e-01 -1.662462949752807617e-01 -3.689803779125213623e-01
3.154632449150085449e-02 -1.023336350917816162e-01 -2.128038555383682251e-03
4.955263435840606689e-02 -1.279413849115371704e-01 -1.471645236015319824e-01
-2.508643269538879395e-01 1.135011538863182068e-01 -6.873379647731781006e-02
-4.022226035594940186e-01 -9.934165328741073608e-02 2.671216130256652832e-01
-2.545139193534851074e-02 -9.558498859405517578e-02 1.944658756256103516e-01
-4.653077721595764160e-01 6.258370727300643921e-02 -9.793154895305633545e-02
-5.315040051937103271e-02 -3.419952094554901123e-01 -1.501109451055526733e-01
-2.955377995967864990e-01 -2.353073954582214355e-01 3.024605810642242432e-01
-4.625046253204345703e-02 -2.784820199012756348e-01 -3.111856877803802490e-01
-1.404422670602798462e-01 -2.860419154167175293e-01 -2.947419583797454834e-01
-1.476851254701614380e-01 -3.551782071590423584e-01 5.945700407028198242e-02
-1.488503813743591309e-01 -3.156913816928863525e-01 -2.076121270656585693e-01
-4.307065010070800781e-01 -1.274535208940505981e-01 -1.270736008882522583e-01
7.725392282009124756e-02 -2.601499259471893311e-01 8.117716759443283081e-03
-9.806243330240249634e-02 -1.451455652713775635e-01 -4.593183994293212891e-01
-4.128195345401763916e-01 -3.391869366168975830e-02 2.487525045871734619e-01
-4.588057398796081543e-01 -6.152838468551635742e-02 1.225097924470901489e-01
-2.419525831937789917e-01 1.092980429530143738e-01 -2.347996532917022705e-01
-1.950022578239440918e-02 -3.578924387693405151e-02 -2.244294434785842896e-01
-2.727833390235900879e-01 -2.713107764720916748e-01 2.585785090923309326e-01
-1.277759820222854614e-01 -1.049074605107307434e-01 -4.796061515808105469e-01
-3.908216953277587891e-02 -1.077769920229911804e-01 2.425962984561920166e-01
7.892251014709472656e-04 -7.077455520629882812e-02 -2.597202658653259277e-01
1.200966536998748779e-02 -1.846584975719451904e-01 -3.388452231884002686e-01
-2.396672666072845459e-01 -1.825195550918579102e-01 4.013859629631042480e-01
-2.391257733106613159e-01 -2.395397126674652100e-01 3.613047897815704346e-01
-8.643288910388946533e-02 2.866441756486892700e-02 -5.387808382511138916e-02
-8.700951933860778809e-03 -3.384625017642974854e-01 -1.317091584205627441e-01
-4.616298079490661621e-01 -1.668540388345718384e-02 1.234014481306076050e-01
-1.172804683446884155e-01 5.043715983629226685e-02 -5.518033355474472046e-02
-4.027029275894165039e-01 -1.857654154300689697e-01 3.047923743724822998e-02
-1.447717845439910889e-01 -3.338783085346221924e-01 2.404145300388336182e-01
-3.385667204856872559e-01 -2.475836277008056641e-01 -2.588355727493762970e-02
-2.940362095832824707e-01 -2.846559882164001465e-01 1.884743571281433105e-02
2.856293320655822754e-02 -3.032690584659576416e-01 1.796788573265075684e-01
-3.126515448093414307e-01 -2.468512356281280518e-01 2.387034296989440918e-01
-1.616935580968856812e-01 -1.117280945181846619e-01 -4.869932532310485840e-01
-7.711075246334075928e-02 -1.790454983711242676e-02 1.323021352291107178e-01
-1.813468039035797119e-01 -3.012151420116424561e-01 3.043043315410614014e-01
-2.826599180698394775e-01 -2.927524745464324951e-01 8.565014600753784180e-02
-4.129721522331237793e-01 -1.224834024906158447e-01 -2.152115553617477417e-01
-1.230640560388565063e-01 -3.506062626838684082e-01 -7.777978479862213135e-02
-9.376645088195800781e-03 -8.478488028049468994e-02 1.283369362354278564e-01
-4.682806134223937988e-01 3.396802395582199097e-02 -1.613715887069702148e-01
-3.200433850288391113e-01 -1.720273196697235107e-01 3.478332161903381348e-01
-1.630178987979888916e-01 -1.638253629207611084e-01 4.038266837596893311e-01
-1.547350436449050903e-01 -2.909175157546997070e-01 3.365237116813659668e-01
-1.833851486444473267e-01 -3.802272677421569824e-02 -4.863511323928833008e-01
2.480748295783996582e-02 -2.619439363479614258e-01 2.231244742870330811e-01
-3.921937644481658936e-01 4.177606850862503052e-02 1.975149661302566528e-01
-2.272791266441345215e-01 7.733543962240219116e-02 -3.599923253059387207e-01
5.916754901409149170e-02 -3.096937239170074463e-01 -2.447649091482162476e-02
-2.773182392120361328e-01 -1.729286015033721924e-01 -3.861558139324188232e-01
-1.939664632081985474e-01 -3.394791185855865479e-01 8.226549625396728516e-02
-1.728959083557128906e-01 -8.355876803398132324e-02 -4.925127029418945312e-01
-4.383639693260192871e-01 -6.918047368526458740e-02 1.943627297878265381e-01
-4.673618078231811523e-01 -5.672569945454597473e-02 -1.092798486351966858e-01
-1.899477094411849976e-01 -3.044971078634262085e-02 3.111371695995330811e-01
-8.434714376926422119e-02 -3.626273572444915771e-01 1.238844394683837891e-01
-3.678211867809295654e-01 1.129576042294502258e-01 1.484968513250350952e-02
-2.922056317329406738e-01 1.230350956320762634e-01 -2.032452821731567383e-01
-3.946258425712585449e-01 9.095201641321182251e-02 -2.849659621715545654e-01
-4.674597382545471191e-01 -2.946516126394271851e-02 9.833753108978271484e-02
-4.596788883209228516e-01 -2.146331220865249634e-02 -2.020565271377563477e-01
-2.753393054008483887e-01 -2.815492749214172363e-01 -1.124187186360359192e-01
-4.460058808326721191e-01 8.891581743955612183e-02 -1.005743667483329773e-01
4.214812815189361572e-02 -3.075518608093261719e-01 -1.360517889261245728e-01
-9.733621776103973389e-02 -1.443411409854888916e-01 3.565011322498321533e-01
1.850621402263641357e-02 -2.368953973054885864e-01 2.392645776271820068e-01
-1.363205015659332275e-01 5.289418250322341919e-02 1.430015265941619873e-02
-2.865113317966461182e-01 4.488983005285263062e-02 -4.328117072582244873e-01
-2.397992312908172607e-01 4.755619913339614868e-02 1.995176225900650024e-01
-5.833938717842102051e-02 -8.444100618362426758e-02 -4.174423217773437500e-01
-4.144055545330047607e-01 1.112696155905723572e-01 -9.498318284749984741e-02
-2.522635459899902344e-01 -1.634968072175979614e-01 -4.213035404682159424e-01
-2.686149179935455322e-01 -2.621109187602996826e-01 -2.088579237461090088e-01
-2.401791661977767944e-01 -5.670469254255294800e-02 -4.895427525043487549e-01
-2.118585407733917236e-01 -2.105214446783065796e-01 -3.901607990264892578e-01
-3.896349370479583740e-01 -1.860617101192474365e-01 -1.076843589544296265e-01
-1.845738738775253296e-01 -2.635710537433624268e-01 -3.158187866210937500e-01
-3.605099320411682129e-01 9.696602076292037964e-02 -3.127804994583129883e-01
-2.361839413642883301e-01 8.853567391633987427e-02 -3.334462940692901611e-01
-2.723306417465209961e-01 8.928067237138748169e-02 1.001878976821899414e-01
-4.314392805099487305e-01 -1.064533367753028870e-01 -1.838847547769546509e-01
-1.010089665651321411e-01 4.281047731637954712e-02 -1.782209575176239014e-01
-1.399695128202438354e-01 2.509834617376327515e-02 -3.849926292896270752e-01
-3.913233578205108643e-01 1.205500736832618713e-01 -1.144312769174575806e-01
-1.825503259897232056e-01 -3.386026322841644287e-01 -3.820689767599105835e-02
-1.788237690925598145e-02 -1.220926716923713684e-01 2.217598557472229004e-01
-4.422505199909210205e-02 -3.634397685527801514e-01 9.553210437297821045e-02
-3.307259082794189453e-01 5.817226320505142212e-02 -4.010182321071624756e-01
-5.626334249973297119e-02 -4.362380504608154297e-02 -3.691330552101135254e-01
-3.681508302688598633e-01 -1.727086603641510010e-01 2.679421901702880859e-01
-2.256123572587966919e-01 -2.616290748119354248e-01 -2.791068851947784424e-01
-4.158407449722290039e-01 -1.539113223552703857e-01 1.465288996696472168e-01
-4.238885343074798584e-01 -5.080658197402954102e-02 -2.896844744682312012e-01
-4.286265373229980469e-01 4.861799627542495728e-02 1.352734267711639404e-01
-4.067367017269134521e-01 1.552256196737289429e-02 -3.456209301948547363e-01
5.858583748340606689e-02 -1.440253108739852905e-01 -1.142764762043952942e-01
-3.655793070793151855e-01 -1.691806316375732422e-01 -2.459637522697448730e-01
9.708404541015625000e-04 -1.066107004880905151e-01 1.474276781082153320e-01
-2.715271711349487305e-01 6.489364057779312134e-02 -4.063149690628051758e-01
-3.364391624927520752e-01 1.292441040277481079e-02 -4.309701621532440186e-01
-1.368886530399322510e-01 -1.272048801183700562e-01 3.757706284523010254e-01
-3.903439640998840332e-01 -1.619804054498672485e-01 2.281321287155151367e-01
-7.421094179153442383e-02 -9.033662825822830200e-02 2.753040194511413574e-01
-3.732725381851196289e-01 -2.161544859409332275e-01 -1.877757534384727478e-02
-2.457621991634368896e-01 -8.398230373859405518e-02 -4.825686216354370117e-01
-2.803238332271575928e-01 -2.393238246440887451e-01 -2.536619901657104492e-01
-4.486405253410339355e-01 -6.749594211578369141e-02 1.611934751272201538e-01
-1.127634942531585693e-01 -4.619710147380828857e-03 -4.020068347454071045e-01
1.581975817680358887e-02 -1.780227571725845337e-01 2.149513661861419678e-01
-3.231023252010345459e-02 -3.499393165111541748e-01 1.712108701467514038e-01
-2.136667072772979736e-01 5.339551717042922974e-02 -4.050296545028686523e-01
-2.133409827947616577e-01 5.539491772651672363e-03 2.689904570579528809e-01
5.439765751361846924e-02 -2.840506136417388916e-01 -1.574085056781768799e-01
-1.144780293107032776e-01 1.785155385732650757e-02 -3.587518334388732910e-01
-1.053179651498794556e-01 -3.223695755004882812e-01 -2.137640267610549927e-01
-2.372223138809204102e-02 -3.160873353481292725e-01 -2.185422778129577637e-01
-4.731150865554809570e-01 7.053218781948089600e-03 5.500892549753189087e-02
-1.868595927953720093e-01 5.189559608697891235e-02 1.308962106704711914e-01
-2.835380136966705322e-01 -1.420021653175354004e-01 3.901197016239166260e-01
-4.472555518150329590e-01 7.268873602151870728e-02 2.589269727468490601e-02
-4.079164862632751465e-01 -1.582580357789993286e-01 -1.327532529830932617e-01
-1.081738770008087158e-01 -3.578929603099822998e-01 1.491727530956268311e-01
2.176806330680847168e-02 -3.442201614379882812e-01 4.773370176553726196e-02
-4.164110422134399414e-01 8.839838206768035889e-03 2.119062542915344238e-01
-3.093834221363067627e-01 5.374624580144882202e-02 2.115886211395263672e-01
-1.595931649208068848e-01 5.653823167085647583e-02 -3.319296836853027344e-01
-3.595099449157714844e-01 5.820798128843307495e-02 1.913051903247833252e-01
-2.414956092834472656e-01 7.639787346124649048e-02 1.181753873825073242e-01
-4.327839612960815430e-02 -1.138878017663955688e-01 -4.130715429782867432e-01
5.486576259136199951e-02 -1.457961201667785645e-01 6.093677133321762085e-03
-4.242181479930877686e-01 -1.507439464330673218e-01 1.019265502691268921e-01
-4.417053759098052979e-01 -3.980590403079986572e-02 1.905557662248611450e-01
-2.273450493812561035e-01 1.084652617573738098e-01 -1.040764302015304565e-01
-1.922432631254196167e-01 9.553740173578262329e-02 -1.281180381774902344e-01
-1.258647441864013672e-01 -1.862169057130813599e-01 -4.432983696460723877e-01
-3.041722178459167480e-01 -2.636954188346862793e-01 2.015878111124038696e-01
-4.034330248832702637e-01 -1.810156702995300293e-01 9.823572635650634766e-02
-1.686368435621261597e-01 -1.853890269994735718e-01 -4.407078623771667480e-01
-3.838224411010742188e-01 1.153315082192420959e-01 -1.841198094189167023e-02
-3.926464915275573730e-02 -3.569298982620239258e-01 1.441989988088607788e-01
-4.155428409576416016e-01 -1.681346297264099121e-01 6.258936971426010132e-02
6.019173562526702881e-02 -2.277977168560028076e-01 1.197330057621002197e-01
-1.954013258218765259e-01 9.501414746046066284e-02 -2.067492753267288208e-01
-3.833771347999572754e-01 -8.588469028472900391e-02 -3.419969677925109863e-01
-2.844074964523315430e-01 -1.505174338817596436e-01 -4.072905778884887695e-01
-4.606454968452453613e-01 -4.623517394065856934e-02 -1.709335893392562866e-01
-1.318176239728927612e-01 4.874321073293685913e-02 -2.962166368961334229e-01
8.726969361305236816e-03 -1.386520415544509888e-01 -3.363714814186096191e-01
8.652583509683609009e-02 8.811256289482116699e-01 -6.495834887027740479e-02
9.441544115543365479e-02 8.223376274108886719e-01 -5.123392343521118164e-01
8.997457474470138550e-02 9.063447117805480957e-01 -1.001901775598526001e-01
1.115948557853698730e-01 8.535955548286437988e-01 -5.104504823684692383e-01
8.378756046295166016e-02 8.610895276069641113e-01 -1.257670372724533081e-01
8.275219798088073730e-02 8.374203443527221680e-01 -2.448295503854751587e-01
8.552588522434234619e-02 8.712506890296936035e-01 -2.601128816604614258e-01
1.151877120137214661e-01 8.652471899986267090e-01 -7.936976850032806396e-02
1.207382827997207642e-01 8.730583786964416504e-01 -2.632097601890563965e-01
1.167513430118560791e-01 8.424248695373535156e-01 -1.466940939426422119e-01
1.040761843323707581e-01 7.950411438941955566e-01 -5.536851882934570312e-01
8.729555457830429077e-02 7.839655876159667969e-01 -2.678088247776031494e-01
9.026300162076950073e-02 9.009188413619995117e-01 -3.888389468193054199e-02
8.261320739984512329e-02 8.398632407188415527e-01 -2.038126885890960693e-01
9.335333108901977539e-02 8.966846466064453125e-01 -3.200609683990478516e-01
1.021667048335075378e-01 7.697415947914123535e-01 -4.908576607704162598e-01
1.124602928757667542e-01 9.146405458450317383e-01 -2.970660924911499023e-01
1.074159741401672363e-01 9.296983480453491211e-01 -8.946582674980163574e-02
1.187679097056388855e-01 8.527071475982666016e-01 -1.749524027109146118e-01
9.627121686935424805e-02 7.918852567672729492e-01 -5.249054431915283203e-01
1.092692539095878601e-01 8.306131958961486816e-01 -6.579427421092987061e-02
1.199586540460586548e-01 8.294435739517211914e-01 -3.354770243167877197e-01
1.199263781309127808e-01 8.832591176033020020e-01 -2.997975647449493408e-01
1.197904869914054871e-01 8.539214730262756348e-01 -2.077330499887466431e-01
1.048245504498481750e-01 7.973138689994812012e-01 -1.327890157699584961e-01
8.521293103694915771e-02 8.251165747642517090e-01 -3.682105541229248047e-01
9.686824679374694824e-02 7.675130963325500488e-01 -4.610461294651031494e-01
8.809043467044830322e-02 8.980373740196228027e-01 -1.477829515933990479e-01
9.227764606475830078e-02 8.645216226577758789e-01 -4.208497107028961182e-01
9.551243484020233154e-02 7.644979953765869141e-01 -3.131484985351562500e-01
9.457867592573165894e-02 9.198495745658874512e-01 -1.673442721366882324e-01
8.497680723667144775e-02 8.766676783561706543e-01 -1.872006952762603760e-01
1.181282177567481995e-01 8.814237713813781738e-01 -1.352858841419219971e-01
8.759726583957672119e-02 8.450920581817626953e-01 -3.942631185054779053e-01
1.179058402776718140e-01 8.151907324790954590e-01 -4.272114932537078857e-01
8.371582627296447754e-02 8.468959927558898926e-01 -2.827422022819519043e-01
9.161579608917236328e-02 8.431885838508605957e-01 -5.186200141906738281e-04
8.485309779644012451e-02 8.190483450889587402e-01 -1.313785165548324585e-01
9.530493617057800293e-02 9.228308200836181641e-01 -1.332103610038757324e-01
9.027525782585144043e-02 8.769096732139587402e-01 -3.538838028907775879e-01
1.009729355573654175e-01 8.046625852584838867e-01 -8.485589921474456787e-02
8.660843968391418457e-02 8.659203052520751953e-01 -3.852440416812896729e-02
1.129063218832015991e-01 8.304425477981567383e-01 -1.097521334886550903e-01
9.782156348228454590e-02 9.194649457931518555e-01 -1.540344953536987305e-02
8.868281543254852295e-02 8.310726881027221680e-01 -4.348188936710357666e-01
1.009674593806266785e-01 7.784559726715087891e-01 -1.989770978689193726e-01
1.140375360846519470e-01 7.891153693199157715e-01 -3.577423095703125000e-01
1.128501668572425842e-01 7.999142408370971680e-01 -2.241634279489517212e-01
9.092696756124496460e-02 8.122439384460449219e-01 -4.798068702220916748e-01
8.578364551067352295e-02 8.026825785636901855e-01 -1.734682023525238037e-01
8.609299361705780029e-02 8.655176758766174316e-01 -3.042710721492767334e-01
1.085164546966552734e-01 9.069608449935913086e-01 -3.641532063484191895e-01
9.243871271610260010e-02 9.134066700935363770e-01 -6.619691848754882812e-02
8.308156579732894897e-02 8.317166566848754883e-01 -1.603705137968063354e-01
8.638799190521240234e-02 7.951645851135253906e-01 -3.760262727737426758e-01
8.955626189708709717e-02 8.871639370918273926e-01 -1.086549460887908936e-02
1.108402684330940247e-01 7.771728634834289551e-01 -4.000439643859863281e-01
1.187717095017433167e-01 8.172817230224609375e-01 -3.778022229671478271e-01
1.149232313036918640e-01 9.015541076660156250e-01 -8.280187845230102539e-02
9.659224003553390503e-02 9.018273353576660156e-01 2.967640757560729980e-02
1.198615059256553650e-01 8.608492612838745117e-01 -3.862719535827636719e-01
8.922635763883590698e-02 8.335915803909301758e-01 -3.338305652141571045e-02
1.152685508131980896e-01 9.089123010635375977e-01 -1.138743311166763306e-01
9.536777436733245850e-02 9.140921235084533691e-01 -2.480031996965408325e-01
1.085736155509948730e-01 8.258770108222961426e-01 -5.516214370727539062e-01
1.177017390727996826e-01 8.146572113037109375e-01 -2.828549146652221680e-01
5.893484503030776978e-02 6.015443205833435059e-01 -9.538114070892333984e-03
1.390859931707382202e-01 4.612972736358642578e-01 6.188060641288757324e-01
2.718669772148132324e-01 4.569529891014099121e-01 1.086425930261611938e-01
1.208122447133064270e-01 6.140360832214355469e-01 4.147754609584808350e-01
1.310420185327529907e-01 5.184556245803833008e-01 8.213655352592468262e-01
1.250915974378585815e-01 4.079231619834899902e-01 1.991608738899230957e-01
1.252711564302444458e-02 5.845883488655090332e-01 -1.034306958317756653e-01
2.322019338607788086e-01 5.293823480606079102e-01 2.451415956020355225e-01
8.737746626138687134e-02 4.186841845512390137e-01 7.559345662593841553e-02
9.575329720973968506e-02 4.936408400535583496e-01 6.373616456985473633e-01
5.486516654491424561e-02 4.728423953056335449e-01 3.173470497131347656e-01
2.119438052177429199e-01 5.085477828979492188e-01 -1.389278769493103027e-01
1.095332503318786621e-01 5.570985674858093262e-01 -2.714030146598815918e-01
1.547448337078094482e-01 5.975383520126342773e-01 7.033191919326782227e-01
2.773635685443878174e-01 4.436409175395965576e-01 3.223102688789367676e-01
8.872080594301223755e-02 6.225529313087463379e-01 5.919574499130249023e-01
2.786549925804138184e-01 4.241720139980316162e-01 2.140167653560638428e-01
5.172793567180633545e-02 6.237295866012573242e-01 4.872675538063049316e-01
5.352005362510681152e-02 4.393727481365203857e-01 4.528135061264038086e-03
2.495447099208831787e-01 4.244880378246307373e-01 4.762242138385772705e-01
1.485586017370223999e-01 4.209678173065185547e-01 3.995909988880157471e-01
2.677332162857055664e-01 4.597254395484924316e-01 5.616545677185058594e-02
2.304080128669738770e-02 6.153148412704467773e-01 2.711957693099975586e-01
2.595186233520507812e-01 4.961179494857788086e-01 2.823656201362609863e-01
5.532406270503997803e-02 6.117530465126037598e-01 6.476681232452392578e-01
1.513577699661254883e-01 5.384002327919006348e-01 -2.567833065986633301e-01
2.311154007911682129e-01 4.979330301284790039e-01 -7.007261365652084351e-02
2.752237319946289062e-01 4.129593074321746826e-01 5.019560456275939941e-03
1.491956412792205811e-01 5.962761640548706055e-01 7.569838166236877441e-01
1.082053184509277344e-01 6.199022531509399414e-01 5.381641387939453125e-01
2.754682600498199463e-01 4.581822156906127930e-01 2.259859740734100342e-01
1.157973930239677429e-01 4.991255998611450195e-01 7.243396639823913574e-01
2.388731241226196289e-01 3.693961501121520996e-01 4.583008587360382080e-03
1.454066932201385498e-01 4.481824934482574463e-01 5.648682117462158203e-01
4.428021609783172607e-02 5.685297250747680664e-01 6.516108512878417969e-01
1.118676587939262390e-01 6.078534126281738281e-01 2.198465466499328613e-01
2.365175783634185791e-01 5.333488583564758301e-01 5.301889181137084961e-01
1.863767206668853760e-01 3.580903112888336182e-01 -3.082737326622009277e-01
1.579330116510391235e-01 5.983360409736633301e-01 6.437879204750061035e-01
1.414638757705688477e-02 5.451986789703369141e-01 4.050765335559844971e-01
2.651672363281250000e-01 3.967566192150115967e-01 -1.433781087398529053e-01
-6.490319967269897461e-03 5.732703804969787598e-01 -4.947947710752487183e-02
1.355252265930175781e-01 5.878075957298278809e-01 8.841376751661300659e-02
1.360606551170349121e-01 4.708107709884643555e-01 -6.157221198081970215e-01
2.164967358112335205e-02 4.744102358818054199e-01 2.042378485202789307e-02
1.408446580171585083e-01 5.951780676841735840e-01 7.967844009399414062e-01
2.276142686605453491e-01 3.961544632911682129e-01 3.294646441936492920e-01
1.234936863183975220e-01 6.147569417953491211e-01 4.913406968116760254e-01
1.875117123126983643e-01 5.589335560798645020e-01 1.183456256985664368e-01
1.575943231582641602e-01 5.605851411819458008e-01 -6.133163720369338989e-02
3.656198084354400635e-02 5.504716634750366211e-01 -3.725036978721618652e-01
4.810071736574172974e-02 5.394766330718994141e-01 6.056846380233764648e-01
1.636030673980712891e-01 5.214204788208007812e-01 -3.128941655158996582e-01
9.192297607660293579e-02 5.992279648780822754e-01 3.051456809043884277e-02
1.410191506147384644e-02 4.724208116531372070e-01 -3.213751018047332764e-01
8.456245064735412598e-03 5.511373281478881836e-01 -2.938293516635894775e-01
1.423573493957519531e-01 6.073377132415771484e-01 5.399707555770874023e-01
2.409028559923171997e-01 5.103905797004699707e-01 6.803991794586181641e-01
8.035919070243835449e-02 6.242397427558898926e-01 5.538426637649536133e-01
5.049169063568115234e-03 5.851570963859558105e-01 3.831169605255126953e-01
2.213986217975616455e-02 5.863117575645446777e-01 5.323081016540527344e-01
1.127435266971588135e-01 6.112903952598571777e-01 7.254596352577209473e-01
2.480561137199401855e-01 5.050593018531799316e-01 6.313726902008056641e-01
1.620787382125854492e-01 4.073612093925476074e-01 -6.610248684883117676e-01
5.416993796825408936e-02 4.872652888298034668e-01 4.054799675941467285e-01
2.612240016460418701e-01 3.859753608703613281e-01 1.052055582404136658e-01
-7.462993264198303223e-03 5.781975984573364258e-01 1.949663907289505005e-01
2.100015878677368164e-01 5.212370157241821289e-01 -5.952537804841995239e-02
6.113588809967041016e-03 4.999214112758636475e-01 5.479267612099647522e-02
2.762525081634521484e-01 4.085818529129028320e-01 6.894989311695098877e-02
1.327657252550125122e-01 5.096148848533630371e-01 -4.768050014972686768e-01
1.545220762491226196e-01 3.748695850372314453e-01 -3.909201174974441528e-02
7.965946942567825317e-02 5.899206399917602539e-01 -8.983828872442245483e-02
-7.848814129829406738e-03 5.439736247062683105e-01 1.451967507600784302e-01
2.625031471252441406e-01 4.883941411972045898e-01 2.383397519588470459e-01
1.770609617233276367e-01 5.853164196014404297e-01 6.768321394920349121e-01
1.622742712497711182e-01 3.922717869281768799e-01 2.034136205911636353e-01
1.203964948654174805e-01 5.048901438713073730e-01 7.572801113128662109e-01
9.897945076227188110e-02 4.168241620063781738e-01 1.379725337028503418e-01
1.582534015178680420e-01 5.400301814079284668e-01 -2.168056964874267578e-01
1.348665654659271240e-01 6.096731424331665039e-01 4.637604951858520508e-01
-6.721392273902893066e-03 5.181632041931152344e-01 -2.062131464481353760e-01
3.506184369325637817e-02 5.022342205047607422e-01 3.650689721107482910e-01
1.883513182401657104e-01 5.769699811935424805e-01 4.088615775108337402e-01
2.516559958457946777e-01 5.010107159614562988e-01 1.844671964645385742e-01
2.685849368572235107e-01 3.951544165611267090e-01 1.367617249488830566e-01
1.480504572391510010e-01 6.044369935989379883e-01 5.948296189308166504e-01
2.526731491088867188e-01 4.649932980537414551e-01 -9.066464751958847046e-02
2.267936468124389648e-01 3.856184780597686768e-01 2.376661300659179688e-01
1.557517498731613159e-01 5.693494081497192383e-01 8.728191256523132324e-03
2.091399133205413818e-01 5.449072718620300293e-01 7.779086232185363770e-01
1.954583972692489624e-01 4.574995636940002441e-01 -4.785665571689605713e-01
6.129108369350433350e-02 4.946556389331817627e-01 4.876796007156372070e-01
2.158880233764648438e-01 5.023251771926879883e-01 7.947300672531127930e-01
2.735272049903869629e-01 4.550268054008483887e-01 4.096431434154510498e-01
2.687466144561767578e-01 4.501025080680847168e-01 1.102860271930694580e-02
-1.172752678394317627e-02 5.503896474838256836e-01 8.029019832611083984e-02
3.321966528892517090e-02 5.099043846130371094e-01 3.939670622348785400e-01
2.676855027675628662e-01 4.267957210540771484e-01 3.967909514904022217e-01
8.056533336639404297e-02 5.080030560493469238e-01 -5.635768771171569824e-01
1.806856989860534668e-01 4.414480924606323242e-01 5.971266031265258789e-01
1.680664867162704468e-01 3.631355762481689453e-01 -1.940228939056396484e-01
2.469125986099243164e-01 5.177288651466369629e-01 3.495319783687591553e-01
2.061075270175933838e-01 4.970321059226989746e-01 -2.474934458732604980e-01
1.832467913627624512e-01 4.051743745803833008e-01 -6.153450012207031250e-01
2.389250397682189941e-01 4.713372588157653809e-01 -1.736598312854766846e-01
2.407263219356536865e-01 4.073753952980041504e-01 -3.664995431900024414e-01
5.200205743312835693e-02 6.075708866119384766e-01 5.253086984157562256e-02
2.664424777030944824e-01 3.874543905258178711e-01 -1.691523194313049316e-02
1.942363381385803223e-01 5.586046576499938965e-01 1.742546558380126953e-01
1.171001121401786804e-01 3.833220899105072021e-01 -5.242866277694702148e-01
1.625570654869079590e-02 5.313894748687744141e-01 -4.024879634380340576e-01
2.274858057498931885e-01 3.746288418769836426e-01 1.170923560857772827e-01
2.209315001964569092e-01 3.726839423179626465e-01 -4.228127300739288330e-01
2.044206261634826660e-01 3.937629461288452148e-01 -5.453470349311828613e-01
1.965202987194061279e-01 4.990984499454498291e-01 -2.882609963417053223e-01
2.659612894058227539e-02 5.296604037284851074e-01 -4.415908753871917725e-01
1.001532301306724548e-01 6.081756353378295898e-01 7.597935199737548828e-01
4.567487537860870361e-02 6.179545521736145020e-01 5.541214346885681152e-01
2.556018233299255371e-01 3.756489753723144531e-01 -7.140492647886276245e-02
6.622662395238876343e-02 4.338850080966949463e-01 -6.206979751586914062e-01
8.048933744430541992e-02 4.895642399787902832e-01 5.561535358428955078e-01
1.899907439947128296e-01 3.658812046051025391e-01 -3.419490903615951538e-02
2.528387606143951416e-01 5.106649994850158691e-01 3.919801712036132812e-01
-1.009099185466766357e-02 5.368324518203735352e-01 -1.626227200031280518e-01
1.169956624507904053e-01 3.825958073139190674e-01 -2.050128281116485596e-01
7.272266596555709839e-02 4.099918603897094727e-01 -4.812642037868499756e-01
2.165432274341583252e-02 4.682178795337677002e-01 -5.842975527048110962e-02
2.060678601264953613e-01 3.609610795974731445e-01 -1.012322679162025452e-01
1.805346310138702393e-01 4.895259439945220947e-01 7.955977320671081543e-01
-1.214440166950225830e-02 5.638086795806884766e-01 1.177617907524108887e-02
1.855403184890747070e-02 5.479009151458740234e-01 4.489187002182006836e-01
1.116340681910514832e-01 5.854838490486145020e-01 -4.153662174940109253e-02
2.058780640363693237e-01 4.548864662647247314e-01 -4.417467415332794189e-01
8.003413677215576172e-05 5.591725111007690430e-01 -2.063922286033630371e-01
2.041061520576477051e-01 4.076809585094451904e-01 4.146504104137420654e-01
2.489347755908966064e-02 6.167221069335937500e-01 3.347532451152801514e-01
7.551114261150360107e-02 5.870153307914733887e-01 -1.224266663193702698e-01
3.390517830848693848e-02 5.124021768569946289e-01 -5.115648508071899414e-01
-1.208260655403137207e-03 5.103411674499511719e-01 -2.982902526855468750e-01
2.564690411090850830e-01 4.996688961982727051e-01 5.420047640800476074e-01
3.622276335954666138e-02 6.115967035293579102e-01 1.154451593756675720e-01
6.124585866928100586e-02 6.255098581314086914e-01 4.297361969947814941e-01
2.991653978824615479e-02 4.859304130077362061e-01 2.166303396224975586e-01
2.046396732330322266e-01 4.380233585834503174e-01 -4.978839457035064697e-01
3.142736852169036865e-02 6.178322434425354004e-01 4.390292763710021973e-01
2.239594757556915283e-01 5.401797890663146973e-01 2.794319093227386475e-01
1.320482194423675537e-01 3.944264650344848633e-01 -6.534525752067565918e-01
1.183993369340896606e-01 3.786061108112335205e-01 -4.022012650966644287e-01
2.219743728637695312e-01 3.824898302555084229e-01 2.094939500093460083e-01
2.276542484760284424e-01 4.807592630386352539e-01 -2.041652202606201172e-01
1.563828885555267334e-01 3.645269870758056641e-01 -2.643065452575683594e-01
2.628269195556640625e-01 4.115375876426696777e-01 3.414003849029541016e-01
1.783987581729888916e-01 5.207607150077819824e-01 -2.507163584232330322e-01
2.210380584001541138e-01 4.419212043285369873e-01 -4.090762436389923096e-01
7.690637558698654175e-02 4.302214682102203369e-01 1.176780983805656433e-01
1.307381242513656616e-01 3.870101869106292725e-01 -5.279488861560821533e-03
8.300907909870147705e-02 6.189027428627014160e-01 2.726800739765167236e-01
1.969136893749237061e-01 4.316188097000122070e-01 5.600830316543579102e-01
1.955034583806991577e-01 3.586081862449645996e-01 -3.554944396018981934e-01
-9.311735630035400391e-04 5.662887096405029297e-01 3.126311302185058594e-01
1.984687149524688721e-02 5.699545741081237793e-01 5.085403323173522949e-01
2.592881023883819580e-01 4.577736258506774902e-01 5.597050189971923828e-01
1.815781742334365845e-01 5.324525237083435059e-01 -1.553053855895996094e-01
2.778922021389007568e-01 4.171013534069061279e-01 1.803903430700302124e-01
5.659551173448562622e-02 4.227454662322998047e-01 -2.402770817279815674e-01
9.332761168479919434e-02 6.209893226623535156e-01 3.742644786834716797e-01
6.140400469303131104e-02 4.240324795246124268e-01 -5.316380262374877930e-01
2.830237150192260742e-03 4.915201961994171143e-01 -2.436876595020294189e-01
1.607770323753356934e-01 5.605235099792480469e-01 8.816547989845275879e-01
1.695217192173004150e-01 3.632647395133972168e-01 -4.480951726436614990e-01
-5.726248025894165039e-03 5.821985006332397461e-01 3.472894430160522461e-02
5.748369544744491577e-02 4.563903510570526123e-01 2.106259167194366455e-01
1.415734291076660156e-01 3.957032859325408936e-01 1.562578827142715454e-01
2.054935693740844727e-01 4.004103541374206543e-01 3.617647886276245117e-01
1.261527389287948608e-01 4.381856918334960938e-01 4.434002935886383057e-01
2.241603434085845947e-01 5.286592245101928711e-01 7.458441853523254395e-01
5.746720731258392334e-02 5.079826116561889648e-01 5.327277779579162598e-01
2.704579532146453857e-01 4.602031111717224121e-01 4.583411514759063721e-01
9.923349320888519287e-02 5.237125158309936523e-01 7.601491808891296387e-01
1.575235128402709961e-01 4.038820266723632812e-01 2.937033176422119141e-01
2.020815461874008179e-01 5.225366353988647461e-01 -1.046391651034355164e-01
1.131078973412513733e-01 3.812161684036254883e-01 -3.517242074012756348e-01
2.515301108360290527e-01 5.125289559364318848e-01 4.905592203140258789e-01
3.262362629175186157e-02 4.463756978511810303e-01 -3.496495187282562256e-01
1.806035935878753662e-01 4.830595552921295166e-01 -4.399763047695159912e-01
4.211753606796264648e-03 5.979311466217041016e-01 3.119530081748962402e-01
5.434460937976837158e-02 6.233887076377868652e-01 3.228640556335449219e-01
1.007757633924484253e-01 5.264672636985778809e-01 -4.648338258266448975e-01
2.367615699768066406e-02 4.877003431320190430e-01 1.699472963809967041e-01
1.356696337461471558e-01 4.346458315849304199e-01 -6.885694861412048340e-01
1.000293344259262085e-02 5.308943986892700195e-01 3.095705509185791016e-01
1.714716106653213501e-02 5.096654891967773438e-01 2.610397338867187500e-01
2.085195183753967285e-01 3.780376315116882324e-01 1.593972146511077881e-01
5.759641528129577637e-03 5.124040246009826660e-01 1.541329175233840942e-01
6.537953019142150879e-02 4.515993893146514893e-01 -6.507384181022644043e-01
2.634914815425872803e-01 3.952920734882354736e-01 2.009527087211608887e-01
2.632747888565063477e-01 4.525709450244903564e-01 5.210849642753601074e-01
8.604542911052703857e-02 5.953143835067749023e-01 -2.554142475128173828e-02
1.322011947631835938e-01 5.793191194534301758e-01 -1.597508043050765991e-02
1.671600639820098877e-01 3.669409453868865967e-01 -1.079442873597145081e-01
8.142235875129699707e-02 4.340082108974456787e-01 -6.708819270133972168e-01
8.136378228664398193e-02 6.129516363143920898e-01 1.679034382104873657e-01
7.118189334869384766e-02 6.251246333122253418e-01 5.202870368957519531e-01
7.738658785820007324e-02 5.755351185798645020e-01 -2.098108232021331787e-01
2.268769145011901855e-01 3.642147481441497803e-01 -3.110052347183227539e-01
1.739042997360229492e-02 4.898500144481658936e-01 -4.640639126300811768e-01
6.180309504270553589e-02 4.361864328384399414e-01 5.216294527053833008e-02
1.114864423871040344e-01 4.929731190204620361e-01 -5.868353247642517090e-01
9.815567731857299805e-02 5.397175550460815430e-01 -4.013721644878387451e-01
2.194761782884597778e-01 5.159136652946472168e-01 -2.890473604202270508e-02
2.410366386175155640e-01 4.852882325649261475e-01 6.962240934371948242e-01
5.692750960588455200e-02 6.097120046615600586e-01 8.084335923194885254e-02
1.620875895023345947e-01 5.224434733390808105e-01 8.655169606208801270e-01
2.114887982606887817e-01 4.567152559757232666e-01 6.815614700317382812e-01
1.960194706916809082e-01 4.681739807128906250e-01 7.282542586326599121e-01
1.218621879816055298e-01 4.793796539306640625e-01 6.588982939720153809e-01
2.279695868492126465e-01 3.702243268489837646e-01 -3.678142726421356201e-01
1.633242219686508179e-01 3.631655871868133545e-01 -2.362740635871887207e-01
4.157457500696182251e-02 4.681850373744964600e-01 -5.818567872047424316e-01
2.124160081148147583e-01 5.024550557136535645e-01 -1.760948300361633301e-01
8.461268246173858643e-02 4.043454527854919434e-01 -1.554746329784393311e-01
2.269060164690017700e-01 4.671429693698883057e-01 -2.784362435340881348e-01
2.151933163404464722e-01 5.506309270858764648e-01 6.910169124603271484e-01
4.513770341873168945e-03 5.892903804779052734e-01 -1.328593492507934570e-02
1.944327801465988159e-01 3.604146242141723633e-01 -1.352416872978210449e-01
2.500730752944946289e-01 3.739670813083648682e-01 -1.934557855129241943e-01
1.641868650913238525e-01 4.508024156093597412e-01 -6.046077013015747070e-01
2.324374765157699585e-02 5.840201973915100098e-01 -1.426367163658142090e-01
6.206598877906799316e-02 4.172357022762298584e-01 -2.685626149177551270e-01
1.345307528972625732e-01 3.786019384860992432e-01 -1.106490120291709900e-01
1.319184154272079468e-02 5.605820417404174805e-01 -2.666447460651397705e-01
1.223922073841094971e-01 5.684884786605834961e-01 -1.492689251899719238e-01
1.319947987794876099e-01 5.061411857604980469e-01 7.875285148620605469e-01
1.821945905685424805e-01 5.828199386596679688e-01 6.484215259552001953e-01
-1.235015690326690674e-02 5.468338131904602051e-01 3.736051172018051147e-02
2.546406388282775879e-01 4.996800124645233154e-01 5.734347105026245117e-01
1.759131848812103271e-01 5.878966450691223145e-01 4.908516108989715576e-01
4.467486590147018433e-02 4.351510703563690186e-01 -2.027094066143035889e-01
1.105746328830718994e-01 5.456386208534240723e-01 8.393864035606384277e-01
8.294137567281723022e-02 5.699298977851867676e-01 8.001036643981933594e-01
1.841661036014556885e-01 5.700941085815429688e-01 2.272673547267913818e-01
3.568058460950851440e-02 4.622120559215545654e-01 -5.394139885902404785e-01
7.635292410850524902e-02 4.047166407108306885e-01 -3.957215547561645508e-01
5.319377779960632324e-02 4.606378078460693359e-01 -6.206591725349426270e-01
1.073451489210128784e-01 5.834903120994567871e-01 -7.445251196622848511e-02
2.082431018352508545e-01 3.691094517707824707e-01 -4.566282927989959717e-01
2.263843566179275513e-01 5.433676242828369141e-01 6.064696907997131348e-01
2.019259929656982422e-01 5.394287705421447754e-01 3.532947972416877747e-02
7.846158742904663086e-02 6.083786487579345703e-01 7.329582571983337402e-01
1.015226468443870544e-01 3.888447284698486328e-01 -2.785160541534423828e-01
5.993870645761489868e-02 4.226307570934295654e-01 -1.688565611839294434e-01
2.086575180292129517e-01 5.401591658592224121e-01 9.999801963567733765e-02
-1.261863112449645996e-02 5.437361001968383789e-01 -6.496673077344894409e-02
1.490824222564697266e-01 4.780129194259643555e-01 -5.628739595413208008e-01
1.163421496748924255e-01 6.145482063293457031e-01 6.672196984291076660e-01
2.342519611120223999e-01 4.504491090774536133e-01 -3.024807870388031006e-01
5.340433865785598755e-02 5.960158705711364746e-01 -6.699740141630172729e-02
4.598445445299148560e-02 4.325373172760009766e-01 -4.106988608837127686e-01
1.099795773625373840e-01 6.136719584465026855e-01 3.104424774646759033e-01
2.555016875267028809e-01 4.534700512886047363e-01 -1.241786703467369080e-01
2.156185358762741089e-01 4.242175221443176270e-01 5.238615274429321289e-01
2.125732451677322388e-01 4.015356302261352539e-01 -5.165808200836181641e-01
5.039981007575988770e-02 6.218726038932800293e-01 2.833113372325897217e-01
1.694306284189224243e-01 4.270127415657043457e-01 4.942739307880401611e-01
7.028924673795700073e-02 5.664925575256347656e-01 7.575364708900451660e-01
1.735695600509643555e-01 3.842294812202453613e-01 1.573584228754043579e-01
2.340757548809051514e-01 5.137473344802856445e-01 8.802162855863571167e-02
2.281871438026428223e-01 5.286421179771423340e-01 7.169554829597473145e-01
-1.617774367332458496e-03 5.007891058921813965e-01 -1.496210992336273193e-01
9.053014963865280151e-02 5.172492861747741699e-01 7.116660475730895996e-01
2.412240505218505859e-01 3.717582225799560547e-01 -2.768009006977081299e-01
1.195109486579895020e-01 4.986902773380279541e-01 -5.525726675987243652e-01
1.936780959367752075e-01 3.718225657939910889e-01 -5.171831250190734863e-01
2.256413996219635010e-01 5.130790472030639648e-01 -4.902482032775878906e-05
8.600586652755737305e-02 4.595898687839508057e-01 4.104548990726470947e-01
1.038243472576141357e-01 5.356389880180358887e-01 8.041584491729736328e-01
2.416416853666305542e-01 3.665593862533569336e-01 -1.399989426136016846e-01
1.119255349040031433e-01 5.440299510955810547e-01 -3.478483855724334717e-01
9.024906158447265625e-02 5.093715786933898926e-01 6.821765303611755371e-01
6.598713994026184082e-02 6.117520332336425781e-01 6.844213604927062988e-01
3.491470962762832642e-02 4.712627232074737549e-01 1.440018415451049805e-01
2.521556317806243896e-01 4.362047016620635986e-01 -2.237647473812103271e-01
2.241224795579910278e-01 3.643630445003509521e-01 -3.993134945631027222e-02
1.755916178226470947e-01 5.770782232284545898e-01 7.864953279495239258e-01
2.660242021083831787e-01 4.794906973838806152e-01 2.047848105430603027e-01
1.233011409640312195e-01 6.140136718750000000e-01 6.281633973121643066e-01
2.684407830238342285e-01 4.788916707038879395e-01 4.285861551761627197e-01
1.043668612837791443e-01 5.185753107070922852e-01 -4.957592189311981201e-01
3.848594427108764648e-02 6.187970042228698730e-01 2.385878562927246094e-01
5.937895923852920532e-02 6.208904981613159180e-01 5.840301513671875000e-01
7.494702935218811035e-03 5.999089479446411133e-01 9.702507406473159790e-02
1.495253741741180420e-01 5.973598957061767578e-01 3.238268792629241943e-01
1.487460285425186157e-01 4.133761823177337646e-01 3.427800834178924561e-01
1.729291379451751709e-01 5.748422741889953613e-01 1.877567172050476074e-01
1.778389513492584229e-02 6.014429330825805664e-01 4.207550734281539917e-02
1.397797912359237671e-01 3.692034482955932617e-01 -3.746429383754730225e-01
2.268884032964706421e-01 4.521290063858032227e-01 -3.416650891304016113e-01
6.593751162290573120e-02 6.189212799072265625e-01 2.268979549407958984e-01
2.485693693161010742e-01 3.939824700355529785e-01 -3.096320629119873047e-01
6.525016576051712036e-02 5.461693406105041504e-01 7.026171684265136719e-01
5.652131140232086182e-02 6.145210862159729004e-01 1.452250480651855469e-01
2.610437870025634766e-01 4.124861061573028564e-01 -1.994071900844573975e-01
2.616401314735412598e-01 4.259488284587860107e-01 -1.684932708740234375e-01
6.217316538095474243e-02 5.819022059440612793e-01 -1.800723075866699219e-01
2.310952097177505493e-01 5.354189872741699219e-01 6.359564065933227539e-01
2.714732885360717773e-01 4.657291769981384277e-01 1.800823807716369629e-01
-3.257259726524353027e-03 5.860710144042968750e-01 2.550709545612335205e-01
2.120471000671386719e-01 4.677427411079406738e-01 -3.615525662899017334e-01
1.159314066171646118e-02 4.755945503711700439e-01 -2.866258323192596436e-01
1.575291901826858521e-02 4.793314933776855469e-01 -4.205781519412994385e-01
2.638649046421051025e-01 4.846398830413818359e-01 5.019755363464355469e-01
1.441989839076995850e-01 5.953056216239929199e-01 2.416308224201202393e-01
1.742681264877319336e-01 4.974780380725860596e-01 -3.987005352973937988e-01
7.235732674598693848e-02 5.306743383407592773e-01 -4.761222898960113525e-01
1.463427841663360596e-01 3.797401785850524902e-01 -5.939291119575500488e-01
8.131211996078491211e-02 5.525416731834411621e-01 -3.550966084003448486e-01
5.084185302257537842e-02 4.686202406883239746e-01 2.580775618553161621e-01
1.942530274391174316e-03 5.704131722450256348e-01 3.512915968894958496e-01
2.028959244489669800e-01 3.888030052185058594e-01 2.619047462940216064e-01
2.594000101089477539e-01 3.982101380825042725e-01 2.588518261909484863e-01
2.983299642801284790e-02 6.145557761192321777e-01 1.852603852748870850e-01
1.871639490127563477e-01 5.733971595764160156e-01 3.133428394794464111e-01
8.190369606018066406e-02 4.952746033668518066e-01 5.898457169532775879e-01
-4.295557737350463867e-03 5.380802750587463379e-01 1.758257299661636353e-01
1.937765330076217651e-01 5.747054219245910645e-01 4.694624543190002441e-01
9.256758540868759155e-02 4.876978099346160889e-01 -6.224802732467651367e-01
2.090961933135986328e-01 5.535910129547119141e-01 7.279421091079711914e-01
2.278797924518585205e-01 5.433400273323059082e-01 5.554704070091247559e-01
2.024888694286346436e-01 3.585823178291320801e-01 -1.777153313159942627e-01
7.550375908613204956e-02 4.174203872680664062e-01 -4.705160111188888550e-02
1.705197095870971680e-01 4.712831974029541016e-01 -5.233387947082519531e-01
-3.503486514091491699e-03 5.374395847320556641e-01 -2.614568173885345459e-01
2.212074100971221924e-01 3.599232435226440430e-01 -2.488030791282653809e-01
9.564797580242156982e-02 6.067237257957458496e-01 1.307123899459838867e-01
4.268289357423782349e-02 4.416834414005279541e-01 -1.081728860735893250e-01
2.264494001865386963e-01 5.427913665771484375e-01 3.805114626884460449e-01
1.938700228929519653e-01 3.690575361251831055e-01 2.531636506319046021e-02
-4.200726747512817383e-03 5.075045228004455566e-01 -1.200579926371574402e-01
8.037960529327392578e-02 6.207162141799926758e-01 6.336254477500915527e-01
1.709691137075424194e-01 5.680223703384399414e-01 9.165124595165252686e-02
1.382345706224441528e-01 4.945104718208312988e-01 -5.283566713333129883e-01
5.072638392448425293e-02 4.328143894672393799e-01 -5.020102262496948242e-01
6.915840506553649902e-02 5.206633806228637695e-01 -5.195158123970031738e-01
2.280175685882568359e-01 5.385643243789672852e-01 3.232828080654144287e-01
7.064620405435562134e-02 5.424429178237915039e-01 -4.205992519855499268e-01
1.988982558250427246e-01 5.605342388153076172e-01 2.495327293872833252e-01
2.735524773597717285e-01 4.668415784835815430e-01 3.434793055057525635e-01
1.512669324874877930e-01 4.248212277889251709e-01 4.350125789642333984e-01
1.266164928674697876e-01 5.597487092018127441e-01 -2.010939419269561768e-01
1.693930923938751221e-01 5.741952657699584961e-01 1.508360803127288818e-01
2.275183945894241333e-01 5.442191362380981445e-01 4.937796890735626221e-01
-4.843294620513916016e-03 5.490499138832092285e-01 2.164551168680191040e-01
2.084662020206451416e-01 5.616279840469360352e-01 4.312563538551330566e-01
2.014890611171722412e-01 4.190655946731567383e-01 4.889116585254669189e-01
3.879246860742568970e-02 5.682339668273925781e-01 6.230584979057312012e-01
-1.074041426181793213e-02 5.323050022125244141e-01 -1.672759652137756348e-02
6.445086747407913208e-02 4.990053176879882812e-01 -5.910316109657287598e-01
2.218204438686370850e-01 5.462383031845092773e-01 3.520457446575164795e-01
1.183578521013259888e-01 4.297488629817962646e-01 3.524309992790222168e-01
1.436570137739181519e-01 5.870503783226013184e-01 1.268428415060043335e-01
1.780703663825988770e-03 5.975118279457092285e-01 1.520556360483169556e-01
1.331100016832351685e-01 3.731107115745544434e-01 -4.537030756473541260e-01
1.900994479656219482e-01 5.421219468116760254e-01 -2.696342766284942627e-02
4.091455787420272827e-02 6.067033410072326660e-01 6.050326824188232422e-01
