-7.262010872364044189e-02 5.676985979080200195e-01 3.639481961727142334e-02
1.996699869632720947e-01 5.257471203804016113e-01 -7.173783779144287109e-01
1.305137574672698975e-01 3.805531859397888184e-01 6.784883737564086914e-01
1.361279338598251343e-01 5.621249079704284668e-01 1.841007769107818604e-01
2.022074311971664429e-01 5.796656608581542969e-01 -2.031830996274948120e-01
2.858651876449584961e-01 5.525324344635009766e-01 -2.724736034870147705e-01
3.643745779991149902e-01 5.095215439796447754e-01 -1.691567897796630859e-01
4.672040343284606934e-01 3.244457840919494629e-01 4.644720628857612610e-02
4.215576350688934326e-01 3.216181397438049316e-01 -2.594124153256416321e-02
1.018025949597358704e-01 6.036819815635681152e-01 -2.066742777824401855e-01
9.746163338422775269e-02 4.194428920745849609e-01 7.037456035614013672e-01
3.891893625259399414e-01 5.001633167266845703e-01 -3.638876378536224365e-01
-6.179861724376678467e-02 5.813866853713989258e-01 -1.148191839456558228e-02
2.834415733814239502e-01 3.680270910263061523e-01 -2.708996534347534180e-01
3.044608235359191895e-01 3.687824904918670654e-01 -3.034250736236572266e-01
2.132379412651062012e-01 5.383505821228027344e-01 1.988628804683685303e-01
1.179324537515640259e-01 6.046473383903503418e-01 -3.971497714519500732e-01
4.227557778358459473e-01 4.540167450904846191e-01 -5.014524459838867188e-01
4.207475781440734863e-01 4.470358788967132568e-01 1.166909337043762207e-01
2.987736463546752930e-02 6.111526489257812500e-01 -2.859182357788085938e-01
3.668406605720520020e-01 5.101420879364013672e-01 -4.845638573169708252e-01
3.046364486217498779e-01 5.455743074417114258e-01 -4.672101140022277832e-01
5.411502718925476074e-02 4.797715246677398682e-01 6.146128177642822266e-01
1.607144773006439209e-01 5.844745039939880371e-01 -9.506812691688537598e-02
-5.821739137172698975e-02 4.985167086124420166e-01 8.284191787242889404e-02
1.889500021934509277e-02 4.532719552516937256e-01 -9.117841720581054688e-02
2.711386382579803467e-01 3.155157566070556641e-01 3.522275388240814209e-01
5.838660895824432373e-02 4.001806974411010742e-01 5.094206333160400391e-01
2.971763014793395996e-01 5.198277831077575684e-01 8.699791133403778076e-02
1.333412230014801025e-01 3.593154549598693848e-01 3.982020914554595947e-01
2.394816577434539795e-01 5.722125768661499023e-01 -3.276655673980712891e-01
4.496780335903167725e-01 3.277662694454193115e-01 -5.010036006569862366e-02
2.978843152523040771e-01 3.099019229412078857e-01 3.762145042419433594e-01
5.799454450607299805e-02 6.096096038818359375e-01 -3.972590565681457520e-01
-1.672253012657165527e-03 4.373756051063537598e-01 2.695702314376831055e-01
2.662283182144165039e-02 5.172877311706542969e-01 -4.388706386089324951e-01
2.009373903274536133e-02 5.834713578224182129e-01 1.375587582588195801e-01
8.783926814794540405e-02 4.399037063121795654e-01 -2.692716419696807861e-01
6.134989857673645020e-02 5.154766440391540527e-01 -5.214700102806091309e-01
1.410892754793167114e-01 5.557364225387573242e-01 2.230454236268997192e-01
2.573319673538208008e-01 4.265255033969879150e-01 6.498159766197204590e-01
2.983902990818023682e-01 4.841693639755249023e-01 3.330967128276824951e-01
1.484204530715942383e-01 3.922716975212097168e-01 7.311009764671325684e-01
3.588257431983947754e-01 5.184088945388793945e-01 -3.152599930763244629e-01
4.784192144870758057e-02 5.952900052070617676e-01 -5.201815962791442871e-01
-6.119363009929656982e-02 4.979911148548126221e-01 2.331043928861618042e-01
3.347339034080505371e-01 3.639668226242065430e-01 6.522119641304016113e-01
4.868261218070983887e-01 3.787701725959777832e-01 1.149240285158157349e-01
6.467801332473754883e-02 5.234256386756896973e-01 4.765370786190032959e-01
1.284836828708648682e-01 5.995025634765625000e-01 -2.221390455961227417e-01
4.257847070693969727e-01 3.828077316284179688e-01 4.053287804126739502e-01
4.391623139381408691e-01 3.358451128005981445e-01 -1.331302821636199951e-01
8.452206850051879883e-03 5.572351217269897461e-01 3.116399943828582764e-01
4.690524339675903320e-01 3.309468626976013184e-01 2.753086388111114502e-01
2.789054214954376221e-01 4.057333469390869141e-01 -4.683479666709899902e-01
1.115489006042480469e-02 5.994189381599426270e-01 -2.018846198916435242e-02
-2.920626103878021240e-02 5.381169319152832031e-01 3.628816902637481689e-01
1.514982879161834717e-01 5.250277519226074219e-01 3.989262878894805908e-01
1.795469224452972412e-02 6.087999343872070312e-01 -3.472171127796173096e-01
7.012696564197540283e-02 4.644282758235931396e-01 -3.491534888744354248e-01
2.612903714179992676e-02 4.189278483390808105e-01 4.544689059257507324e-01
1.754802018404006958e-01 3.431259095668792725e-01 3.714576363563537598e-01
2.328756451606750488e-01 4.351991415023803711e-01 -5.409574508666992188e-01
2.396330237388610840e-02 4.230328798294067383e-01 4.887590706348419189e-01
-3.913787007331848145e-02 5.978116989135742188e-01 -1.596281379461288452e-01
4.756876826286315918e-01 4.229021966457366943e-01 -2.362085431814193726e-01
4.946295619010925293e-01 3.807344436645507812e-01 1.505730487406253815e-02
-1.798702776432037354e-02 5.635091066360473633e-01 -4.006011784076690674e-01
5.629986524581909180e-03 4.319296479225158691e-01 3.939391970634460449e-01
3.803829550743103027e-01 4.678668975830078125e-01 1.592212170362472534e-01
-4.499597847461700439e-02 5.671926140785217285e-01 -2.936867773532867432e-01
2.652727067470550537e-01 3.358995318412780762e-01 2.591858431696891785e-02
2.415899783372879028e-01 5.706092119216918945e-01 -4.990310668945312500e-01
4.367344975471496582e-01 4.631264805793762207e-01 -3.495019078254699707e-01
3.224361240863800049e-01 5.342049002647399902e-01 -5.174538493156433105e-01
2.806757390499114990e-01 5.571663975715637207e-01 -3.809537887573242188e-01
3.449374437332153320e-02 4.156557917594909668e-01 2.106844782829284668e-01
4.299569427967071533e-01 4.459666609764099121e-01 7.259435951709747314e-02
3.196880817413330078e-01 3.077518045902252197e-01 2.967331111431121826e-01
4.856802523136138916e-02 4.035500288009643555e-01 3.017844855785369873e-01
3.329484164714813232e-01 4.652007520198822021e-01 3.425313532352447510e-01
1.331117451190948486e-01 5.340765118598937988e-01 3.728505074977874756e-01
8.197197318077087402e-02 5.798045992851257324e-01 1.245596110820770264e-01
1.865217387676239014e-01 5.897632837295532227e-01 -3.955999910831451416e-01
3.864140510559082031e-01 3.320642709732055664e-01 -1.208194494247436523e-01
3.071629106998443604e-01 3.153552412986755371e-01 1.727748662233352661e-01
2.020685970783233643e-01 3.586160540580749512e-01 -1.641909405589103699e-02
-7.381483912467956543e-03 4.417429566383361816e-01 3.651855289936065674e-01
1.091723814606666565e-01 3.848133683204650879e-01 6.426041126251220703e-01
-2.984803915023803711e-02 4.664688706398010254e-01 3.944096267223358154e-01
3.680108487606048584e-02 6.073328256607055664e-01 -1.445289552211761475e-01
9.068323671817779541e-02 6.083779335021972656e-01 -3.786981105804443359e-01
1.343748420476913452e-01 3.673424422740936279e-01 6.118377447128295898e-01
-3.269094228744506836e-02 5.052309036254882812e-01 4.398121535778045654e-01
4.485957622528076172e-01 3.636621832847595215e-01 -2.855785489082336426e-01
5.073973536491394043e-02 6.105459928512573242e-01 -3.674294352531433105e-01
1.408710926771163940e-01 3.880250751972198486e-01 -7.562351226806640625e-02
7.611729204654693604e-02 5.875161290168762207e-01 6.218808144330978394e-02
2.081538140773773193e-01 5.686789751052856445e-01 -6.371616721153259277e-01
1.305354535579681396e-01 4.090175032615661621e-01 -2.023914456367492676e-01
3.280096650123596191e-01 5.123105049133300781e-01 -6.389164924621582031e-01
1.150404140353202820e-01 5.983517765998840332e-01 -1.492528617382049561e-01
1.701465249061584473e-01 3.551682829856872559e-01 1.523490846157073975e-01
4.345631897449493408e-01 4.408110678195953369e-01 -4.770026504993438721e-01
4.282229244709014893e-01 3.077912330627441406e-01 1.977818012237548828e-01
6.459553539752960205e-02 5.082695484161376953e-01 5.358685255050659180e-01
4.506941139698028564e-01 3.314545154571533203e-01 -8.105675876140594482e-02
2.428069710731506348e-02 6.064336299896240234e-01 -4.014342427253723145e-01
3.423483967781066895e-01 5.245785713195800781e-01 -4.954354166984558105e-01
2.814772129058837891e-01 5.233203768730163574e-01 1.148609369993209839e-01
1.798339635133743286e-01 5.704002976417541504e-01 -6.598051190376281738e-01
3.990109562873840332e-01 4.896489083766937256e-01 -1.829377412796020508e-01
2.217258065938949585e-01 5.789947509765625000e-01 -3.689762949943542480e-01
-3.636264801025390625e-02 5.576485395431518555e-01 2.627117335796356201e-01
-5.370502173900604248e-02 5.031422376632690430e-01 -1.148112863302230835e-02
5.947700142860412598e-02 5.802723169326782227e-01 1.444542855024337769e-01
6.473492085933685303e-02 4.152355492115020752e-01 2.869051881134510040e-03
4.059347808361053467e-01 4.823744893074035645e-01 -4.629651010036468506e-01
2.332805991172790527e-01 3.286019563674926758e-01 5.661119222640991211e-01
3.808735609054565430e-01 4.774821698665618896e-01 8.301676809787750244e-02
-5.740816891193389893e-02 5.867853164672851562e-01 -6.576414406299591064e-02
2.182585597038269043e-01 5.799722075462341309e-01 -4.459282159805297852e-01
3.115828335285186768e-02 4.803191721439361572e-01 -3.050418198108673096e-01
3.519377708435058594e-01 3.048965036869049072e-01 2.622981667518615723e-01
3.341976702213287354e-01 4.517783820629119873e-01 4.072950780391693115e-01
2.782284319400787354e-01 5.124580860137939453e-01 2.091228365898132324e-01
4.512540996074676514e-01 3.768574595451354980e-01 3.260709941387176514e-01
9.371661394834518433e-02 4.779835343360900879e-01 -4.697296619415283203e-01
3.294443488121032715e-01 3.284073472023010254e-01 -3.415567800402641296e-02
2.074119895696640015e-01 5.540436506271362305e-01 8.647699654102325439e-02
2.757976055145263672e-01 4.911879599094390869e-01 3.510026037693023682e-01
3.000069856643676758e-01 3.341251015663146973e-01 -3.704727068543434143e-02
1.379238814115524292e-01 5.473439097404479980e-01 2.857393920421600342e-01
4.686378836631774902e-01 4.031606912612915039e-01 1.256070435047149658e-01
3.364044129848480225e-01 5.310786366462707520e-01 -3.654960393905639648e-01
8.391290903091430664e-04 6.081992983818054199e-01 -2.779471874237060547e-01
5.221068859100341797e-03 5.716426372528076172e-01 2.229656875133514404e-01
7.799279689788818359e-02 6.038827300071716309e-01 -4.895342588424682617e-01
7.078827917575836182e-02 5.659481287002563477e-01 2.419688850641250610e-01
2.033072412014007568e-01 3.432916402816772461e-01 1.567069888114929199e-01
2.401174902915954590e-01 4.420459270477294922e-01 6.279720664024353027e-01
1.405903249979019165e-01 5.213806629180908203e-01 4.318577945232391357e-01
3.898305892944335938e-01 4.263253211975097656e-01 3.616306185722351074e-01
2.939894199371337891e-01 5.371302366256713867e-01 -6.229436397552490234e-01
2.294344305992126465e-01 3.299705386161804199e-01 2.451584339141845703e-01
3.752442598342895508e-01 3.125289082527160645e-01 8.373369276523590088e-02
1.267759203910827637e-01 5.826607346534729004e-01 -6.278591156005859375e-01
3.452724218368530273e-01 4.263311326503753662e-01 4.875477552413940430e-01
2.579425275325775146e-01 3.432582318782806396e-01 6.922029256820678711e-01
1.191796287894248962e-01 5.811576247215270996e-01 5.193135887384414673e-02
1.345795989036560059e-01 5.830552577972412109e-01 -1.867731101810932159e-03
4.887517690658569336e-01 3.933554887771606445e-01 -2.167773097753524780e-01
-2.511695027351379395e-03 4.862388074398040771e-01 -2.062454819679260254e-01
5.126124620437622070e-02 5.959728956222534180e-01 3.448503091931343079e-03
2.599885463714599609e-01 3.763688504695892334e-01 -2.870633900165557861e-01
2.218961417675018311e-01 5.688923597335815430e-01 -1.305029541254043579e-01
3.120513558387756348e-01 4.694796502590179443e-01 3.774264156818389893e-01
2.004818469285964966e-01 5.817848443984985352e-01 -2.353828847408294678e-01
4.873797297477722168e-03 4.592326581478118896e-01 -6.404644250869750977e-02
2.192256301641464233e-01 4.010446071624755859e-01 7.345913052558898926e-01
4.131039977073669434e-02 6.101831197738647461e-01 -2.191022634506225586e-01
-3.102704882621765137e-03 5.760439634323120117e-01 1.887337714433670044e-01
9.949717670679092407e-02 4.605418443679809570e-01 6.696619391441345215e-01
-1.169636845588684082e-03 5.180396437644958496e-01 -3.541711270809173584e-01
-4.563565552234649658e-02 4.840891063213348389e-01 3.546424508094787598e-01
1.350225210189819336e-01 4.547056853771209717e-01 -4.634647965431213379e-01
3.144341111183166504e-01 3.873853087425231934e-01 -4.145603477954864502e-01
4.705978631973266602e-01 3.223201632499694824e-01 1.403843611478805542e-01
3.429780006408691406e-01 3.487868309020996094e-01 -2.155788987874984741e-01
1.499035954475402832e-01 4.769255220890045166e-01 6.092026233673095703e-01
3.645674288272857666e-01 4.365259110927581787e-01 3.935078978538513184e-01
2.010740935802459717e-01 3.359138369560241699e-01 3.121538758277893066e-01
3.414520621299743652e-01 5.228427052497863770e-01 -1.891098320484161377e-01
4.935907125473022461e-01 3.926836252212524414e-01 -1.176421344280242920e-01
2.612378597259521484e-01 5.485278367996215820e-01 -5.107266828417778015e-02
1.940488815307617188e-03 5.330170989036560059e-01 4.216849207878112793e-01
2.782154083251953125e-01 3.169845342636108398e-01 2.549830973148345947e-01
-2.018880844116210938e-02 4.587156772613525391e-01 4.268597066402435303e-01
2.145849913358688354e-01 5.685003995895385742e-01 -9.199917316436767578e-02
1.801509857177734375e-01 5.827233195304870605e-01 -1.451353132724761963e-01
4.538657069206237793e-01 4.479524493217468262e-01 -2.978486120700836182e-01
3.468054533004760742e-02 5.436558127403259277e-01 -5.227077007293701172e-01
2.069068402051925659e-01 3.497578799724578857e-01 5.954290926456451416e-02
1.322946548461914062e-01 3.604935407638549805e-01 3.525356650352478027e-01
-7.543097436428070068e-02 5.573934912681579590e-01 9.002520143985748291e-02
3.247473835945129395e-01 4.481707513332366943e-01 -6.320325732231140137e-01
2.654312252998352051e-01 5.018298625946044922e-01 3.141730129718780518e-01
1.227043867111206055e-01 5.037715435028076172e-01 5.296895503997802734e-01
1.868474483489990234e-01 5.869009494781494141e-01 -2.616333663463592529e-01
3.791300654411315918e-01 3.046353459358215332e-01 4.133785068988800049e-01
3.952885568141937256e-01 4.846304953098297119e-01 -7.374498248100280762e-02
-5.889631807804107666e-02 5.388290882110595703e-01 -1.642536073923110962e-01
4.516172409057617188e-01 3.536126017570495605e-01 -2.297346293926239014e-01
-6.957639753818511963e-02 5.626530647277832031e-01 -1.306448578834533691e-01
-5.621685087680816650e-02 5.697459578514099121e-01 1.368675827980041504e-01
3.584836125373840332e-01 3.158347308635711670e-01 5.487579107284545898e-01
1.782336235046386719e-01 4.068788886070251465e-01 -3.131029903888702393e-01
-4.436881840229034424e-02 5.063940882682800293e-01 -1.034801006317138672e-01
4.765970706939697266e-01 3.356774151325225830e-01 -3.637545183300971985e-02
8.893236517906188965e-02 3.806336224079132080e-01 4.637120664119720459e-01
3.177174925804138184e-01 4.790672659873962402e-01 3.085935115814208984e-01
4.079369902610778809e-01 3.489357233047485352e-01 -2.408332973718643188e-01
1.858889162540435791e-01 4.469118714332580566e-01 -5.227658748626708984e-01
4.148085117340087891e-01 4.659116864204406738e-01 -8.073691278696060181e-03
1.319799125194549561e-01 4.413911104202270508e-01 -3.951844573020935059e-01
7.611395418643951416e-02 5.167602300643920898e-01 -5.564302206039428711e-01
4.092003107070922852e-01 4.833594262599945068e-01 -4.208672344684600830e-01
4.893100857734680176e-01 3.565376996994018555e-01 -1.192782074213027954e-01
3.765683174133300781e-01 3.451138436794281006e-01 5.866600275039672852e-01
5.646738409996032715e-02 4.243138730525970459e-01 -3.911148384213447571e-02
-7.279150187969207764e-02 5.502069592475891113e-01 -8.535775542259216309e-02
2.363154888153076172e-01 5.697383284568786621e-01 -2.287414222955703735e-01
3.570545911788940430e-01 4.302804470062255859e-01 4.417810142040252686e-01
4.336214363574981689e-01 4.668863117694854736e-01 -2.343425601720809937e-01
2.464041113853454590e-02 4.434134066104888916e-01 -4.188657552003860474e-02
-6.036013364791870117e-04 5.956540703773498535e-01 -4.138889908790588379e-01
3.626942932605743408e-01 3.667223453521728516e-01 6.016057133674621582e-01
3.075301647186279297e-02 4.139790534973144531e-01 4.084425866603851318e-01
2.801467776298522949e-01 4.690892994403839111e-01 4.550526142120361328e-01
1.860004961490631104e-01 5.823872089385986328e-01 -5.773617625236511230e-01
3.813028335571289062e-01 3.029974997043609619e-01 2.803227901458740234e-01
3.735793232917785645e-01 5.062831044197082520e-01 -2.053062915802001953e-01
3.877375721931457520e-01 4.751146137714385986e-01 -5.765553116798400879e-01
4.368842542171478271e-01 4.646832346916198730e-01 -2.730039358139038086e-01
2.189085930585861206e-01 3.396327793598175049e-01 6.393575668334960938e-01
3.335651755332946777e-01 4.779158830642700195e-01 2.668289840221405029e-01
-6.287167966365814209e-02 5.204842090606689453e-01 -4.999507591128349304e-02
-3.854943811893463135e-02 5.821082592010498047e-01 9.478725492954254150e-02
3.290810585021972656e-01 4.653910994529724121e-01 -6.600971817970275879e-01
-7.574617862701416016e-03 4.499004781246185303e-01 1.134547442197799683e-01
3.762067854404449463e-02 4.961152970790863037e-01 5.662484169006347656e-01
3.354087471961975098e-01 3.386706411838531494e-01 -1.324420571327209473e-01
4.682472348213195801e-01 3.216198682785034180e-01 2.004204243421554565e-01
1.430176198482513428e-02 5.836046338081359863e-01 -4.873304963111877441e-01
1.124542132019996643e-01 5.490225553512573242e-01 3.095940053462982178e-01
3.296017646789550781e-01 3.346587121486663818e-01 -9.151008725166320801e-02
4.010886251926422119e-01 4.899602830410003662e-01 -2.186616808176040649e-01
2.104118615388870239e-01 3.460582196712493896e-01 8.967249095439910889e-02
4.844844341278076172e-02 4.582267999649047852e-01 -2.465295046567916870e-01
1.860741674900054932e-01 4.979785382747650146e-01 -6.749683022499084473e-01
-9.338229894638061523e-03 5.038139820098876953e-01 4.957720339298248291e-01
2.399608492851257324e-03 4.492355287075042725e-01 3.995260596275329590e-02
4.385182261466979980e-01 3.177760243415832520e-01 3.675301000475883484e-02
-7.529948651790618896e-02 5.343057513236999512e-01 1.726900637149810791e-01
3.024086952209472656e-01 3.476099967956542969e-01 -1.565831601619720459e-01
3.115858435630798340e-01 4.063175916671752930e-01 -4.974524378776550293e-01
-1.302085816860198975e-02 6.035168766975402832e-01 -3.044551014900207520e-01
1.120208054780960083e-01 4.368207156658172607e-01 -3.214597404003143311e-01
1.126857101917266846e-02 5.948896408081054688e-01 -4.498338997364044189e-01
3.016863465309143066e-01 5.084818005561828613e-01 1.628389954566955566e-01
3.575221002101898193e-01 3.161913156509399414e-01 5.655764788389205933e-02
3.722156286239624023e-01 3.424314856529235840e-01 -1.925922930240631104e-01
4.461196660995483398e-01 3.726950883865356445e-01 3.584067225456237793e-01
1.800754666328430176e-01 5.127702951431274414e-01 4.228851199150085449e-01
-2.237930893898010254e-03 5.082927942276000977e-01 -3.131684660911560059e-01
1.487467885017395020e-01 3.602105677127838135e-01 2.007635980844497681e-01
4.710526466369628906e-01 4.062090814113616943e-01 8.969590067863464355e-02
4.640597701072692871e-01 3.491853177547454834e-01 -1.791571378707885742e-01
4.458978772163391113e-02 4.251376390457153320e-01 6.065872907638549805e-01
2.998795509338378906e-01 3.522679507732391357e-01 -1.876734197139739990e-01
2.791315615177154541e-01 3.452468216419219971e-01 -9.569531679153442383e-02
1.962378919124603271e-01 4.321388602256774902e-01 -4.771605432033538818e-01
8.316053450107574463e-02 3.934999406337738037e-01 1.409533470869064331e-01
3.648202419281005859e-01 3.692328333854675293e-01 -3.521297574043273926e-01
2.602485418319702148e-01 3.320908546447753906e-01 8.426026999950408936e-02
2.492378056049346924e-01 4.661098420619964600e-01 -6.534428596496582031e-01
3.808585703372955322e-01 5.051367878913879395e-01 -3.941512405872344971e-01
4.073441028594970703e-01 4.085096418857574463e-01 3.794021904468536377e-01
-3.079061210155487061e-02 4.971667826175689697e-01 -1.297525018453598022e-01
4.957797527313232422e-01 3.573896288871765137e-01 -5.866568908095359802e-02
5.954012274742126465e-02 4.080253541469573975e-01 5.879523158073425293e-01
7.806441187858581543e-02 4.510824680328369141e-01 -3.031215667724609375e-01
3.920230269432067871e-01 4.364871978759765625e-01 3.047526478767395020e-01
2.367660701274871826e-01 3.602817058563232422e-01 7.271834015846252441e-01
1.045414358377456665e-01 3.732484579086303711e-01 3.389963805675506592e-01
1.601813435554504395e-01 4.752452075481414795e-01 -5.848263502120971680e-01
2.448361068964004517e-01 3.326382040977478027e-01 1.303229182958602905e-01
1.522948741912841797e-01 3.566277921199798584e-01 2.393859773874282837e-01
1.033878177404403687e-01 3.786151409149169922e-01 5.700188875198364258e-01
3.017661869525909424e-01 5.357506871223449707e-01 -1.003882586956024170e-01
1.570063978433609009e-01 4.343774318695068359e-01 -4.153511524200439453e-01
3.554347455501556396e-01 3.619385957717895508e-01 -3.077952861785888672e-01
3.524344265460968018e-01 3.395884037017822266e-01 -1.576001197099685669e-01
1.116307824850082397e-01 4.012247622013092041e-01 -7.921959459781646729e-02
3.238195180892944336e-01 5.268396735191345215e-01 -5.830510854721069336e-01
2.440525144338607788e-01 4.907878637313842773e-01 4.235802292823791504e-01
5.246943235397338867e-02 4.282198548316955566e-01 6.365069746971130371e-01
1.415865719318389893e-01 5.900192856788635254e-01 -5.830802321434020996e-01
2.169383019208908081e-01 5.778757929801940918e-01 -5.212556123733520508e-01
2.725369036197662354e-01 4.864281117916107178e-01 3.850555121898651123e-01
-2.250532805919647217e-02 6.024710536003112793e-01 -2.580933570861816406e-01
2.772895693778991699e-01 5.583557486534118652e-01 -4.391363859176635742e-01
3.511543869972229004e-01 3.392503559589385986e-01 6.252359151840209961e-01
2.907309830188751221e-01 4.934611320495605469e-01 2.987851798534393311e-01
3.246967792510986328e-01 4.933291971683502197e-01 -6.754644513130187988e-01
2.623404860496520996e-01 5.379664897918701172e-01 5.408173054456710815e-02
3.599309921264648438e-02 4.300239086151123047e-01 1.651881821453571320e-02
-3.412203490734100342e-02 5.512316823005676270e-01 2.986593842506408691e-01
4.950504004955291748e-02 5.603229999542236328e-01 2.920351624488830566e-01
3.418828248977661133e-01 5.098573565483093262e-01 -6.102348566055297852e-01
4.083701670169830322e-01 4.432172477245330811e-01 2.020014226436614990e-01
3.434306383132934570e-01 4.781957566738128662e-01 2.319287210702896118e-01
2.600762248039245605e-01 3.866978585720062256e-01 -3.486391901969909668e-01
4.902394413948059082e-01 3.968251943588256836e-01 -4.653181135654449463e-02
6.670612096786499023e-02 5.490247011184692383e-01 3.499482572078704834e-01
2.668174207210540771e-01 5.569458007812500000e-01 -2.007603049278259277e-01
3.722009062767028809e-01 3.099874258041381836e-01 1.231773644685745239e-01
5.969886481761932373e-02 5.406776666641235352e-01 3.977246582508087158e-01
3.943963050842285156e-01 4.641396403312683105e-01 1.227713227272033691e-01
3.890974521636962891e-01 4.031461775302886963e-01 4.553642570972442627e-01
2.351861894130706787e-01 4.095468223094940186e-01 -4.321008622646331787e-01
1.979390531778335571e-01 5.678055882453918457e-01 -2.047716826200485229e-02
1.434155255556106567e-01 3.825942873954772949e-01 -3.685991838574409485e-02
6.304657459259033203e-02 5.978121757507324219e-01 -3.135862573981285095e-02
8.770117908716201782e-02 4.242522716522216797e-01 -1.676853746175765991e-01
2.430621087551116943e-01 5.529596209526062012e-01 -6.591940522193908691e-01
1.364856064319610596e-01 4.328307509422302246e-01 -3.618863821029663086e-01
1.092439815402030945e-01 5.698207616806030273e-01 1.684493571519851685e-01
1.532645672559738159e-01 3.633622825145721436e-01 6.461991667747497559e-01
6.501030921936035156e-02 4.251258969306945801e-01 -8.503894507884979248e-02
-4.321749508380889893e-02 5.952421426773071289e-01 -1.908647716045379639e-01
1.053629145026206970e-01 5.325707197189331055e-01 4.105928540229797363e-01
4.633498787879943848e-01 3.963010907173156738e-01 -3.602319657802581787e-01
3.082505166530609131e-01 4.588514566421508789e-01 4.393510520458221436e-01
3.312728404998779297e-01 3.577269911766052246e-01 -2.637601792812347412e-01
4.454290270805358887e-01 3.171423673629760742e-01 3.352852165699005127e-01
1.193290501832962036e-01 5.741122961044311523e-01 1.163751929998397827e-01
4.460861980915069580e-01 3.120307922363281250e-01 1.741319596767425537e-01
8.590663224458694458e-02 6.090365648269653320e-01 -3.261903226375579834e-01
1.166942641139030457e-01 4.067629575729370117e-01 -1.415861397981643677e-01
6.415084004402160645e-02 3.994255661964416504e-01 1.995328962802886963e-01
2.891781628131866455e-01 3.135320842266082764e-01 5.018012523651123047e-01
2.069630324840545654e-01 4.788342714309692383e-01 -6.519699096679687500e-01
3.948615193367004395e-01 4.188434481620788574e-01 -5.327635407447814941e-01
7.191400229930877686e-02 6.005822420120239258e-01 -8.065432310104370117e-02
3.105065822601318359e-01 5.191932916641235352e-01 3.830165416002273560e-02
3.858038187026977539e-01 4.476383626461029053e-01 2.667193710803985596e-01
9.248008579015731812e-02 3.812112808227539062e-01 2.737821936607360840e-01
3.157147765159606934e-01 3.462576866149902344e-01 6.739156842231750488e-01
2.639381885528564453e-01 5.632298588752746582e-01 -4.666925966739654541e-01
-2.976790070533752441e-03 4.613380730152130127e-01 5.303838253021240234e-01
1.052682846784591675e-01 5.441250205039978027e-01 3.471026718616485596e-01
-2.190908789634704590e-02 4.795214831829071045e-01 -6.391009688377380371e-02
4.474274516105651855e-01 4.374292194843292236e-01 2.692177146673202515e-02
1.883819550275802612e-01 3.452121317386627197e-01 2.050899863243103027e-01
9.571576863527297974e-02 5.104289054870605469e-01 -5.784593224525451660e-01
1.473204344511032104e-01 5.478792786598205566e-01 -6.934732794761657715e-01
3.586708605289459229e-01 4.939903318881988525e-01 4.917615652084350586e-02
4.258325099945068359e-01 3.092477917671203613e-01 1.477704495191574097e-01
1.487326025962829590e-01 3.545763492584228516e-01 3.212781250476837158e-01
4.549778103828430176e-01 4.026741981506347656e-01 2.086150646209716797e-01
2.533661723136901855e-01 3.535188436508178711e-01 -1.102070361375808716e-01
4.294925034046173096e-01 4.683104157447814941e-01 -1.823709458112716675e-01
3.805395960807800293e-01 4.975121319293975830e-01 -5.131892561912536621e-01
9.017872810363769531e-02 3.850832283496856689e-01 2.176192253828048706e-01
7.378061115741729736e-02 5.325274467468261719e-01 4.321427047252655029e-01
3.776137530803680420e-01 5.069769620895385742e-01 -2.896510958671569824e-01
5.936340987682342529e-02 4.897035658359527588e-01 -4.310425519943237305e-01
1.026523336768150330e-01 5.273100137710571289e-01 -6.259024739265441895e-01
-3.106811642646789551e-02 5.491034388542175293e-01 -3.317193984985351562e-01
1.830612570047378540e-01 4.572081863880157471e-01 -5.574731230735778809e-01
2.408687174320220947e-01 3.253456950187683105e-01 2.761637866497039795e-01
7.600167393684387207e-02 4.409573674201965332e-01 -2.376302629709243774e-01
1.520796120166778564e-02 5.412070751190185547e-01 -4.687512218952178955e-01
1.022487729787826538e-01 6.065318584442138672e-01 -2.955632209777832031e-01
4.724126458168029785e-01 4.164995551109313965e-01 -7.900930941104888916e-04
4.857293367385864258e-01 3.373519182205200195e-01 1.600443199276924133e-02
1.552470177412033081e-01 5.881563425064086914e-01 -1.275956034660339355e-01
2.158620655536651611e-01 3.507592380046844482e-01 1.747046783566474915e-02
2.681379020214080811e-01 3.926073908805847168e-01 -3.920550942420959473e-01
4.166540801525115967e-01 3.065243363380432129e-01 3.406848013401031494e-01
4.067393541336059570e-01 3.648981451988220215e-01 -3.299431800842285156e-01
4.375923871994018555e-01 3.962461054325103760e-01 -4.219356775283813477e-01
1.782252192497253418e-01 3.436174392700195312e-01 5.311012864112854004e-01
1.099037453532218933e-01 5.956034660339355469e-01 -9.290616214275360107e-02
-6.009151041507720947e-02 5.188327431678771973e-01 3.132258951663970947e-01
3.067509531974792480e-01 3.223907649517059326e-01 7.463261485099792480e-02
-3.700852394104003906e-02 5.946803689002990723e-01 -4.346727579832077026e-02
1.860572248697280884e-01 5.315804481506347656e-01 3.045237362384796143e-01
1.193614304065704346e-01 5.885491371154785156e-01 -2.691742405295372009e-02
2.233345806598663330e-01 3.336443305015563965e-01 5.967921018600463867e-01
2.022605836391448975e-01 5.842415690422058105e-01 -4.739319682121276855e-01
2.249097377061843872e-01 5.713253617286682129e-01 -5.769686102867126465e-01
2.973351478576660156e-01 3.142660856246948242e-01 2.272862792015075684e-01
2.948098182678222656e-01 4.207292795181274414e-01 6.094511151313781738e-01
3.957711160182952881e-02 5.304912328720092773e-01 4.482138156890869141e-01
4.715548753738403320e-01 3.246050477027893066e-01 7.833455502986907959e-02
1.525864303112030029e-01 4.963085353374481201e-01 -6.333118081092834473e-01
1.816345006227493286e-01 3.961182832717895508e-01 -2.543214261531829834e-01
1.572957336902618408e-01 4.097414910793304443e-01 -2.807549536228179932e-01
1.257962584495544434e-01 4.257237911224365234e-01 -2.951546311378479004e-01
2.649988532066345215e-01 3.257410228252410889e-01 6.079977154731750488e-01
-5.174662172794342041e-02 4.862331748008728027e-01 1.565054208040237427e-01
4.859210252761840820e-01 4.085097908973693848e-01 -1.662730723619461060e-01
2.956852316856384277e-03 4.384460449218750000e-01 4.611774384975433350e-01
2.057259380817413330e-01 5.827811956405639648e-01 -3.047879934310913086e-01
3.448380529880523682e-02 6.040139198303222656e-01 -8.614127337932586670e-02
2.345681339502334595e-01 4.552733898162841797e-01 5.919582843780517578e-01
4.167661964893341064e-01 4.809173941612243652e-01 -3.130879700183868408e-01
3.196474611759185791e-01 3.766480982303619385e-01 -3.638010621070861816e-01
-4.386112093925476074e-03 4.528909325599670410e-01 5.014803409576416016e-01
4.571810364723205566e-02 6.044721603393554688e-01 -4.595350027084350586e-01
2.037565261125564575e-01 3.824753761291503906e-01 -2.152653336524963379e-01
2.812296748161315918e-01 5.562981963157653809e-01 -3.346250355243682861e-01
1.388697326183319092e-02 4.655341804027557373e-01 -1.538092494010925293e-01
2.131255269050598145e-01 3.311544656753540039e-01 5.034055709838867188e-01
1.088308617472648621e-01 4.872221648693084717e-01 5.982409715652465820e-01
2.757572531700134277e-01 5.455732345581054688e-01 -8.494080603122711182e-02
3.541195988655090332e-01 4.884051382541656494e-01 1.173738092184066772e-01
4.318166077136993408e-01 3.442075550556182861e-01 -1.983846127986907959e-01
3.046575188636779785e-01 3.088525533676147461e-01 4.155196249485015869e-01
3.650441467761993408e-01 4.850635826587677002e-01 -6.168070435523986816e-01
4.166462421417236328e-01 4.293514490127563477e-01 2.473866343498229980e-01
2.358212321996688843e-01 4.248454272747039795e-01 -5.026751756668090820e-01
3.107153475284576416e-01 5.402308106422424316e-01 -2.392246276140213013e-01
3.826504945755004883e-01 3.522217869758605957e-01 -2.609563767910003662e-01
3.325480222702026367e-02 5.003179311752319336e-01 -3.990721702575683594e-01
4.653383493423461914e-01 3.433981239795684814e-01 3.165187835693359375e-01
3.387151360511779785e-01 5.182556509971618652e-01 -9.935246407985687256e-02
6.744880974292755127e-02 3.956951797008514404e-01 2.357119917869567871e-01
2.295452356338500977e-02 5.505882501602172852e-01 3.511493206024169922e-01
-7.336884737014770508e-04 6.020273566246032715e-01 -3.736654818058013916e-01
4.668543934822082520e-01 4.339714944362640381e-01 -2.639632821083068848e-01
2.197458893060684204e-01 3.730133175849914551e-01 -1.851126700639724731e-01
5.622752010822296143e-02 3.981660902500152588e-01 4.271084964275360107e-01
4.315697550773620605e-01 4.289683401584625244e-01 1.818624734878540039e-01
-1.015058159828186035e-02 4.433891177177429199e-01 3.106230795383453369e-01
-2.864256501197814941e-03 5.922485589981079102e-01 5.300626531243324280e-02
-7.322324812412261963e-02 5.287947654724121094e-01 1.336720306426286697e-02
3.747265040874481201e-02 4.472554326057434082e-01 -1.331392675638198853e-01
3.425836563110351562e-01 3.108411431312561035e-01 1.558310240507125854e-01
1.603000760078430176e-01 4.336504638195037842e-01 7.140688896179199219e-01
1.558120548725128174e-02 4.567151069641113281e-01 5.820182561874389648e-01
3.287808597087860107e-02 5.055450797080993652e-01 5.370524525642395020e-01
3.751413226127624512e-01 3.026454448699951172e-01 3.337633907794952393e-01
3.505932092666625977e-01 3.051312565803527832e-01 4.385871589183807373e-01
1.623778045177459717e-01 3.474423289299011230e-01 4.239505827426910400e-01
6.899943947792053223e-02 6.101312637329101562e-01 -2.828279137611389160e-01
-5.100898444652557373e-02 5.807579755783081055e-01 -2.466233819723129272e-01
1.541670262813568115e-01 5.922566056251525879e-01 -5.431529283523559570e-01
1.185746490955352783e-02 4.341530501842498779e-01 1.431038677692413330e-01
2.753060162067413330e-01 3.512935042381286621e-01 -1.380091160535812378e-01
-2.926048636436462402e-02 5.343431830406188965e-01 -3.014241755008697510e-01
9.391858428716659546e-02 4.000764191150665283e-01 6.651837229728698730e-01
6.861162185668945312e-02 3.914085328578948975e-01 3.378354310989379883e-01
2.363535165786743164e-01 5.678480267524719238e-01 -1.928848326206207275e-01
1.784884631633758545e-01 3.610658347606658936e-01 4.256684333086013794e-02
1.855159252882003784e-01 4.585336744785308838e-01 6.385386586189270020e-01
2.631701231002807617e-01 4.640657603740692139e-01 5.112695693969726562e-01
4.521839022636413574e-01 4.472144246101379395e-01 -1.350272297859191895e-01
3.463610410690307617e-01 3.100568652153015137e-01 5.135204195976257324e-01
6.678709387779235840e-02 6.083095669746398926e-01 -4.260950386524200439e-01
-4.549877345561981201e-02 5.423015356063842773e-01 -2.507944703102111816e-01
6.157098710536956787e-02 5.760728120803833008e-01 1.760583221912384033e-01
2.559190392494201660e-01 3.219019770622253418e-01 5.441211462020874023e-01
1.871008872985839844e-01 3.385056257247924805e-01 4.428129196166992188e-01
1.692440658807754517e-01 3.577591776847839355e-01 1.217623949050903320e-01
3.004968166351318359e-03 6.060950160026550293e-01 -1.312614679336547852e-01
1.612137854099273682e-01 3.742025494575500488e-01 7.094972729682922363e-01
2.170175164937973022e-01 3.583897650241851807e-01 -5.977493897080421448e-02
2.572709619998931885e-01 5.646694898605346680e-01 -2.919937372207641602e-01
1.521371603012084961e-01 4.537259936332702637e-01 6.752255558967590332e-01
2.993072867393493652e-01 3.794239163398742676e-01 6.867935657501220703e-01
3.747043311595916748e-01 4.915730655193328857e-01 -1.385294459760189056e-02
-3.074858188629150391e-01 2.289893031120300293e-01 1.409372240304946899e-01
-3.805325329303741455e-01 1.877994686365127563e-01 -3.579208552837371826e-01
-3.040663897991180420e-01 2.198908030986785889e-01 -1.669301092624664307e-01
-4.162198901176452637e-01 2.015853524208068848e-01 3.428595364093780518e-01
-2.831991016864776611e-01 2.856372594833374023e-01 -2.758259475231170654e-01
-3.893476128578186035e-01 1.081631854176521301e-01 3.092176020145416260e-01
-4.517250657081604004e-01 6.373870372772216797e-02 8.216089010238647461e-02
-3.946387469768524170e-01 2.265256345272064209e-01 1.583521813154220581e-02
-3.646840751171112061e-01 1.223434209823608398e-01 -1.365929543972015381e-01
-3.990913331508636475e-01 8.744756877422332764e-02 -1.428206712007522583e-01
-3.049895167350769043e-01 2.218712270259857178e-01 -5.953744053840637207e-03
-3.736009895801544189e-01 1.106504499912261963e-01 2.326697111129760742e-03
-3.512407541275024414e-01 1.550987958908081055e-01 2.297331988811492920e-01
-4.080461263656616211e-01 1.233110427856445312e-01 -2.940118908882141113e-01
-3.000439405441284180e-01 2.978653311729431152e-01 -3.354147374629974365e-01
-4.492054283618927002e-01 1.304164975881576538e-01 3.394998013973236084e-01
-4.322698116302490234e-01 1.065443977713584900e-01 -1.480319052934646606e-01
-4.343370497226715088e-01 8.204516023397445679e-02 -1.205037981271743774e-01
-3.007568418979644775e-01 2.494533210992813110e-01 1.690597832202911377e-01
-4.256952702999114990e-01 6.414790451526641846e-02 2.029018402099609375e-01
-3.886162638664245605e-01 9.609213471412658691e-02 1.239414960145950317e-01
-3.291021287441253662e-01 1.845522522926330566e-01 -3.392867445945739746e-01
-3.425461053848266602e-01 2.248637527227401733e-01 5.022265911102294922e-01
-3.742385804653167725e-01 1.734723895788192749e-01 5.549135208129882812e-01
-3.726430535316467285e-01 2.661287784576416016e-01 3.504914343357086182e-01
-4.455845057964324951e-01 1.403320729732513428e-01 3.107556700706481934e-01
-3.822082579135894775e-01 2.192236781120300293e-01 -2.191853225231170654e-01
-3.866186738014221191e-01 2.482261061668395996e-01 1.895959079265594482e-01
-4.317378103733062744e-01 1.680506169795989990e-01 1.797587871551513672e-01
-2.804154753684997559e-01 3.302734792232513428e-01 -7.732754945755004883e-02
-3.453696668148040771e-01 1.483448296785354614e-01 -1.315792053937911987e-01
-3.022964596748352051e-01 3.042728900909423828e-01 3.072232902050018311e-01
-3.537762165069580078e-01 2.730414271354675293e-01 4.797602593898773193e-01
-3.264630436897277832e-01 3.118784427642822266e-01 -6.191837787628173828e-02
-4.473820328712463379e-01 1.137006059288978577e-01 5.598823726177215576e-02
-3.423072099685668945e-01 1.568266749382019043e-01 5.783529207110404968e-02
-3.410319387912750244e-01 2.877505421638488770e-01 4.375549852848052979e-01
-4.263136386871337891e-01 1.824299693107604980e-01 3.673616349697113037e-01
-3.696564435958862305e-01 1.384247243404388428e-01 3.381126224994659424e-01
-4.271391034126281738e-01 1.489340364933013916e-01 -7.810062170028686523e-02
-2.796462178230285645e-01 3.255933523178100586e-01 2.461343258619308472e-02
-4.273777008056640625e-01 1.285160183906555176e-01 5.932345390319824219e-01
-2.954447269439697266e-01 2.402765750885009766e-01 -7.015745341777801514e-02
-3.650986850261688232e-01 1.658555269241333008e-01 4.635407924652099609e-01
-3.280270099639892578e-01 2.063922137022018433e-01 2.999288439750671387e-01
-3.130962550640106201e-01 2.409022301435470581e-01 2.973477840423583984e-01
-3.754136860370635986e-01 1.900941431522369385e-01 5.978232026100158691e-01
-4.320688247680664062e-01 1.617978513240814209e-01 1.041734963655471802e-01
-3.430633842945098877e-01 2.763122022151947021e-01 -2.325823605060577393e-01
-4.249854981899261475e-01 1.682178676128387451e-01 1.386655122041702271e-02
-3.427668213844299316e-01 2.895037531852722168e-01 -1.204352676868438721e-01
-4.579451978206634521e-01 9.614410996437072754e-02 2.258735001087188721e-01
-3.162799179553985596e-01 3.145186305046081543e-01 -1.493627130985260010e-01
-3.386311233043670654e-01 3.071530163288116455e-01 1.811052262783050537e-01
-3.271130025386810303e-01 2.998469769954681396e-01 3.942430615425109863e-01
-4.011760652065277100e-01 1.021106690168380737e-01 3.829725682735443115e-01
-4.385600388050079346e-01 1.571378707885742188e-01 3.475675284862518311e-01
-3.322770893573760986e-01 2.507326602935791016e-01 4.821167886257171631e-01
-3.346123695373535156e-01 1.805391609668731689e-01 -3.703724741935729980e-01
-3.220838308334350586e-01 2.734273672103881836e-01 -3.768297731876373291e-01
-4.099888205528259277e-01 1.712176054716110229e-01 -1.763718128204345703e-01
-2.953901886940002441e-01 2.582893967628479004e-01 -3.547314405441284180e-01
-4.364776611328125000e-01 1.617317646741867065e-01 2.889105081558227539e-01
-2.970423102378845215e-01 3.330407142639160156e-01 1.272106319665908813e-01
-3.917557001113891602e-01 1.318594664335250854e-01 4.971341490745544434e-01
-3.134625852108001709e-01 2.238211035728454590e-01 2.061925232410430908e-01
-3.004025816917419434e-01 2.355461865663528442e-01 4.332872107625007629e-02
-4.368176460266113281e-01 1.124038621783256531e-01 -9.530179202556610107e-02
-4.582054913043975830e-01 7.872529327869415283e-02 1.604809612035751343e-01
-3.440605401992797852e-01 1.552239209413528442e-01 -2.625522613525390625e-01
-4.591884016990661621e-01 7.482030987739562988e-02 1.934955716133117676e-01
-3.815636932849884033e-01 1.254203319549560547e-01 3.705960512161254883e-01
-4.502116143703460693e-01 1.083927303552627563e-01 4.801574051380157471e-01
-3.260046243667602539e-01 2.908899784088134766e-01 -2.688610255718231201e-01
-3.282377421855926514e-01 1.769502311944961548e-01 -2.218323349952697754e-01
-4.056835174560546875e-01 7.684981822967529297e-02 -1.222122460603713989e-02
-3.073920309543609619e-01 2.508276104927062988e-01 -4.194987416267395020e-01
-2.973703444004058838e-01 2.356980144977569580e-01 -2.182500064373016357e-01
-3.362084329128265381e-01 1.987238079309463501e-01 3.534530997276306152e-01
-3.093888163566589355e-01 2.657413184642791748e-01 3.405965268611907959e-01
-2.786135077476501465e-01 2.967352271080017090e-01 -1.784248650074005127e-02
-4.459469318389892578e-01 1.339091211557388306e-01 4.405370354652404785e-01
-4.182412326335906982e-01 8.966023474931716919e-02 -2.046385109424591064e-01
-3.647134006023406982e-01 1.344429403543472290e-01 -3.110212087631225586e-01
-3.999972641468048096e-01 1.313958615064620972e-01 -3.288208246231079102e-01
-3.907466828823089600e-01 1.781904846429824829e-01 -3.181560933589935303e-01
-4.247026443481445312e-01 9.170087426900863647e-02 4.710995256900787354e-01
-3.124939799308776855e-01 2.131896913051605225e-01 -3.351566493511199951e-01
-4.112575054168701172e-01 1.388626098632812500e-01 -2.644267678260803223e-01
-4.112682938575744629e-01 1.944239884614944458e-01 5.493642091751098633e-01
-3.678848147392272949e-01 2.312863469123840332e-01 -2.869801223278045654e-01
-4.593655467033386230e-01 9.141603112220764160e-02 2.964875996112823486e-01
-3.396537899971008301e-01 1.637734174728393555e-01 -2.920965254306793213e-01
-4.003309309482574463e-01 9.080732613801956177e-02 2.593116462230682373e-01
-4.136338531970977783e-01 8.250985294580459595e-02 3.235746622085571289e-01
-2.920328676700592041e-01 3.351034522056579590e-01 -4.385423660278320312e-02
-3.216397464275360107e-01 2.041441202163696289e-01 -3.850088417530059814e-01
-3.838271200656890869e-01 2.528014183044433594e-01 3.036138415336608887e-01
-3.759648501873016357e-01 2.562933266162872314e-01 2.181173861026763916e-02
-3.188953101634979248e-01 1.953246146440505981e-01 1.793780922889709473e-02
-3.717179298400878906e-01 2.520882785320281982e-01 -1.020006090402603149e-01
-3.498495519161224365e-01 2.750581800937652588e-01 -1.736626625061035156e-01
-3.455680608749389648e-01 2.437125444412231445e-01 -3.824994862079620361e-01
-3.044923245906829834e-01 2.587274014949798584e-01 2.678067684173583984e-01
-2.800917625427246094e-01 3.103808462619781494e-01 6.413699686527252197e-02
-3.157061934471130371e-01 2.713273167610168457e-01 3.997990787029266357e-01
-4.109646677970886230e-01 1.889280825853347778e-01 -5.793944001197814941e-02
-4.116539061069488525e-01 1.919781714677810669e-01 -2.166086435317993164e-02
-3.588273823261260986e-01 2.302415072917938232e-01 -3.568780124187469482e-01
-3.781352341175079346e-01 2.446692436933517456e-01 5.193630456924438477e-01
-4.041980504989624023e-01 2.120260745286941528e-01 5.055098533630371094e-01
-3.438799977302551270e-01 3.012053370475769043e-01 2.418168634176254272e-01
-3.524098396301269531e-01 1.672817021608352661e-01 3.465801477432250977e-01
-3.973142504692077637e-01 2.287200987339019775e-01 1.149437278509140015e-01
-3.241342306137084961e-01 3.199080526828765869e-01 9.083341062068939209e-02
-3.122771382331848145e-01 2.217274904251098633e-01 1.702329367399215698e-01
-4.426155984401702881e-01 1.415092945098876953e-01 1.642595678567886353e-01
-3.803844153881072998e-01 1.022911816835403442e-01 -3.393649309873580933e-02
-3.501777052879333496e-01 2.949067056179046631e-01 1.468556225299835205e-01
-3.866632878780364990e-01 2.398440986871719360e-01 4.771795272827148438e-01
-3.276570439338684082e-01 1.767906844615936279e-01 -1.878719925880432129e-01
-4.036923348903656006e-01 8.127518743276596069e-02 1.598779261112213135e-01
-3.849484622478485107e-01 9.772681444883346558e-02 -7.839277386665344238e-02
-3.338819146156311035e-01 2.308085262775421143e-01 4.575490653514862061e-01
-2.892110347747802734e-01 2.742847204208374023e-01 1.101346164941787720e-01
-4.479955732822418213e-01 1.333085298538208008e-01 2.739267945289611816e-01
-2.762171924114227295e-01 3.053457736968994141e-01 -1.383742690086364746e-01
-3.551944196224212646e-01 2.570917606353759766e-01 -2.517993748188018799e-01
-2.912978827953338623e-01 2.759470343589782715e-01 1.550215035676956177e-01
-3.806689083576202393e-01 2.439183741807937622e-01 -4.493522644042968750e-02
-4.261579215526580811e-01 1.370840072631835938e-01 -1.396646648645401001e-01
-3.307818770408630371e-01 2.783243954181671143e-01 -3.127830028533935547e-01
-2.859731316566467285e-01 2.641194462776184082e-01 -9.441980719566345215e-02
-3.659555315971374512e-01 2.737051844596862793e-01 8.450731635093688965e-02
-3.986523449420928955e-01 1.677996516227722168e-01 -2.905657291412353516e-01
-4.238736927509307861e-01 1.869918555021286011e-01 2.523196339607238770e-01
-3.010470271110534668e-01 3.198138177394866943e-01 -2.044103741645812988e-01
-3.676508367061614990e-01 1.243730559945106506e-01 1.533459872007369995e-01
-3.622581958770751953e-01 2.812129855155944824e-01 1.918492913246154785e-01
-3.218330442905426025e-01 1.861684918403625488e-01 -9.967780113220214844e-02
-4.063005745410919189e-01 7.972052693367004395e-02 -1.035778820514678955e-01
-4.217229783535003662e-01 1.861450225114822388e-01 1.371290236711502075e-01
-3.650908172130584717e-01 1.230165138840675354e-01 -1.721733212471008301e-01
-3.993980288505554199e-01 8.992828428745269775e-02 -1.765149235725402832e-01
-3.691637217998504639e-01 1.347773820161819458e-01 3.007250130176544189e-01
-3.948267698287963867e-01 2.369551658630371094e-01 2.600832879543304443e-01
-3.931046128273010254e-01 2.370346635580062866e-01 3.937188684940338135e-01
-3.687328994274139404e-01 2.720493674278259277e-01 1.422095596790313721e-01
-3.700101375579833984e-01 2.715139091014862061e-01 2.674004137516021729e-01
-3.926363289356231689e-01 2.346634715795516968e-01 8.519318699836730957e-02
-3.553989827632904053e-01 1.501176506280899048e-01 -3.494017124176025391e-01
-2.949877083301544189e-01 3.060422837734222412e-01 -3.040810525417327881e-01
-3.013555407524108887e-01 2.516011893749237061e-01 -3.889952898025512695e-01
-3.534500300884246826e-01 2.832357883453369141e-01 -3.480900824069976807e-02
-3.010351061820983887e-01 3.249154984951019287e-01 2.238583266735076904e-01
-3.376992940902709961e-01 1.659899950027465820e-01 8.701407164335250854e-02
-4.365532100200653076e-01 5.977873504161834717e-02 2.448839694261550903e-01
-4.148408770561218262e-01 1.061748713254928589e-01 -2.531634271144866943e-01
-2.909340262413024902e-01 2.591361999511718750e-01 -2.976462841033935547e-01
-3.096227049827575684e-01 2.122955322265625000e-01 -2.661098241806030273e-01
-3.570658862590789795e-01 1.330178380012512207e-01 1.857458055019378662e-02
-3.208729922771453857e-01 1.876995116472244263e-01 -1.411932259798049927e-01
-3.434824049472808838e-01 2.341969013214111328e-01 -4.199081659317016602e-01
-3.346695601940155029e-01 1.772751212120056152e-01 1.669081151485443115e-01
-3.097812831401824951e-01 3.289037942886352539e-01 5.631811916828155518e-03
-4.153299629688262939e-01 1.648356318473815918e-01 -1.466528028249740601e-01
-3.678993880748748779e-01 1.192163676023483276e-01 5.296538770198822021e-02
-3.715302348136901855e-01 2.697035670280456543e-01 2.245901823043823242e-01
