-3.113733232021331787e-01 1.302550882101058960e-01 3.134649246931076050e-02
-1.668414622545242310e-01 2.531688511371612549e-01 4.402909874916076660e-01
-3.519340753555297852e-01 1.876000165939331055e-01 3.944737017154693604e-01
-1.846314072608947754e-01 1.305728554725646973e-01 -7.013573646545410156e-01
-2.517605721950531006e-01 1.823437809944152832e-01 5.839371681213378906e-01
-1.137705445289611816e-01 2.091485559940338135e-01 6.531796455383300781e-01
-2.168134748935699463e-01 1.107743531465530396e-01 -2.175315320491790771e-01
-4.584363102912902832e-02 2.302550524473190308e-01 -4.042198359966278076e-01
-3.329347372055053711e-01 1.392039358615875244e-01 9.386046975851058960e-02
-2.089115381240844727e-01 2.575411796569824219e-01 3.595726788043975830e-01
-1.042176783084869385e-01 1.464609950780868530e-01 4.441892504692077637e-01
-1.615383923053741455e-01 1.087510138750076294e-01 -2.522405683994293213e-01
-1.030437573790550232e-01 1.598592549562454224e-01 -7.720059156417846680e-01
-3.279033303260803223e-01 1.893655359745025635e-01 4.662873148918151855e-01
-1.976870149374008179e-01 1.225544437766075134e-01 1.786012053489685059e-01
-2.098900973796844482e-01 1.402638107538223267e-01 3.831852376461029053e-01
-2.270476967096328735e-01 2.412086278200149536e-01 5.306302905082702637e-01
-3.259778022766113281e-01 2.501924037933349609e-01 1.038592979311943054e-01
-3.115827143192291260e-01 2.518125772476196289e-01 1.792712807655334473e-01
-3.308871388435363770e-02 2.472430169582366943e-01 1.901538074016571045e-01
-1.559415906667709351e-01 2.256228774785995483e-01 6.346759796142578125e-01
-3.786457479000091553e-01 2.192049920558929443e-01 -3.634041845798492432e-01
-3.190186619758605957e-02 1.206522285938262939e-01 -2.342494726181030273e-01
6.977021694183349609e-02 1.861018240451812744e-01 1.154429093003273010e-01
-1.392879933118820190e-01 1.445425450801849365e-01 4.438388347625732422e-01
-2.622016072273254395e-01 2.457302361726760864e-01 -3.802123069763183594e-01
3.683522343635559082e-02 1.638490259647369385e-01 2.597208321094512939e-01
-3.923617601394653320e-01 2.191791385412216187e-01 -2.773762047290802002e-01
-3.666142523288726807e-01 2.343819141387939453e-01 -2.130708694458007812e-01
-1.509522795677185059e-01 1.258238404989242554e-01 2.474035620689392090e-01
-2.488966286182403564e-01 2.578778564929962158e-01 -1.640342772006988525e-01
-5.206570029258728027e-02 1.830100119113922119e-01 -6.893162131309509277e-01
-1.578253209590911865e-01 1.626670658588409424e-01 -8.143890500068664551e-01
-2.734257280826568604e-02 1.887120455503463745e-01 -6.237311959266662598e-01
-3.237342238426208496e-01 2.424364387989044189e-01 3.090764880180358887e-01
-2.727641165256500244e-01 1.292542666196823120e-01 -5.993636846542358398e-01
-7.111289352178573608e-02 2.540441453456878662e-01 -4.382595047354698181e-02
-3.875154256820678711e-01 2.026121765375137329e-01 -4.456341266632080078e-01
-1.921604722738265991e-01 2.337037324905395508e-01 -5.544121265411376953e-01
-1.954208165407180786e-01 2.553533911705017090e-01 4.057304561138153076e-01
-1.061085835099220276e-01 1.155955046415328979e-01 3.153052181005477905e-02
-5.782425403594970703e-03 2.403948754072189331e-01 9.149685502052307129e-04
3.225059807300567627e-02 1.906412839889526367e-01 3.759254217147827148e-01
-2.583469152450561523e-01 1.252941787242889404e-01 1.236105635762214661e-01
-3.075157403945922852e-01 2.472761124372482300e-01 3.041210472583770752e-01
-1.144449561834335327e-01 2.321256399154663086e-01 -5.183468461036682129e-01
-4.707090556621551514e-02 2.503584325313568115e-01 -1.174643635749816895e-02
-3.449233770370483398e-01 1.354629695415496826e-01 -3.880084156990051270e-01
-7.184892892837524414e-03 1.262916773557662964e-01 -2.019242048263549805e-01
-3.072066009044647217e-01 1.230088099837303162e-01 -2.465765774250030518e-01
-1.869686990976333618e-01 1.094916537404060364e-01 -1.807720959186553955e-01
-3.791705369949340820e-01 1.479089409112930298e-01 -3.354135453701019287e-01
-2.163322418928146362e-01 2.613259255886077881e-01 2.583632171154022217e-01
-3.075368702411651611e-02 2.473157495260238647e-01 1.498652994632720947e-01
-2.182052433490753174e-01 1.247873902320861816e-01 1.903718709945678711e-01
-1.924258172512054443e-01 2.596475481986999512e-01 -1.702571511268615723e-01
-3.026821017265319824e-01 2.549795210361480713e-01 1.035276278853416443e-01
-3.239382505416870117e-01 2.357878386974334717e-01 3.791773915290832520e-01
-1.777242869138717651e-01 1.185082420706748962e-01 -5.748159885406494141e-01
-1.867347210645675659e-01 1.109613999724388123e-01 -8.894458413124084473e-02
-1.665982604026794434e-02 2.414125502109527588e-01 2.428440749645233154e-01
-2.665095329284667969e-01 1.418245583772659302e-01 3.225045800209045410e-01
-1.128051057457923889e-01 2.084449082612991333e-01 -6.850820779800415039e-01
-2.972512841224670410e-01 2.054600268602371216e-01 5.477806925773620605e-01
5.433890223503112793e-02 1.795080900192260742e-01 2.433237731456756592e-01
-2.298886179924011230e-01 2.161833941936492920e-01 -6.787884235382080078e-01
-2.941001057624816895e-01 2.039267718791961670e-01 -6.848807334899902344e-01
-6.911921501159667969e-02 1.673819720745086670e-01 5.408117771148681641e-01
-1.648275256156921387e-01 1.379903852939605713e-01 3.856596350669860840e-01
-3.139401078224182129e-01 2.367289662361145020e-01 -4.000529944896697998e-01
-1.518977284431457520e-01 1.629454344511032104e-01 5.650776028633117676e-01
-2.210074961185455322e-01 1.116625741124153137e-01 -3.442736566066741943e-01
-1.019103080034255981e-01 2.449087947607040405e-01 -3.494633138179779053e-01
-2.885611355304718018e-01 2.570448815822601318e-01 -2.346918731927871704e-02
-4.123200178146362305e-01 1.768437176942825317e-01 2.276859432458877563e-02
-2.507371306419372559e-01 2.504962086677551270e-01 -3.211339116096496582e-01
-1.473369598388671875e-01 1.279995739459991455e-01 -6.733534336090087891e-01
-2.735101282596588135e-01 2.594734430313110352e-01 7.323751598596572876e-02
-5.449336022138595581e-02 2.526509463787078857e-01 7.007019966840744019e-02
-6.425336003303527832e-02 1.581890732049942017e-01 4.865106940269470215e-01
-2.717815637588500977e-01 2.544758319854736328e-01 2.994740009307861328e-01
-2.900529205799102783e-01 1.317745447158813477e-01 1.423266232013702393e-01
2.223840355873107910e-02 1.454853117465972900e-01 1.478707194328308105e-01
-8.938641101121902466e-02 2.107743024826049805e-01 6.323911547660827637e-01
-3.088881373405456543e-01 2.525981366634368896e-01 -9.665781259536743164e-02
-4.177926480770111084e-01 2.045405358076095581e-01 -1.745594143867492676e-01
-2.360989451408386230e-01 2.605869174003601074e-01 2.419162988662719727e-01
-3.018644750118255615e-01 1.259199082851409912e-01 -2.415734902024269104e-02
-2.836877703666687012e-01 1.235465332865715027e-01 4.145264625549316406e-03
-3.143233954906463623e-01 2.530263364315032959e-01 7.561635226011276245e-02
1.309707760810852051e-02 1.388261616230010986e-01 9.342206269502639771e-02
8.120536804199218750e-04 1.397852450609207153e-01 -4.534535109996795654e-01
-3.266032934188842773e-01 1.295223832130432129e-01 -3.785944283008575439e-01
-1.828454732894897461e-01 2.574943006038665771e-01 -2.224237918853759766e-01
-7.741336524486541748e-02 2.494218945503234863e-01 -2.092155814170837402e-01
-8.913239091634750366e-02 2.563551068305969238e-01 2.443096637725830078e-01
-2.358426153659820557e-01 1.353979408740997314e-01 3.046515285968780518e-01
-3.118841946125030518e-01 2.528562843799591064e-01 1.301991045475006104e-01
-4.190567433834075928e-01 1.867957562208175659e-01 1.701943576335906982e-03
4.703372716903686523e-02 1.787289232015609741e-01 -3.754265904426574707e-01
-1.422404944896697998e-01 1.090066954493522644e-01 -2.598997950553894043e-01
-3.472107648849487305e-01 2.391599118709564209e-01 2.387540042400360107e-01
-1.706691384315490723e-01 1.226679980754852295e-01 1.979515254497528076e-01
-3.968115448951721191e-01 2.220986783504486084e-01 8.659813553094863892e-02
-3.602831959724426270e-01 1.939364969730377197e-01 3.791412115097045898e-01
-5.899068713188171387e-02 2.453586608171463013e-01 -2.271877527236938477e-01
-1.826271414756774902e-03 1.427638977766036987e-01 -4.914924502372741699e-01
-1.015643551945686340e-01 1.916511952877044678e-01 6.407300233840942383e-01
-3.760062158107757568e-02 1.550073325634002686e-01 4.249565005302429199e-01
-3.539299964904785156e-01 1.426464766263961792e-01 3.564197570085525513e-02
-2.404243946075439453e-01 1.162141412496566772e-01 -4.555729329586029053e-01
-2.272429168224334717e-01 1.116914227604866028e-01 -3.026181161403656006e-01
-1.494722217321395874e-01 2.450805753469467163e-01 5.226545333862304688e-01
-8.615561574697494507e-02 1.623288542032241821e-01 5.332981944084167480e-01
-9.686427563428878784e-02 2.215649634599685669e-01 -5.839185714721679688e-01
4.449696838855743408e-02 2.181063443422317505e-01 -7.093903422355651855e-02
-7.739207893610000610e-02 1.165046170353889465e-01 -4.032131731510162354e-01
-2.157500833272933960e-01 2.621158063411712646e-01 2.304160594940185547e-01
1.930588483810424805e-02 1.346850395202636719e-01 -1.078454852104187012e-01
-2.689976394176483154e-01 2.110488265752792358e-01 5.910562872886657715e-01
-1.311230063438415527e-01 1.398941874504089355e-01 -7.400199174880981445e-01
-6.887590140104293823e-02 1.145108714699745178e-01 -1.788926720619201660e-01
-2.899077832698822021e-01 1.262596398591995239e-01 4.156660288572311401e-02
-3.143445551395416260e-01 2.528311610221862793e-01 -2.381175756454467773e-02
1.058085262775421143e-02 2.171766608953475952e-01 -3.401733934879302979e-01
-1.306721270084381104e-01 1.408773660659790039e-01 4.104759693145751953e-01
-2.636525630950927734e-01 2.416880726814270020e-01 -4.322200119495391846e-01
-6.655164808034896851e-02 2.547116279602050781e-01 1.326270997524261475e-01
-1.230463013052940369e-01 2.283956110477447510e-01 -5.618222355842590332e-01
8.403584361076354980e-03 1.742515414953231812e-01 4.210416078567504883e-01
4.122689366340637207e-03 1.319437026977539062e-01 -3.094251751899719238e-01
3.735156357288360596e-02 1.898905038833618164e-01 3.531740903854370117e-01
-2.347590029239654541e-01 1.332367360591888428e-01 2.813304066658020020e-01
-4.143092036247253418e-02 2.488675564527511597e-01 -2.945721521973609924e-02
-1.445916742086410522e-01 2.579655349254608154e-01 3.458505272865295410e-01
-4.028324484825134277e-01 2.159598618745803833e-01 -2.259809970855712891e-01
-3.490451574325561523e-01 1.897472143173217773e-01 -6.254126429557800293e-01
-2.851242125034332275e-01 2.507273554801940918e-01 3.272019326686859131e-01
-1.458689719438552856e-01 1.104652285575866699e-01 -3.809784352779388428e-01
-1.757269501686096191e-01 1.306011080741882324e-01 3.035739660263061523e-01
-2.122379392385482788e-01 2.605659961700439453e-01 -1.358580887317657471e-01
-1.796092689037322998e-01 2.495736777782440186e-01 4.839514493942260742e-01
2.409180998802185059e-02 1.368185579776763916e-01 -7.856221497058868408e-02
-2.117317467927932739e-01 2.541539072990417480e-01 4.129694998264312744e-01
-3.685184121131896973e-01 2.168393284082412720e-01 3.238961398601531982e-01
-2.675182223320007324e-01 1.316286027431488037e-01 2.007501125335693359e-01
-1.026175320148468018e-01 2.494895160198211670e-01 -2.767157256603240967e-01
-2.075891643762588501e-01 2.595212161540985107e-01 3.190231621265411377e-01
-1.520861685276031494e-01 2.616366744041442871e-01 2.522447109222412109e-01
-5.255679041147232056e-02 1.942262798547744751e-01 -6.595006585121154785e-01
-3.640293776988983154e-01 1.439650207757949829e-01 -1.374642550945281982e-02
-2.165507972240447998e-01 2.207604199647903442e-01 -6.543728709220886230e-01
1.256848871707916260e-02 1.813864260911941528e-01 -5.260153412818908691e-01
2.012357115745544434e-02 2.281394451856613159e-01 2.308077216148376465e-01
-8.722838759422302246e-02 2.127730846405029297e-01 -6.291081905364990234e-01
-3.606061935424804688e-01 2.409544587135314941e-01 -5.141429975628852844e-02
-1.864059269428253174e-01 1.488059461116790771e-01 -7.935029268264770508e-01
-2.342509627342224121e-01 2.079572528600692749e-01 -7.210904955863952637e-01
-3.636076152324676514e-01 1.507242619991302490e-01 1.038820967078208923e-01
-1.976527869701385498e-01 2.395171523094177246e-01 5.625855326652526855e-01
-2.465422451496124268e-01 2.466211169958114624e-01 -3.862476944923400879e-01
-1.376759856939315796e-01 1.632322669029235840e-01 -8.047553300857543945e-01
-1.224171668291091919e-01 1.300143450498580933e-01 2.936737537384033203e-01
-1.156093850731849670e-01 2.587757110595703125e-01 -8.052662760019302368e-02
-2.810080647468566895e-01 1.358038038015365601e-01 2.240858376026153564e-01
9.959205985069274902e-03 2.252960801124572754e-01 3.406195044517517090e-01
-2.026985585689544678e-02 1.382628232240676880e-01 -5.254441499710083008e-01
2.757608890533447266e-03 2.361602336168289185e-01 2.100167274475097656e-01
-1.256826817989349365e-01 2.570868730545043945e-01 3.373101949691772461e-01
-1.565365493297576904e-01 2.322847843170166016e-01 6.081567406654357910e-01
-1.748909056186676025e-01 2.539342045783996582e-01 -2.918846309185028076e-01
1.134072244167327881e-02 1.471759676933288574e-01 2.223150134086608887e-01
-3.982389569282531738e-01 1.572049856185913086e-01 -2.687936723232269287e-01
-8.125696331262588501e-02 1.140957772731781006e-01 -3.336514234542846680e-01
-2.875652909278869629e-01 1.434649080038070679e-01 2.953349947929382324e-01
-1.309496760368347168e-01 2.389291524887084961e-01 -4.676477611064910889e-01
-6.445255875587463379e-02 2.370049357414245605e-01 -3.738502860069274902e-01
-1.171269565820693970e-01 2.489847242832183838e-01 4.563780426979064941e-01
-3.501858711242675781e-01 2.388957887887954712e-01 -2.279640734195709229e-01
-3.644610643386840820e-01 1.623358279466629028e-01 2.215343415737152100e-01
-9.190144389867782593e-02 1.121672391891479492e-01 -1.601071059703826904e-01
-4.061278104782104492e-01 2.054063677787780762e-01 -3.131432235240936279e-01
-2.009126991033554077e-01 2.585004270076751709e-01 -1.994756758213043213e-01
-5.405387282371520996e-02 1.385978311300277710e-01 3.128050267696380615e-01
-2.891433835029602051e-01 2.477240562438964844e-01 -2.982196211814880371e-01
-1.150829046964645386e-01 2.596129179000854492e-01 2.318189144134521484e-01
-1.399914026260375977e-01 2.597379982471466064e-01 2.951198518276214600e-01
-2.849321663379669189e-01 1.209303140640258789e-01 -8.272496610879898071e-02
-2.384092658758163452e-01 2.627089619636535645e-01 8.280969411134719849e-02
1.002140343189239502e-02 1.420948356389999390e-01 1.635822355747222900e-01
-3.625397086143493652e-01 2.243501394987106323e-01 -3.840888142585754395e-01
6.910052895545959473e-02 1.692113429307937622e-01 2.799995243549346924e-02
-2.518267035484313965e-01 1.259908676147460938e-01 1.507299244403839111e-01
-3.651481270790100098e-01 1.429300904273986816e-01 -4.963287711143493652e-02
-3.644262552261352539e-01 1.484784483909606934e-01 6.646505743265151978e-02
-2.628206312656402588e-01 1.203661710023880005e-01 6.374768912792205811e-03
-2.882723808288574219e-01 1.248588711023330688e-01 -4.891293644905090332e-01
-2.916339933872222900e-01 2.570591866970062256e-01 5.076507478952407837e-02
-1.672761142253875732e-01 2.641148567199707031e-01 8.733204752206802368e-02
-3.943116068840026855e-01 2.087924927473068237e-01 2.161248028278350830e-01
-1.573988944292068481e-01 1.120483204722404480e-01 -2.696289122104644775e-02
-3.430669307708740234e-01 1.341150701045989990e-01 -3.666585385799407959e-01
7.167589664459228516e-02 1.840736269950866699e-01 8.361146599054336548e-02
-6.254447251558303833e-02 2.262301146984100342e-01 5.529965162277221680e-01
-2.246874868869781494e-01 1.154374033212661743e-01 -1.156368851661682129e-02
-1.782200634479522705e-01 2.635165452957153320e-01 -1.444921642541885376e-02
-1.049215495586395264e-01 2.535436153411865234e-01 -2.000955641269683838e-01
-2.940903604030609131e-01 1.249260678887367249e-01 -4.656724929809570312e-01
-1.460446715354919434e-01 1.139341741800308228e-01 2.709948271512985229e-02
-2.224135398864746094e-01 1.115084514021873474e-01 -3.241917490959167480e-01
-4.891386628150939941e-02 1.893516927957534790e-01 5.811160206794738770e-01
-2.534637749195098877e-01 2.061476409435272217e-01 6.141465902328491211e-01
-1.839321851730346680e-01 2.393362820148468018e-01 -4.970257580280303955e-01
-3.490214943885803223e-01 2.395923137664794922e-01 2.200816571712493896e-01
-7.911894470453262329e-02 2.230513989925384521e-01 -5.447011590003967285e-01
-3.270251154899597168e-01 2.483723908662796021e-01 1.732576787471771240e-01
-2.481251955032348633e-02 1.227675974369049072e-01 -2.766634523868560791e-01
-1.441081315279006958e-01 1.183985248208045959e-01 1.266132295131683350e-01
-2.174115777015686035e-01 1.663679629564285278e-01 5.564209818840026855e-01
-1.581898033618927002e-01 1.599415689706802368e-01 5.488674044609069824e-01
-1.392830014228820801e-01 1.091725230216979980e-01 -1.974035799503326416e-01
-3.957349359989166260e-01 1.777903139591217041e-01 -4.566014111042022705e-01
-8.594331145286560059e-02 1.804209202527999878e-01 -7.473230957984924316e-01
-6.398910284042358398e-02 2.403807193040847778e-01 -3.266786932945251465e-01
-2.012880742549896240e-01 2.589450180530548096e-01 3.371679782867431641e-01
-1.190030872821807861e-01 1.340601891279220581e-01 3.384208977222442627e-01
-2.093932926654815674e-01 2.108674943447113037e-01 -7.146028876304626465e-01
-2.846440076828002930e-01 1.187270134687423706e-01 -2.681863009929656982e-01
-1.187514439225196838e-01 1.482079923152923584e-01 4.659246206283569336e-01
-7.120797783136367798e-02 2.458853870630264282e-01 -2.588202655315399170e-01
-3.619270324707031250e-01 2.318232655525207520e-01 2.504355609416961670e-01
-2.660480439662933350e-01 1.438457518815994263e-01 -7.232211232185363770e-01
1.526530086994171143e-02 1.873939931392669678e-01 4.349005222320556641e-01
-1.417300105094909668e-02 1.252141892910003662e-01 -8.472147583961486816e-02
-1.672492772340774536e-01 1.411567777395248413e-01 4.143881499767303467e-01
-3.286868333816528320e-01 1.473656892776489258e-01 2.188643813133239746e-01
-6.760647892951965332e-02 1.250644624233245850e-01 -5.316098928451538086e-01
-2.780991196632385254e-01 2.247480005025863647e-01 -5.812225341796875000e-01
3.531748056411743164e-02 1.605528891086578369e-01 -4.176294505596160889e-01
-1.850918680429458618e-01 2.520675063133239746e-01 4.544077515602111816e-01
-3.199370503425598145e-01 1.334266662597656250e-01 -5.034815669059753418e-01
-4.137390851974487305e-01 1.813242584466934204e-01 4.099453985691070557e-02
-2.691054344177246094e-01 1.323259025812149048e-01 -6.385244131088256836e-01
2.568063139915466309e-02 2.287044525146484375e-01 1.410180330276489258e-01
-4.081336259841918945e-01 2.152566164731979370e-01 3.010927885770797729e-02
7.187664508819580078e-03 2.115452289581298828e-01 4.392319917678833008e-01
-3.768458664417266846e-01 1.955691426992416382e-01 -5.210329294204711914e-01
-1.911670118570327759e-01 1.888850778341293335e-01 -7.987316250801086426e-01
-1.056955978274345398e-01 1.111866459250450134e-01 -1.494436860084533691e-01
-2.024361789226531982e-01 1.193547993898391724e-01 1.173988357186317444e-01
-2.074435055255889893e-01 1.279985010623931885e-01 -6.724575757980346680e-01
-2.281630337238311768e-01 1.279874742031097412e-01 2.233401834964752197e-01
-3.715349733829498291e-02 1.200080066919326782e-01 -1.122608333826065063e-01
-1.286798715591430664e-02 2.387563288211822510e-01 -1.345400512218475342e-01
-3.511027991771697998e-02 1.370942145586013794e-01 -5.635907649993896484e-01
-3.067799508571624756e-01 1.561660170555114746e-01 -7.058994174003601074e-01
-3.251102566719055176e-01 2.283310294151306152e-01 -4.651947319507598877e-01
-1.687913388013839722e-01 1.366910487413406372e-01 -7.408190965652465820e-01
-1.303440481424331665e-01 2.623088955879211426e-01 8.829378336668014526e-02
-2.286032438278198242e-01 1.214117035269737244e-01 1.171264126896858215e-01
-3.013250827789306641e-01 2.513788044452667236e-01 -1.799518913030624390e-01
-1.439130902290344238e-01 2.590763866901397705e-01 -1.441271901130676270e-01
3.291177749633789062e-02 1.417427361011505127e-01 -2.407735884189605713e-01
-2.348926514387130737e-01 2.606270313262939453e-01 -1.019919738173484802e-01
-5.233502388000488281e-02 1.315197944641113281e-01 -5.633442401885986328e-01
4.458881914615631104e-02 1.510219424962997437e-01 -2.817546427249908447e-01
-1.810118556022644043e-03 2.397477030754089355e-01 7.146737724542617798e-02
-7.154315710067749023e-02 2.243195027112960815e-01 5.757868885993957520e-01
-3.375112712383270264e-01 2.160269170999526978e-01 -5.364244580268859863e-01
-3.220681548118591309e-01 1.264948993921279907e-01 -2.698934376239776611e-01
-1.631774008274078369e-02 1.556652635335922241e-01 3.845982551574707031e-01
-5.031502246856689453e-02 2.416494786739349365e-01 -2.631695270538330078e-01
-6.606727093458175659e-02 1.157847195863723755e-01 -3.166016936302185059e-01
-4.014535248279571533e-01 2.164443880319595337e-01 1.099691614508628845e-01
-2.758502364158630371e-01 2.119164317846298218e-01 -6.682984828948974609e-01
-8.185152709484100342e-02 1.489277482032775879e-01 4.440075159072875977e-01
-2.295124232769012451e-01 1.137529090046882629e-01 -4.115075170993804932e-01
-2.551384270191192627e-02 2.197315841913223267e-01 5.045796632766723633e-01
-7.360349595546722412e-02 1.256149858236312866e-01 -5.531719326972961426e-01
-1.234897151589393616e-01 2.515572309494018555e-01 4.309806823730468750e-01
3.011104464530944824e-02 1.736389398574829102e-01 3.439303934574127197e-01
-1.132910698652267456e-01 1.409426033496856689e-01 4.033405780792236328e-01
4.231098294258117676e-02 2.076867967844009399e-01 -2.569690346717834473e-01
3.855192661285400391e-02 1.529278457164764404e-01 1.466012001037597656e-01
-1.990057080984115601e-01 2.140527069568634033e-01 6.530221104621887207e-01
6.236730515956878662e-02 1.778363138437271118e-01 -2.650965750217437744e-01
-1.573223024606704712e-01 2.490652799606323242e-01 -3.615148067474365234e-01
-2.874276936054229736e-01 2.568308115005493164e-01 1.515363752841949463e-01
-3.745935857295989990e-01 2.019529789686203003e-01 3.289460837841033936e-01
-1.503970623016357422e-01 2.628690004348754883e-01 1.611001789569854736e-03
-3.694881200790405273e-01 2.154735177755355835e-01 -4.387777149677276611e-01
-6.895577162504196167e-02 1.741877794265747070e-01 5.683708786964416504e-01
-2.019684016704559326e-01 1.405197978019714355e-01 -7.586059570312500000e-01
-3.530444204807281494e-02 2.404550164937973022e-01 -2.240815162658691406e-01
-3.287041187286376953e-01 1.332271397113800049e-01 1.337170600891113281e-03
-2.109381556510925293e-01 2.378463745117187500e-01 -5.125985741615295410e-01
3.031536936759948730e-02 2.212055772542953491e-01 2.549742758274078369e-01
-4.675257205963134766e-02 1.179145276546478271e-01 -2.456144690513610840e-01
-3.170945644378662109e-01 1.509492695331573486e-01 2.912276685237884521e-01
-4.020510911941528320e-01 1.870409846305847168e-01 1.668376326560974121e-01
-3.467522859573364258e-01 1.541461944580078125e-01 -5.926167964935302734e-01
-2.857089638710021973e-01 2.200442254543304443e-01 5.488070845603942871e-01
-2.078264802694320679e-01 2.469025850296020508e-01 -4.057756662368774414e-01
-8.257240056991577148e-02 1.538098752498626709e-01 4.793997406959533691e-01
-2.012792229652404785e-02 2.450249493122100830e-01 7.725209742784500122e-02
-2.502616047859191895e-01 2.528808712959289551e-01 -2.784783244132995605e-01
-1.629388928413391113e-01 2.268245220184326172e-01 -6.049844026565551758e-01
-1.310687661170959473e-01 1.109859868884086609e-01 -8.406791090965270996e-02
-1.849271208047866821e-01 1.152783855795860291e-01 4.866298288106918335e-02
-7.649860531091690063e-02 2.333467602729797363e-01 -4.441572427749633789e-01
-3.201071619987487793e-01 1.625238955020904541e-01 3.723862767219543457e-01
-3.802868127822875977e-01 2.015495747327804565e-01 3.039165437221527100e-01
3.493721783161163330e-02 2.202315628528594971e-01 2.278749048709869385e-01
-3.195821642875671387e-01 2.502804398536682129e-01 -1.107561886310577393e-01
5.423162877559661865e-02 1.533281952142715454e-01 -1.337908208370208740e-02
-1.462344378232955933e-01 1.122967377305030823e-01 -4.442097246646881104e-01
4.863387346267700195e-02 2.116332203149795532e-01 -1.534824073314666748e-01
-9.982044249773025513e-02 2.548199295997619629e-01 3.290002644062042236e-01
-1.292309015989303589e-01 1.662131994962692261e-01 5.775924921035766602e-01
-3.293792903423309326e-02 2.211404591798782349e-01 -4.581069648265838623e-01
-3.778513669967651367e-01 2.308123856782913208e-01 -1.970782727003097534e-01
-4.963651299476623535e-02 1.178096905350685120e-01 -2.806952893733978271e-01
-1.758459061384201050e-01 1.336423456668853760e-01 -7.232013344764709473e-01
-2.448755502700805664e-01 1.611779183149337769e-01 5.019196271896362305e-01
-1.935392916202545166e-01 1.111221536993980408e-01 -3.970339596271514893e-01
-1.954916119575500488e-01 1.422520875930786133e-01 4.119256734848022461e-01
-7.829929888248443604e-02 2.386396825313568115e-01 -3.861360549926757812e-01
-7.097241282463073730e-02 2.447579354047775269e-01 -2.779161930084228516e-01
-1.433870792388916016e-01 1.229652762413024902e-01 2.048630118370056152e-01
-1.564919948577880859e-04 1.291646212339401245e-01 -2.624825835227966309e-01
-1.856237947940826416e-01 1.377062052488327026e-01 -7.472591996192932129e-01
-2.238778322935104370e-01 1.287099570035934448e-01 -6.668849587440490723e-01
-2.674390673637390137e-01 1.181267201900482178e-01 -8.475586026906967163e-02
-7.289097458124160767e-02 1.160901188850402832e-01 -4.580457136034965515e-02
4.268372058868408203e-02 2.140337973833084106e-01 -1.759493201971054077e-01
-2.463098168373107910e-01 1.187325343489646912e-01 1.874043792486190796e-02
-3.342406749725341797e-01 1.393579095602035522e-01 -5.198234319686889648e-01
-5.231957137584686279e-02 1.245819628238677979e-01 -4.791143536567687988e-01
1.710872352123260498e-02 1.508875042200088501e-01 -4.633857905864715576e-01
-1.823610514402389526e-01 1.126832142472267151e-01 -4.593663215637207031e-01
-7.305235415697097778e-02 2.506930232048034668e-01 3.330768942832946777e-01
-1.285744011402130127e-01 2.452194839715957642e-01 5.084072947502136230e-01
-1.376715749502182007e-01 2.499901652336120605e-01 -3.274838626384735107e-01
-1.723321527242660522e-01 1.137911379337310791e-01 2.003752440214157104e-02
-9.696079045534133911e-02 2.584164440631866455e-01 1.924737095832824707e-01
-2.173656374216079712e-01 1.228092163801193237e-01 -6.103078722953796387e-01
-2.546739876270294189e-01 2.546920180320739746e-01 3.408416509628295898e-01
-2.037323713302612305e-01 2.558956146240234375e-01 -2.576738893985748291e-01
-6.582381576299667358e-02 2.536401748657226562e-01 -2.079493924975395203e-02
-1.871277838945388794e-01 2.438511401414871216e-01 -4.456771016120910645e-01
4.305595159530639648e-02 2.208855450153350830e-01 4.967189580202102661e-02
-2.513498067855834961e-01 1.382280588150024414e-01 3.119583129882812500e-01
-2.994798421859741211e-01 1.491152644157409668e-01 3.211063146591186523e-01
-6.996687501668930054e-02 1.192774996161460876e-01 4.250108450651168823e-02
-2.908995449542999268e-01 2.386937141418457031e-01 -4.264133274555206299e-01
-7.021205127239227295e-02 2.429753094911575317e-01 -3.049101233482360840e-01
-1.701516956090927124e-01 2.467780411243438721e-01 -4.023026823997497559e-01
-3.438584804534912109e-01 2.459375858306884766e-01 7.609347254037857056e-02
-7.303209602832794189e-02 2.472945153713226318e-01 -2.381962239742279053e-01
-4.863429069519042969e-02 2.514328956604003906e-01 5.274086445569992065e-02
-9.804914891719818115e-02 2.589047551155090332e-01 1.653895080089569092e-01
-1.024984717369079590e-01 1.875702887773513794e-01 -7.528867125511169434e-01
-2.298022955656051636e-01 2.506116628646850586e-01 -3.404698967933654785e-01
-3.039681315422058105e-01 1.846842169761657715e-01 5.084278583526611328e-01
-3.648430109024047852e-02 2.440177500247955322e-01 -1.540110409259796143e-01
-1.154510229825973511e-01 1.360105574131011963e-01 3.570303022861480713e-01
-1.878046840429306030e-01 1.250080466270446777e-01 2.240523397922515869e-01
-1.009201034903526306e-01 2.350106835365295410e-01 -4.704407155513763428e-01
-2.050096839666366577e-01 1.210952326655387878e-01 1.462937891483306885e-01
-1.329590380191802979e-01 1.272850036621093750e-01 2.636443078517913818e-01
-8.066269755363464355e-02 1.451282501220703125e-01 4.124641418457031250e-01
-3.467479646205902100e-01 1.372973471879959106e-01 -4.162598252296447754e-01
-3.339027762413024902e-01 1.364220082759857178e-01 -4.814555048942565918e-01
-2.295710742473602295e-01 1.402558535337448120e-01 -7.428936958312988281e-01
-1.329078078269958496e-01 2.584464848041534424e-01 3.177982568740844727e-01
-4.013693034648895264e-01 1.900134980678558350e-01 -4.181914031505584717e-01
-2.381793856620788574e-01 1.218296885490417480e-01 -5.702657699584960938e-01
-2.571170330047607422e-01 1.957776695489883423e-01 -7.550322413444519043e-01
-1.465702056884765625e-02 1.365733593702316284e-01 1.872661113739013672e-01
-3.938488960266113281e-01 2.082685679197311401e-01 -3.767503499984741211e-01
-3.738105893135070801e-01 1.698061078786849976e-01 2.349145710468292236e-01
1.540970802307128906e-02 2.269555628299713135e-01 -1.832531094551086426e-01
-2.553813457489013672e-01 2.612724006175994873e-01 1.053146496415138245e-01
2.479344606399536133e-02 2.294805198907852173e-01 -1.046583056449890137e-03
-7.929196208715438843e-02 2.462918311357498169e-01 4.228956699371337891e-01
-2.094608843326568604e-01 1.114988252520561218e-01 -3.791597485542297363e-01
3.475829958915710449e-02 2.123246490955352783e-01 3.091394901275634766e-01
-2.223994731903076172e-01 1.175501123070716858e-01 -5.240985751152038574e-01
-7.881183922290802002e-02 2.557345330715179443e-01 2.062177658081054688e-01
-2.957141697406768799e-01 1.526033580303192139e-01 3.593809008598327637e-01
-2.936761677265167236e-01 1.292116343975067139e-01 -5.424389839172363281e-01
-1.375916898250579834e-01 1.333907991647720337e-01 3.383292853832244873e-01
-1.518093347549438477e-01 2.182959020137786865e-01 -6.599233746528625488e-01
-2.409300804138183594e-01 2.178638130426406860e-01 -6.627922058105468750e-01
-2.258337140083312988e-01 2.420139312744140625e-01 -4.612528085708618164e-01
-4.139325618743896484e-01 1.729822456836700439e-01 -4.547621309757232666e-02
-2.389739453792572021e-01 1.383285075426101685e-01 3.316895961761474609e-01
-1.811453700065612793e-01 2.632444202899932861e-01 -3.347391262650489807e-02
-2.302865833044052124e-01 1.138469800353050232e-01 -8.277983963489532471e-02
-3.288165330886840820e-01 1.535410583019256592e-01 2.792398333549499512e-01
-7.856619358062744141e-02 1.551050692796707153e-01 -7.328640222549438477e-01
7.458117604255676270e-02 1.798102557659149170e-01 -3.575637564063072205e-02
-9.755092859268188477e-02 2.440598756074905396e-01 4.831725955009460449e-01
-1.247642487287521362e-01 1.838896870613098145e-01 6.381673216819763184e-01
-2.827020287513732910e-01 2.579726874828338623e-01 1.201443746685981750e-01
-1.052880957722663879e-01 2.473833858966827393e-01 -3.180328607559204102e-01
-2.518977522850036621e-01 2.348024696111679077e-01 -5.207942724227905273e-01
-3.049126267433166504e-02 2.356467694044113159e-01 -2.846327126026153564e-01
-1.869583576917648315e-01 2.120198160409927368e-01 -7.090331912040710449e-01
-3.434436321258544922e-01 2.215916216373443604e-01 4.014702439308166504e-01
-2.356780022382736206e-01 2.590976357460021973e-01 -1.528191268444061279e-01
-1.633829921483993530e-01 1.100488156080245972e-01 -3.731990754604339600e-01
-2.750626206398010254e-01 1.944516301155090332e-01 5.785558223724365234e-01
2.211703360080718994e-02 1.534987390041351318e-01 2.421058118343353271e-01
-4.428082704544067383e-02 2.475526630878448486e-01 -1.034155562520027161e-01
-2.767548263072967529e-01 1.535731405019760132e-01 4.049865305423736572e-01
-3.100778460502624512e-01 1.769364476203918457e-01 -7.256181240081787109e-01
-3.254889547824859619e-01 1.441319733858108521e-01 1.931372284889221191e-01
-2.433613687753677368e-01 2.617674767971038818e-01 -1.670505478978157043e-02
-1.226766332983970642e-01 2.447823286056518555e-01 -3.852674663066864014e-01
-2.569774389266967773e-01 2.607933878898620605e-01 1.414115130901336670e-01
-1.713391542434692383e-01 1.241125538945198059e-01 2.196256220340728760e-01
-1.496498584747314453e-01 2.631914615631103516e-01 3.351602703332901001e-02
-1.992927789688110352e-01 1.238922402262687683e-01 1.981599628925323486e-01
-4.012960195541381836e-01 2.016041874885559082e-01 1.860072314739227295e-01
-1.840111166238784790e-01 1.141192913055419922e-01 -4.937984645366668701e-01
-3.186205029487609863e-01 1.268263459205627441e-01 -1.220586150884628296e-01
-2.531287074089050293e-01 2.583371400833129883e-01 2.637007832527160645e-01
-1.237650811672210693e-01 1.308651268482208252e-01 -6.790075302124023438e-01
-2.405390143394470215e-02 2.315656989812850952e-01 4.251587390899658203e-01
-3.771948218345642090e-01 1.462302505970001221e-01 -3.154357075691223145e-01
-3.180179893970489502e-01 1.312262713909149170e-01 -4.761450588703155518e-01
-3.064364194869995117e-01 1.265173554420471191e-01 -4.390887618064880371e-01
-2.338927984237670898e-02 1.222879737615585327e-01 -1.994145512580871582e-01
-3.796473741531372070e-01 1.504103541374206543e-01 -3.817893266677856445e-01
-2.707375586032867432e-01 2.462557554244995117e-01 -3.595620095729827881e-01
-3.571533560752868652e-01 1.521757990121841431e-01 1.557858288288116455e-01
-1.026014685630798340e-01 2.560742497444152832e-01 3.064348995685577393e-01
-8.786244690418243408e-02 1.396525204181671143e-01 -6.913146972656250000e-01
-9.179756045341491699e-03 2.410116344690322876e-01 -2.157915383577346802e-02
1.704947650432586670e-02 2.223945260047912598e-01 -2.449054419994354248e-01
-2.271670401096343994e-01 1.578770428895950317e-01 -8.037149906158447266e-01
-6.385307013988494873e-02 2.507124841213226318e-01 -1.210770457983016968e-01
-4.088199138641357422e-01 2.096784710884094238e-01 8.897065371274948120e-02
-3.371353149414062500e-01 2.390613555908203125e-01 -2.905725538730621338e-01
-3.108919858932495117e-01 1.414518505334854126e-01 2.101767063140869141e-01
-2.679616212844848633e-01 2.496275156736373901e-01 3.888889849185943604e-01
-3.271532058715820312e-01 2.356917858123779297e-01 -3.762984275817871094e-01
-2.135759592056274414e-01 2.553260028362274170e-01 3.936440348625183105e-01
-3.340632021427154541e-01 1.407086551189422607e-01 1.122037395834922791e-01
3.748014569282531738e-02 1.803792268037796021e-01 -4.245309531688690186e-01
-1.624812781810760498e-01 1.855727732181549072e-01 -8.006765246391296387e-01
-1.282322108745574951e-01 1.137079596519470215e-01 -4.603881835937500000e-01
-1.703675389289855957e-01 1.275769621133804321e-01 2.679418623447418213e-01
-1.288684159517288208e-01 1.229356229305267334e-01 -6.104474663734436035e-01
-3.057152628898620605e-01 2.476889193058013916e-01 -2.502345740795135498e-01
-1.838991194963455200e-01 2.280864268541336060e-01 6.242350339889526367e-01
-1.450948715209960938e-01 1.095524802803993225e-01 -1.455602347850799561e-01
-1.393005251884460449e-01 2.448611259460449219e-01 -4.044098258018493652e-01
-2.858045697212219238e-01 1.381273120641708374e-01 2.408034205436706543e-01
-3.486416339874267578e-01 1.387384533882141113e-01 -7.858499884605407715e-03
-2.068349719047546387e-02 2.027243375778198242e-01 -5.513291954994201660e-01
-2.854308187961578369e-01 1.531274616718292236e-01 3.851537108421325684e-01
-1.407639086246490479e-01 1.255220323801040649e-01 -6.470271944999694824e-01
-2.041084021329879761e-01 2.249178290367126465e-01 -6.272133588790893555e-01
3.514960408210754395e-03 1.306585967540740967e-01 -4.423740878701210022e-02
-2.315934747457504272e-01 2.453674376010894775e-01 -4.159816503524780273e-01
-4.017491638660430908e-02 2.475764155387878418e-01 -7.297194749116897583e-02
-3.650739789009094238e-01 1.770525127649307251e-01 3.117435276508331299e-01
-1.405410766601562500e-01 1.348930299282073975e-01 3.549868166446685791e-01
-4.110498428344726562e-01 1.890497356653213501e-01 1.025241240859031677e-01
-3.149287700653076172e-01 2.411228120326995850e-01 3.583273291587829590e-01
-2.268220484256744385e-01 1.963674575090408325e-01 6.365187168121337891e-01
-1.797782480716705322e-01 2.394921332597732544e-01 5.682035088539123535e-01
-1.349780708551406860e-01 2.521012723445892334e-01 -2.878002524375915527e-01
-2.439578175544738770e-01 1.239714920520782471e-01 -5.904979705810546875e-01
-2.175314575433731079e-01 1.967383176088333130e-01 -7.728891968727111816e-01
-2.294506877660751343e-01 1.431555151939392090e-01 3.899078965187072754e-01
-2.068839222192764282e-01 1.105915457010269165e-01 -1.647754311561584473e-01
-1.917145252227783203e-01 2.423726618289947510e-01 5.452069640159606934e-01
-2.700502574443817139e-01 1.183062046766281128e-01 -4.003431797027587891e-01
-2.224099785089492798e-01 1.758729368448257446e-01 5.923424959182739258e-01
-3.218225240707397461e-01 2.493735402822494507e-01 -1.282423138618469238e-01
-2.852668166160583496e-01 2.578119933605194092e-01 9.834002703428268433e-02
-5.562274158000946045e-02 1.287771016359329224e-01 1.904258430004119873e-01
5.914358794689178467e-02 1.997180134057998657e-01 -1.934225708246231079e-01
-4.643686115741729736e-02 1.311461329460144043e-01 -5.432460904121398926e-01
-7.734905183315277100e-02 1.262338459491729736e-01 1.945149302482604980e-01
-1.380631029605865479e-01 1.321401447057723999e-01 -6.996474862098693848e-01
-2.641369104385375977e-01 2.590580582618713379e-01 -7.462131232023239136e-02
-5.694616585969924927e-02 2.505020499229431152e-01 -8.816860616207122803e-02
6.504306197166442871e-02 1.786144524812698364e-01 1.547880768775939941e-01
-1.768921613693237305e-01 1.215720772743225098e-01 -6.158431768417358398e-01
-1.103054732084274292e-01 1.115137338638305664e-01 -3.459106981754302979e-01
-1.518746018409729004e-01 1.204272657632827759e-01 1.645074784755706787e-01
-3.293318152427673340e-01 1.285893917083740234e-01 -1.788326203823089600e-01
-4.180840849876403809e-01 2.017251998186111450e-01 1.146930456161499023e-02
-7.873040437698364258e-02 1.132347509264945984e-01 -2.117646932601928711e-01
-2.915440201759338379e-01 2.552446722984313965e-01 -1.000299155712127686e-01
-2.339492440223693848e-01 2.620543241500854492e-01 1.850560307502746582e-01
-3.501200675964355469e-01 1.439820826053619385e-01 8.161056786775588989e-02
-1.425761878490447998e-01 1.099832355976104736e-01 -1.203168630599975586e-01
-4.993090778589248657e-02 2.511290609836578369e-01 1.804452240467071533e-01
-2.955406010150909424e-01 1.209671348333358765e-01 -3.066870272159576416e-01
-3.445857763290405273e-01 1.328126490116119385e-01 -2.748581469058990479e-01
-1.257867813110351562e-01 2.544322609901428223e-01 -2.270190119743347168e-01
6.687006354331970215e-02 1.953784227371215820e-01 -1.404705047607421875e-01
-3.509430885314941406e-01 1.679532527923583984e-01 3.140997886657714844e-01
1.688757538795471191e-02 1.550442427396774292e-01 2.779788076877593994e-01
-8.840780705213546753e-02 2.463555634021759033e-01 -2.979248762130737305e-01
-1.707104146480560303e-01 2.608873248100280762e-01 2.948037683963775635e-01
-3.977931737899780273e-01 1.558607369661331177e-01 -1.868030726909637451e-01
-2.502381801605224609e-03 1.447251737117767334e-01 -5.085149407386779785e-01
-1.002060100436210632e-01 1.762932687997817993e-01 -7.700229883193969727e-01
-3.531610369682312012e-01 1.379335075616836548e-01 -6.913390010595321655e-02
2.283573150634765625e-03 2.382200956344604492e-01 2.967708557844161987e-02
-2.586189806461334229e-01 2.367272973060607910e-01 -4.946975708007812500e-01
-2.213383018970489502e-01 1.390951424837112427e-01 3.609684407711029053e-01
-1.978091448545455933e-01 1.141183748841285706e-01 -4.833345711231231689e-01
-2.220255285501480103e-01 2.560022771358489990e-01 -2.463608086109161377e-01
-1.262165307998657227e-01 1.319623738527297974e-01 3.185612559318542480e-01
7.430569827556610107e-02 1.791799962520599365e-01 -6.749992072582244873e-02
-1.340888142585754395e-01 2.468416392803192139e-01 -3.711919784545898438e-01
-2.798514068126678467e-01 1.206236705183982849e-01 -4.246681332588195801e-01
-2.451690137386322021e-01 1.508278250694274902e-01 4.334362745285034180e-01
-1.398667693138122559e-01 1.970918327569961548e-01 6.638244986534118652e-01
-1.177292317152023315e-01 1.513086855411529541e-01 4.877718687057495117e-01
-2.586738467216491699e-01 1.456436216831207275e-01 -7.410422563552856445e-01
-1.245095655322074890e-01 1.209812685847282410e-01 1.646131575107574463e-01
-2.975138425827026367e-01 1.288956254720687866e-01 -5.245949625968933105e-01
3.609326481819152832e-02 2.227677404880523682e-01 1.632826030254364014e-01
-1.871718317270278931e-01 2.625600099563598633e-01 -7.015391439199447632e-02
-1.000395864248275757e-01 2.585323452949523926e-01 -1.539212092757225037e-02
-4.127178192138671875e-01 1.728133410215377808e-01 -2.742088958621025085e-02
-1.995062679052352905e-01 2.422767877578735352e-01 -4.653238952159881592e-01
-1.483536362648010254e-01 1.088506355881690979e-01 -2.379556894302368164e-01
-3.493276238441467285e-01 1.503933668136596680e-01 -5.597866773605346680e-01
-3.043678700923919678e-01 1.327958256006240845e-01 -5.549351572990417480e-01
-1.285442411899566650e-01 1.368249505758285522e-01 -7.220181822776794434e-01
-2.757063806056976318e-01 1.211829632520675659e-01 -2.399092540144920349e-02
-1.667231470346450806e-01 2.078228145837783813e-01 -7.256879210472106934e-01
-1.779387891292572021e-01 2.522332072257995605e-01 -3.231568932533264160e-01
-3.120740950107574463e-01 1.383810937404632568e-01 1.666555702686309814e-01
-8.553832024335861206e-02 2.357225716114044189e-01 5.347650647163391113e-01
-9.371983259916305542e-02 1.554775834083557129e-01 5.001479983329772949e-01
-3.950878977775573730e-01 2.251026481389999390e-01 4.268396645784378052e-02
-2.362540364265441895e-02 1.920050978660583496e-01 -6.044790744781494141e-01
-2.216385304927825928e-02 1.545782983303070068e-01 -6.169747710227966309e-01
-2.128497064113616943e-01 1.140869483351707458e-01 -4.619712829589843750e-01
6.886191666126251221e-02 1.976456940174102783e-01 -6.745435297489166260e-02
-2.321985960006713867e-01 2.544455528259277344e-01 -2.696546614170074463e-01
-3.149712979793548584e-01 1.402051597833633423e-01 -5.986787080764770508e-01
-7.966888695955276489e-02 2.533564567565917969e-01 2.960472106933593750e-01
-4.347036778926849365e-02 1.249043270945549011e-01 -4.514391720294952393e-01
-1.660448312759399414e-01 2.640550732612609863e-01 1.135994270443916321e-01
-1.351398229598999023e-02 1.250699758529663086e-01 -2.468712031841278076e-01
-3.571243286132812500e-01 1.426718533039093018e-01 1.386569440364837646e-02
-2.022510021924972534e-01 1.126464158296585083e-01 -4.378230869770050049e-01
-5.491360276937484741e-02 1.664021015167236328e-01 -7.078051567077636719e-01
-2.666878104209899902e-01 1.371737718582153320e-01 -6.821349263191223145e-01
-1.865592598915100098e-01 1.192993745207786560e-01 1.318738758563995361e-01
-3.502687811851501465e-02 2.485428750514984131e-01 1.259499192237854004e-01
-4.287479817867279053e-02 1.201014518737792969e-01 -3.319461047649383545e-01
-2.948051691055297852e-01 1.206619441509246826e-01 -2.059346139430999756e-01
-3.230507671833038330e-01 1.930758953094482422e-01 -6.760059595108032227e-01
-8.019053936004638672e-02 1.134477183222770691e-01 -2.842370271682739258e-01
-3.592129051685333252e-01 1.387124061584472656e-01 -3.258655667304992676e-01
5.604729056358337402e-02 1.942786723375320435e-01 -2.632987201213836670e-01
-1.122278124094009399e-01 1.102902442216873169e-01 -2.361479401588439941e-01
-2.426427900791168213e-01 2.422081232070922852e-01 5.058883428573608398e-01
-1.719448268413543701e-01 1.361225545406341553e-01 3.654119670391082764e-01
-2.808361351490020752e-01 1.257861405611038208e-01 -5.315221548080444336e-01
-8.400166034698486328e-02 1.310527026653289795e-01 -6.279413104057312012e-01
-1.452028453350067139e-01 2.562269568443298340e-01 3.810065984725952148e-01
-4.243321716785430908e-02 1.185046210885047913e-01 -2.149060964584350586e-01
-1.972100287675857544e-01 1.173198446631431580e-01 8.234662562608718872e-02
-8.985534310340881348e-02 1.162965744733810425e-01 -4.399703145027160645e-01
-1.253141015768051147e-01 1.233590617775917053e-01 2.039628624916076660e-01
-2.107241451740264893e-01 2.530208230018615723e-01 -3.103155195713043213e-01
-1.441815346479415894e-01 2.194311320781707764e-01 6.498292684555053711e-01
-1.779250949621200562e-01 1.089262515306472778e-01 -2.377050518989562988e-01
-1.926616579294204712e-01 1.194485127925872803e-01 -5.837744474411010742e-01
-2.267645597457885742e-01 2.631781697273254395e-01 1.316566765308380127e-01
-3.569407761096954346e-01 2.294325232505798340e-01 3.003450930118560791e-01
-4.024276733398437500e-01 1.591608673334121704e-01 -1.600599288940429688e-01
6.726889312267303467e-02 1.901019960641860962e-01 -1.777744293212890625e-01
-1.932233124971389771e-01 1.117104962468147278e-01 -6.843140721321105957e-02
-1.446364670991897583e-01 2.357231378555297852e-01 -5.144104361534118652e-01
-2.014943659305572510e-01 2.635025084018707275e-01 -1.577136293053627014e-02
-3.182552456855773926e-01 2.271265685558319092e-01 4.522230625152587891e-01
-3.482826650142669678e-01 2.113147825002670288e-01 4.159337878227233887e-01
-1.042349562048912048e-01 2.122987955808639526e-01 -6.544207334518432617e-01
-2.537945508956909180e-01 2.558414638042449951e-01 3.209541738033294678e-01
-2.821451127529144287e-01 2.308894395828247070e-01 -5.235082507133483887e-01
-9.329393506050109863e-03 2.325859814882278442e-01 3.558898568153381348e-01
-1.450611650943756104e-02 1.592729687690734863e-01 4.047239720821380615e-01
-2.989455759525299072e-01 2.558780610561370850e-01 2.596915513277053833e-02
-2.158868461847305298e-01 2.286534309387207031e-01 6.068470478057861328e-01
-1.868738532066345215e-01 2.619521915912628174e-01 -9.523654729127883911e-02
-2.373039722442626953e-02 2.458840608596801758e-01 1.133609041571617126e-01
-1.813343614339828491e-01 2.601376473903656006e-01 3.169468939304351807e-01
-3.978451490402221680e-01 1.611702591180801392e-01 -3.521364331245422363e-01
2.225895226001739502e-02 1.407217681407928467e-01 6.666792184114456177e-02
-1.376705020666122437e-01 2.484003901481628418e-01 -3.524280488491058350e-01
-2.783120870590209961e-01 2.315132766962051392e-01 5.188878178596496582e-01
-1.693652868270874023e-01 1.109184548258781433e-01 -7.200482487678527832e-02
-2.781865298748016357e-01 1.489254832267761230e-01 3.655506372451782227e-01
-3.410990536212921143e-02 1.211263313889503479e-01 -7.856363803148269653e-02
-1.180304735898971558e-01 1.749607771635055542e-01 -7.890378236770629883e-01
5.791300535202026367e-02 1.694872826337814331e-01 -2.941076755523681641e-01
-1.304370313882827759e-01 2.492242455482482910e-01 4.682458043098449707e-01
-3.403007984161376953e-02 2.239018678665161133e-01 -4.359780251979827881e-01
-3.321381807327270508e-01 2.479177564382553101e-01 -9.811355918645858765e-02
-2.886328101158142090e-02 1.634174883365631104e-01 4.601039290428161621e-01
-8.531485497951507568e-02 1.125415116548538208e-01 -2.343175411224365234e-01
-3.738103508949279785e-01 2.101651430130004883e-01 -4.604698121547698975e-01
-3.644887208938598633e-01 2.124797105789184570e-01 -4.799587726593017578e-01
-2.942742109298706055e-01 2.159371972084045410e-01 -6.212568879127502441e-01
-3.364228010177612305e-01 2.361802756786346436e-01 -3.384266197681427002e-01
1.350371539592742920e-02 2.272223979234695435e-01 2.973261475563049316e-01
-9.578459709882736206e-02 2.241463959217071533e-01 -5.625028610229492188e-01
-2.324576228857040405e-01 1.133316457271575928e-01 -3.833002448081970215e-01
-2.660863995552062988e-01 1.253691911697387695e-01 -5.652570724487304688e-01
-2.154843956232070923e-01 1.134285107254981995e-01 -5.269033834338188171e-02
-3.588401079177856445e-01 1.894262135028839111e-01 -5.986092090606689453e-01
-2.410119920969009399e-01 1.930920034646987915e-01 -7.741703987121582031e-01
-3.565083742141723633e-01 1.403514146804809570e-01 -3.347231075167655945e-02
