6.473565101623535156e-02 6.306859105825424194e-02 2.970427274703979492e-01
3.378474712371826172e-01 3.582037240266799927e-02 -4.696318209171295166e-01
2.455512285232543945e-01 1.051397994160652161e-01 1.389877796173095703e-01
6.616011261940002441e-03 3.800781816244125366e-02 1.810286939144134521e-01
3.734701871871948242e-01 2.185351401567459106e-02 1.575340032577514648e-01
3.660553693771362305e-01 -7.266529649496078491e-02 -5.375186800956726074e-01
-2.969215810298919678e-02 -1.167122274637222290e-01 -1.617004871368408203e-01
3.936867117881774902e-01 -1.602477133274078369e-01 2.222253084182739258e-01
3.412005901336669922e-01 -4.562245681881904602e-02 -5.731320977210998535e-01
1.893199235200881958e-01 5.982393771409988403e-02 4.060019552707672119e-01
1.990613341331481934e-02 -1.533346027135848999e-01 -3.187601566314697266e-01
1.672582328319549561e-01 -2.039061188697814941e-01 6.292987465858459473e-01
1.259498745203018188e-01 7.673799246549606323e-02 3.310404717922210693e-01
3.830721378326416016e-01 5.059468001127243042e-02 -1.135820224881172180e-01
4.382025003433227539e-01 -9.381695091724395752e-02 -1.709732413291931152e-01
2.568996250629425049e-01 1.151521727442741394e-01 -1.848815381526947021e-01
-3.121064603328704834e-02 -2.554780244827270508e-02 2.995618879795074463e-01
2.695587277412414551e-02 -2.269911766052246094e-01 -1.971052289009094238e-01
-5.771480500698089600e-02 -9.011629968881607056e-02 2.600341439247131348e-01
1.189773678779602051e-01 1.074725762009620667e-01 -9.082356095314025879e-02
3.256182670593261719e-01 6.941977888345718384e-02 1.454517245292663574e-01
3.720695376396179199e-01 -2.276704907417297363e-01 -2.217344641685485840e-01
1.912678629159927368e-01 1.191077604889869690e-01 5.028943717479705811e-02
3.478323221206665039e-01 -6.933000683784484863e-02 -5.689501762390136719e-01
1.682367622852325439e-01 1.126103624701499939e-01 -2.045643329620361328e-01
2.267046570777893066e-01 -2.624520957469940186e-01 -3.652243912220001221e-01
1.481803506612777710e-01 1.009126529097557068e-01 2.097886800765991211e-01
8.694607019424438477e-02 -2.880018055438995361e-01 4.060179889202117920e-01
2.432609200477600098e-01 -2.899653613567352295e-01 3.387145400047302246e-01
1.220829337835311890e-01 1.876182109117507935e-02 -4.836546480655670166e-01
3.249568343162536621e-01 9.402081370353698730e-03 3.495969474315643311e-01
-3.241804242134094238e-02 -4.103116318583488464e-02 3.476033210754394531e-01
3.992705345153808594e-01 -1.008962839841842651e-02 1.278162300586700439e-01
1.067964434623718262e-01 1.821846514940261841e-02 5.136957168579101562e-01
2.955357432365417480e-01 -2.417632937431335449e-01 -3.847761154174804688e-01
1.358785927295684814e-01 -1.767872422933578491e-01 6.614730954170227051e-01
3.409488797187805176e-01 3.125245124101638794e-02 2.487783730030059814e-01
3.825789391994476318e-01 -1.264712810516357422e-01 -4.707991480827331543e-01
1.972538083791732788e-01 9.920666366815567017e-02 -3.352888524532318115e-01
2.279424667358398438e-02 -2.555126547813415527e-01 4.054318070411682129e-01
1.379095315933227539e-01 2.515869587659835815e-02 5.092804431915283203e-01
1.743702739477157593e-01 1.085587590932846069e-02 -5.569729804992675781e-01
3.072451949119567871e-01 -2.850315272808074951e-01 -1.055742725729942322e-01
-5.548946559429168701e-02 -9.732116758823394775e-02 3.007497489452362061e-01
4.293262362480163574e-01 -2.540414780378341675e-02 -1.345713138580322266e-01
2.437935322523117065e-01 -2.805772125720977783e-01 -2.831192314624786377e-01
3.513097763061523438e-03 -8.941736817359924316e-02 -3.012066781520843506e-01
-2.538903057575225830e-02 -2.141302227973937988e-01 3.482620418071746826e-01
2.339736819267272949e-01 -2.421795725822448730e-01 5.112221240997314453e-01
6.749101728200912476e-02 -2.413433790206909180e-01 -2.674738764762878418e-01
1.536689698696136475e-02 1.818059384822845459e-02 3.567903339862823486e-01
6.357982754707336426e-02 6.237471848726272583e-02 -2.230108976364135742e-01
4.354060888290405273e-01 -1.224834248423576355e-01 -1.392547786235809326e-01
-4.404579102993011475e-02 -9.429967403411865234e-02 3.850731253623962402e-01
2.463832497596740723e-02 -1.665129661560058594e-01 5.911574959754943848e-01
-2.952080965042114258e-02 -8.604183793067932129e-03 1.646069996058940887e-02
5.321519076824188232e-02 -2.229968756437301636e-01 5.639373064041137695e-01
3.674525022506713867e-02 -8.151504397392272949e-02 6.014825105667114258e-01
2.834193408489227295e-01 -3.005192875862121582e-01 7.033005356788635254e-02
3.511035144329071045e-01 -1.261261850595474243e-02 3.238962888717651367e-01
-1.458740234375000000e-02 -2.129592001438140869e-01 4.151190817356109619e-01
4.355853796005249023e-01 -1.117335259914398193e-01 -4.607282578945159912e-02
8.856513351202011108e-02 1.642125099897384644e-02 -4.273009002208709717e-01
4.327347278594970703e-01 -9.954318404197692871e-02 1.331486366689205170e-02
3.102433085441589355e-01 8.098267763853073120e-02 -3.579346835613250732e-01
2.758112549781799316e-01 -2.201522439718246460e-01 4.869388639926910400e-01
3.309169411659240723e-01 -2.258741855621337891e-01 3.366354703903198242e-01
2.056264132261276245e-01 4.598664492368698120e-02 4.391770362854003906e-01
2.316421270370483398e-01 8.000876754522323608e-02 2.991289794445037842e-01
3.734968304634094238e-01 -9.059867262840270996e-02 -5.187335610389709473e-01
4.133700728416442871e-01 -5.229017883539199829e-02 -3.879154026508331299e-01
8.241065591573715210e-02 9.252067655324935913e-02 1.073613166809082031e-01
6.177932024002075195e-02 5.295214802026748657e-02 3.416264653205871582e-01
2.208754420280456543e-02 -4.131484031677246094e-02 5.296111106872558594e-01
2.005539834499359131e-02 3.331238776445388794e-02 3.042743802070617676e-01
4.014597833156585693e-02 6.655629724264144897e-02 -5.587410181760787964e-02
9.218201041221618652e-03 -2.541668415069580078e-01 -8.394196629524230957e-05
4.095671176910400391e-01 9.321846067905426025e-03 -2.579402327537536621e-01
3.447765111923217773e-01 -1.362026780843734741e-01 -5.380330681800842285e-01
-4.899464547634124756e-02 -1.864708214998245239e-01 1.831432282924652100e-01
1.004565134644508362e-01 -1.997755020856857300e-01 6.357660889625549316e-01
3.485507667064666748e-01 -1.996485292911529541e-01 3.384371697902679443e-01
3.454600572586059570e-01 7.479653507471084595e-02 1.158840022981166840e-02
1.501073241233825684e-01 7.100506871938705444e-02 -4.008446633815765381e-01
9.036386758089065552e-02 -2.686924040317535400e-01 4.907632470130920410e-01
2.723677754402160645e-01 -3.028742074966430664e-01 1.315450072288513184e-01
2.690129876136779785e-01 1.138957813382148743e-01 -1.595138609409332275e-01
4.163943231105804443e-01 -1.790161728858947754e-01 -5.951115489006042480e-02
5.304287374019622803e-02 -2.581630647182464600e-01 -1.701303422451019287e-01
3.787451982498168945e-01 -1.484380662441253662e-02 -4.734324812889099121e-01
3.878014087677001953e-01 1.802602410316467285e-02 9.846201539039611816e-02
5.243164300918579102e-02 -2.908986806869506836e-01 2.832610607147216797e-01
4.290373325347900391e-01 -1.131372749805450439e-01 4.432024806737899780e-02
7.321229577064514160e-02 -1.563550233840942383e-01 -4.409213364124298096e-01
2.089220583438873291e-01 -3.085563778877258301e-01 -1.322039961814880371e-01
1.614636927843093872e-01 -3.150943815708160400e-01 -6.392413377761840820e-02
-3.664308786392211914e-02 -8.256931602954864502e-02 4.109632670879364014e-01
1.222915351390838623e-01 -3.177180886268615723e-01 5.959324911236763000e-02
2.083165347576141357e-01 -2.793335318565368652e-01 4.396009743213653564e-01
3.281069397926330566e-01 -2.733027935028076172e-01 1.041471138596534729e-01
3.114925324916839600e-01 -2.321794629096984863e-02 4.381696581840515137e-01
2.175120413303375244e-01 8.292659372091293335e-02 -4.181900322437286377e-01
-3.634317219257354736e-02 -1.675461232662200928e-01 4.101788103580474854e-01
3.562884032726287842e-02 -2.709560394287109375e-01 3.709581494331359863e-01
6.203520298004150391e-02 5.403893440961837769e-02 -2.548997104167938232e-01
3.842479288578033447e-01 -1.771457195281982422e-01 2.384625673294067383e-01
3.667789399623870850e-01 -2.026159763336181641e-01 2.606020271778106689e-01
-1.954160630702972412e-02 -5.584852024912834167e-02 -1.905487775802612305e-01
4.019643068313598633e-01 -1.010480523109436035e-01 -4.337232410907745361e-01
-4.514801502227783203e-02 -1.750064790248870850e-01 2.667158097028732300e-02
2.964258193969726562e-02 -7.724158465862274170e-03 -3.155459761619567871e-01
1.773400306701660156e-01 -2.475766837596893311e-01 -4.015088677406311035e-01
9.373103082180023193e-02 9.931112080812454224e-02 -4.443375021219253540e-02
3.167577087879180908e-01 -2.330417931079864502e-01 3.617429137229919434e-01
2.288904786109924316e-01 9.469399601221084595e-02 -3.697052299976348877e-01
8.373159915208816528e-02 -3.082059025764465332e-01 2.041801214218139648e-01
-1.332134008407592773e-02 1.485294848680496216e-02 -6.329683586955070496e-03
2.837425172328948975e-01 -1.852139830589294434e-04 -5.906330943107604980e-01
1.296035349369049072e-01 -1.043913811445236206e-01 -5.620644688606262207e-01
2.329786717891693115e-01 -4.288293048739433289e-02 -6.302778124809265137e-01
1.986155509948730469e-01 9.100212901830673218e-02 2.748607397079467773e-01
2.474777251482009888e-01 1.190670654177665710e-01 -1.144325658679008484e-01
9.521381556987762451e-02 5.627305060625076294e-02 3.865106403827667236e-01
3.835050761699676514e-01 -2.009906470775604248e-01 1.792387962341308594e-01
4.000711441040039062e-01 -2.050808668136596680e-01 -1.315140426158905029e-01
2.212523072957992554e-01 -3.167787194252014160e-01 1.695103347301483154e-01
-3.745225071907043457e-02 -1.801761984825134277e-02 8.050882071256637573e-02
2.493156641721725464e-01 -2.715390622615814209e-01 -3.199768662452697754e-01
1.903231889009475708e-01 -3.178056180477142334e-01 -4.469509422779083252e-02
-3.857459127902984619e-02 -3.452944755554199219e-02 2.778443694114685059e-01
1.808772832155227661e-01 1.137814000248908997e-01 1.182213202118873596e-01
1.032847464084625244e-01 1.038303598761558533e-01 -1.769411563873291016e-02
-4.067029058933258057e-02 -2.809332311153411865e-02 4.452074691653251648e-02
-5.819031596183776855e-02 -7.674700766801834106e-02 1.135388612747192383e-01
1.480397582054138184e-02 -1.187224686145782471e-02 -2.708801031112670898e-01
3.004460036754608154e-01 -1.178261637687683105e-01 5.248482227325439453e-01
1.859705150127410889e-02 3.035589307546615601e-02 -1.648762226104736328e-01
2.360559999942779541e-01 3.893790394067764282e-02 4.317318797111511230e-01
9.685397148132324219e-02 -3.131797909736633301e-01 1.311466097831726074e-01
1.670915782451629639e-01 9.925248473882675171e-02 2.323516905307769775e-01
3.749041259288787842e-02 3.090959042310714722e-02 -2.488317489624023438e-01
6.971172243356704712e-02 -2.645149827003479004e-01 -1.911104619503021240e-01
1.340903937816619873e-01 9.393841773271560669e-02 -2.723148167133331299e-01
1.261542737483978271e-02 -1.036459431052207947e-01 -3.296585083007812500e-01
-1.394183933734893799e-02 -1.187968999147415161e-01 -2.314366102218627930e-01
1.951349675655364990e-01 -2.928682565689086914e-01 3.988939225673675537e-01
4.358529448509216309e-01 -7.577806711196899414e-02 -3.667273372411727905e-02
1.401510238647460938e-01 -2.745274603366851807e-01 4.945700764656066895e-01
1.919150650501251221e-01 -2.168991118669509888e-01 -4.836674630641937256e-01
6.608469039201736450e-02 -2.823036164045333862e-02 5.728172063827514648e-01
1.475590765476226807e-01 -2.898203730583190918e-01 4.374154210090637207e-01
2.368135303258895874e-01 -4.298962652683258057e-02 5.757929682731628418e-01
3.802857995033264160e-01 -1.571865379810333252e-02 2.302490770816802979e-01
4.086719751358032227e-01 -1.170422136783599854e-02 -3.492480218410491943e-01
-4.208870232105255127e-02 -1.101097241044044495e-01 -9.348444640636444092e-02
1.703643351793289185e-01 -3.232121467590332031e-03 5.656331777572631836e-01
2.030883133411407471e-01 -1.878188252449035645e-01 6.232169866561889648e-01
-5.181524157524108887e-02 -5.461800470948219299e-02 2.090570926666259766e-01
1.883567273616790771e-01 -3.144372105598449707e-01 2.688800096511840820e-01
2.999052107334136963e-01 -9.247363358736038208e-02 5.213353037834167480e-01
4.086665511131286621e-01 -1.887858062982559204e-01 -1.689980924129486084e-01
1.441792845726013184e-01 8.912216871976852417e-02 -3.186833560466766357e-01
3.329217433929443359e-04 -1.332576274871826172e-01 -2.755942344665527344e-01
3.236338496208190918e-03 3.658074885606765747e-02 7.026335224509239197e-03
-4.119272530078887939e-02 -5.685951560735702515e-02 -5.886646360158920288e-02
3.233616054058074951e-01 -7.391721755266189575e-02 -5.996730327606201172e-01
2.898620963096618652e-01 1.061621978878974915e-01 -2.044198811054229736e-01
2.777855992317199707e-01 -2.218456566333770752e-01 -4.615393579006195068e-01
7.807833701372146606e-02 -3.009479641914367676e-01 2.914600372314453125e-01
1.395014822483062744e-01 -1.441408395767211914e-01 -5.489194393157958984e-01
2.376318871974945068e-01 4.341251403093338013e-02 -5.324691534042358398e-01
2.953810691833496094e-01 7.166897505521774292e-02 -4.254068136215209961e-01
1.861524581909179688e-01 -1.331741511821746826e-01 6.608214378356933594e-01
-5.767515301704406738e-02 -7.817140966653823853e-02 2.205535471439361572e-01
3.172722458839416504e-02 7.844574749469757080e-03 4.399620890617370605e-01
-2.797405421733856201e-02 -5.185568332672119141e-02 3.988616168498992920e-01
-2.485539019107818604e-02 -2.302965819835662842e-01 1.774677932262420654e-01
3.640259206295013428e-01 -2.408240437507629395e-01 -1.777507960796356201e-01
3.013427555561065674e-02 -4.784613847732543945e-03 4.709232747554779053e-01
1.108829379081726074e-01 6.957412511110305786e-02 -3.341741561889648438e-01
3.694090247154235840e-01 1.749217510223388672e-02 1.894976496696472168e-01
-4.014906287193298340e-02 -1.911952495574951172e-01 3.251771330833435059e-01
6.332629919052124023e-02 -2.782852649688720703e-01 -1.058918610215187073e-01
-1.925015449523925781e-02 -8.946878463029861450e-02 -2.134293615818023682e-01
2.485920786857604980e-01 -2.570244967937469482e-01 4.524999260902404785e-01
-2.281601727008819580e-02 -6.875969469547271729e-03 -5.016181617975234985e-02
1.730178743600845337e-01 6.912813335657119751e-02 3.779423832893371582e-01
1.851939558982849121e-01 6.659612804651260376e-02 -4.535956680774688721e-01
2.901206612586975098e-01 -2.735438644886016846e-01 2.955685257911682129e-01
3.294509649276733398e-02 -2.530921697616577148e-01 4.469960033893585205e-01
1.569668799638748169e-01 6.249821931123733521e-02 -4.362781941890716553e-01
-1.000753045082092285e-02 -2.879629284143447876e-02 4.185068905353546143e-01
3.614764511585235596e-01 -2.493911981582641602e-01 -1.011146605014801025e-01
2.714008688926696777e-01 -2.999701201915740967e-01 -9.970818459987640381e-02
3.947724699974060059e-01 -1.083001270890235901e-01 2.585466802120208740e-01
-3.449168801307678223e-02 -1.989083886146545410e-01 2.208887785673141479e-02
3.555461764335632324e-01 3.828623145818710327e-02 1.732086539268493652e-01
3.751390576362609863e-01 -8.581186085939407349e-02 3.299598991870880127e-01
3.031413853168487549e-01 1.002220436930656433e-01 -2.253178656101226807e-01
4.285612106323242188e-01 -3.175459057092666626e-02 -2.343635857105255127e-01
3.699477612972259521e-01 -5.606949701905250549e-02 3.265319466590881348e-01
3.673009276390075684e-01 -2.310399711132049561e-02 -5.114931464195251465e-01
9.192175418138504028e-02 -2.826706469058990479e-01 -1.629880666732788086e-01
-8.991584181785583496e-03 -2.509810030460357666e-02 -1.943819224834442139e-01
6.507311761379241943e-02 -2.716716527938842773e-01 4.453759491443634033e-01
-5.555629730224609375e-03 -2.528704106807708740e-01 2.106425762176513672e-01
2.001688182353973389e-01 -3.250762820243835449e-04 -5.880796313285827637e-01
6.057679653167724609e-03 -2.212795615196228027e-01 4.699255824089050293e-01
2.546576857566833496e-01 6.813306361436843872e-02 -4.680847525596618652e-01
1.659633517265319824e-01 1.157506927847862244e-01 8.161059767007827759e-02
-4.995359480381011963e-02 -1.286843121051788330e-01 -2.605212852358818054e-02
-6.059803068637847900e-02 -1.123239994049072266e-01 9.157932549715042114e-02
3.347946405410766602e-01 -9.689154475927352905e-02 4.490607082843780518e-01
6.875925511121749878e-02 3.732907027006149292e-02 4.182703793048858643e-01
1.403683423995971680e-01 1.096223369240760803e-01 -1.628936529159545898e-01
3.868178427219390869e-01 -1.612904667854309082e-02 2.038268148899078369e-01
2.935984432697296143e-01 -2.250940799713134766e-01 -4.382787048816680908e-01
2.373190373182296753e-01 -3.123211562633514404e-01 -5.057562142610549927e-02
5.535930395126342773e-02 1.912111043930053711e-02 -3.405277729034423828e-01
1.041635647416114807e-01 8.261238783597946167e-02 2.717084288597106934e-01
8.601836115121841431e-02 8.259484916925430298e-02 -1.950517296791076660e-01
4.157121479511260986e-01 -1.204428523778915405e-01 -3.548512756824493408e-01
1.930280029773712158e-02 -2.062102705240249634e-01 -2.276264131069183350e-01
3.355342447757720947e-01 -7.204122096300125122e-02 4.359170496463775635e-01
-2.199284732341766357e-02 -1.949124783277511597e-01 -8.078202605247497559e-02
1.335876584053039551e-01 -2.914711087942123413e-02 6.099539995193481445e-01
8.935940265655517578e-02 7.319683581590652466e-02 2.985333204269409180e-01
-4.518169164657592773e-02 -4.430136829614639282e-02 1.876192539930343628e-02
1.313521564006805420e-01 -2.222453802824020386e-01 -4.239365160465240479e-01
3.837785720825195312e-01 -8.633928745985031128e-02 -4.956344664096832275e-01
1.623295992612838745e-01 -3.043477833271026611e-01 3.614066541194915771e-01
2.411684393882751465e-02 -4.068148508667945862e-02 -3.421368002891540527e-01
8.089050650596618652e-03 4.361272603273391724e-02 6.044286489486694336e-02
4.217899441719055176e-01 -8.937642723321914673e-02 -3.500789701938629150e-01
2.298168241977691650e-01 -2.287784218788146973e-01 -4.639362394809722900e-01
3.351609706878662109e-01 -1.263270825147628784e-01 -5.616539120674133301e-01
-5.766774713993072510e-02 -1.555471867322921753e-01 1.377989053726196289e-01
5.454796552658081055e-02 -2.009235173463821411e-01 5.998250246047973633e-01
8.453090488910675049e-02 -3.065799772739410400e-01 2.452276051044464111e-01
3.698285520076751709e-01 -2.427734732627868652e-01 2.857722342014312744e-03
-3.562778234481811523e-02 -1.430066227912902832e-01 -1.089359298348426819e-01
2.838538885116577148e-01 1.270829886198043823e-02 4.267924726009368896e-01
-3.802329301834106445e-02 -1.987649500370025635e-01 5.778060108423233032e-02
3.412646055221557617e-01 8.442101627588272095e-02 -9.894432872533798218e-02
1.240147203207015991e-01 -3.177656233310699463e-01 2.095609903335571289e-01
4.817217588424682617e-03 -2.058518677949905396e-01 -1.764579117298126221e-01
-6.725639104843139648e-03 2.105942368507385254e-02 2.161306142807006836e-01
-5.793860554695129395e-02 -1.214724108576774597e-01 5.138672888278961182e-02
3.974316120147705078e-01 -4.740830510854721069e-02 -4.493944048881530762e-01
-5.352774262428283691e-02 -9.913425892591476440e-02 -2.074299380183219910e-03
-1.364941895008087158e-02 -2.430749237537384033e-01 2.389843463897705078e-01
1.362390965223312378e-01 -1.144841238856315613e-01 6.757006049156188965e-01
-7.138252258300781250e-04 3.457406908273696899e-02 1.002382189035415649e-01
-6.519511342048645020e-03 -6.293758749961853027e-02 4.952138066291809082e-01
3.804015517234802246e-01 -1.618508249521255493e-01 -4.221689105033874512e-01
1.828182041645050049e-01 1.216979548335075378e-01 -4.450684040784835815e-02
-1.707673072814941406e-03 7.603742182254791260e-03 3.304823040962219238e-01
6.449228525161743164e-02 2.488020807504653931e-02 4.518385827541351318e-01
2.297043204307556152e-01 1.134264096617698669e-01 -2.441721260547637939e-01
5.677701532840728760e-02 -2.526086270809173584e-01 4.986402392387390137e-01
-5.188521742820739746e-02 -1.740551292896270752e-01 1.165054962038993835e-01
4.135665595531463623e-01 -7.126472890377044678e-02 1.542096734046936035e-01
4.240456223487854004e-01 -1.623259782791137695e-01 -1.018924787640571594e-01
3.352339863777160645e-01 -2.761333435773849487e-02 3.909032344818115234e-01
3.175079524517059326e-01 -1.263804584741592407e-01 -5.819683074951171875e-01
4.254961609840393066e-01 -9.094300121068954468e-02 -3.257755637168884277e-01
1.807297915220260620e-01 1.147833466529846191e-02 5.344584584236145020e-01
2.301271259784698486e-02 -2.776113450527191162e-01 1.915186047554016113e-01
1.965739428997039795e-01 1.224458441138267517e-01 -6.389915943145751953e-02
2.428489476442337036e-01 -2.810180485248565674e-01 3.808880150318145752e-01
2.683311998844146729e-01 -2.021288722753524780e-01 5.280697941780090332e-01
1.833939105272293091e-01 -2.907251566648483276e-02 -6.023857593536376953e-01
-5.832864344120025635e-02 -7.507377862930297852e-02 1.396820247173309326e-01
2.225835621356964111e-01 -3.190628588199615479e-01 6.621359288692474365e-02
-2.572387456893920898e-04 3.307973593473434448e-02 1.548371613025665283e-01
3.819109797477722168e-01 -1.457217186689376831e-01 -4.466949105262756348e-01
2.006260752677917480e-01 -4.855852574110031128e-02 -6.219535470008850098e-01
4.036751389503479004e-01 2.482802420854568481e-02 -1.014111414551734924e-01
3.868666291236877441e-01 4.481969028711318970e-02 -2.128941714763641357e-01
2.716416418552398682e-01 -2.713278532028198242e-01 -2.984974682331085205e-01
-4.966290295124053955e-02 -8.085580170154571533e-02 3.275235295295715332e-01
1.952216625213623047e-01 -1.028881371021270752e-01 6.518309116363525391e-01
2.368121594190597534e-01 -3.040258884429931641e-01 -1.436478793621063232e-01
3.681337237358093262e-01 5.437878519296646118e-02 2.479417808353900909e-02
3.632128238677978516e-01 -1.465897262096405029e-01 3.598400354385375977e-01
3.815613687038421631e-02 -1.851056069135665894e-01 -3.246981203556060791e-01
1.838117688894271851e-01 -3.198875486850738525e-01 2.097185552120208740e-01
2.240983396768569946e-01 9.811019152402877808e-02 2.162219882011413574e-01
-5.839864909648895264e-02 -1.385814547538757324e-01 8.414600044488906860e-02
1.020705401897430420e-01 9.530889242887496948e-02 1.688309311866760254e-01
-5.910128355026245117e-03 -2.440518736839294434e-01 3.209798932075500488e-01
3.258670270442962646e-01 -2.606233656406402588e-01 -2.330304086208343506e-01
1.344494074583053589e-01 -3.209547102451324463e-01 9.873164445161819458e-02
2.502666711807250977e-01 -1.957168430089950562e-01 5.635164380073547363e-01
3.536251783370971680e-01 -2.581556141376495361e-01 -3.082832321524620056e-02
1.683998554944992065e-01 -2.571064531803131104e-01 -3.674072623252868652e-01
3.867782652378082275e-01 -2.088928967714309692e-01 -2.408069372177124023e-01
1.637862771749496460e-01 -2.818497419357299805e-01 -2.734420001506805420e-01
2.280513942241668701e-02 4.385056346654891968e-02 -1.183190867304801941e-01
2.903735339641571045e-01 1.085860803723335266e-01 -8.542427420616149902e-02
1.952907741069793701e-01 -2.710434496402740479e-01 -3.328889608383178711e-01
5.648255348205566406e-03 7.028937339782714844e-03 -1.851161420345306396e-01
3.598879575729370117e-01 6.904839724302291870e-02 -5.201385915279388428e-02
3.537721931934356689e-01 -2.546493113040924072e-01 7.211515307426452637e-02
4.081739485263824463e-02 4.828489571809768677e-02 -1.937772631645202637e-01
4.026763141155242920e-02 -2.836876213550567627e-01 4.478536546230316162e-02
-5.437463521957397461e-02 -1.538114994764328003e-01 6.398792564868927002e-02
-1.005911827087402344e-02 -1.466441005468368530e-01 5.269342064857482910e-01
-2.833306789398193359e-03 -2.122046798467636108e-01 -1.260604560375213623e-01
-2.114613354206085205e-02 -2.293239533901214600e-01 7.762300968170166016e-02
-2.482293546199798584e-02 -9.390550106763839722e-02 -1.886718571186065674e-01
-4.972830414772033691e-03 1.617270708084106445e-02 2.669910192489624023e-01
3.056879937648773193e-01 -2.725724577903747559e-01 -2.229730486869812012e-01
4.376678168773651123e-02 -2.899760007858276367e-01 1.135194078087806702e-01
2.715143859386444092e-01 2.273379266262054443e-02 -5.647450685501098633e-01
1.481987535953521729e-02 3.960522264242172241e-02 2.360197305679321289e-01
2.509047389030456543e-01 -2.004692554473876953e-01 -5.217374563217163086e-01
4.964934289455413818e-02 -2.608504891395568848e-02 -3.985502123832702637e-01
1.361331194639205933e-01 5.706332623958587646e-03 5.518217086791992188e-01
4.112891554832458496e-01 -6.994738429784774780e-02 -4.053993225097656250e-01
2.743710875511169434e-01 1.099757626652717590e-01 9.305080398917198181e-03
2.477352768182754517e-01 -1.439108550548553467e-01 -6.020863056182861328e-01
1.961902081966400146e-01 1.116669848561286926e-01 1.388298571109771729e-01
1.157209873199462891e-01 -1.893840730190277100e-01 -4.657605886459350586e-01
3.913653492927551270e-01 -1.880752146244049072e-01 -3.092475235462188721e-01
9.770778566598892212e-02 9.623271971940994263e-02 -1.295242011547088623e-01
8.426357060670852661e-02 -8.434121310710906982e-02 6.495314836502075195e-01
4.189053773880004883e-01 -1.093289181590080261e-01 1.298982799053192139e-01
1.164116412401199341e-01 -2.715336978435516357e-01 -2.596777677536010742e-01
2.758418619632720947e-01 -2.666499316692352295e-01 3.655089437961578369e-01
4.091762304306030273e-01 -2.610651403665542603e-02 1.104240491986274719e-01
1.788814961910247803e-01 -2.995253503322601318e-01 3.801288008689880371e-01
-2.621479332447052002e-02 -1.561853587627410889e-01 4.687556326389312744e-01
2.684388160705566406e-01 -2.907990217208862305e-01 -1.918107271194458008e-01
3.524790406227111816e-01 -2.509225904941558838e-01 1.239049881696701050e-01
3.579262495040893555e-01 -2.258861064910888672e-01 2.280964851379394531e-01
9.320271015167236328e-02 -1.471680402755737305e-01 -4.848794639110565186e-01
2.780377864837646484e-02 -2.671350240707397461e-01 -2.310861274600028992e-02
4.339528083801269531e-01 -7.492308318614959717e-02 -2.533051967620849609e-01
3.058862686157226562e-01 4.244827479124069214e-02 3.082665503025054932e-01
2.978505790233612061e-01 -1.574705839157104492e-01 5.177739262580871582e-01
1.994088292121887207e-01 -2.439503967761993408e-01 -4.212425947189331055e-01
3.977548480033874512e-01 -1.454430073499679565e-01 -3.946320712566375732e-01
3.535346388816833496e-01 -1.670978367328643799e-01 -4.784344136714935303e-01
1.374000012874603271e-01 -1.689770221710205078e-01 -5.204582214355468750e-01
1.559943407773971558e-01 -7.479118555784225464e-02 6.551427245140075684e-01
1.503530144691467285e-01 -2.171516865491867065e-01 6.181219220161437988e-01
-1.252809166908264160e-02 -2.239800840616226196e-01 3.865596354007720947e-01
-2.689526975154876709e-02 -2.215523123741149902e-01 2.898633182048797607e-01
3.105212152004241943e-01 1.001539304852485657e-01 -6.755347549915313721e-02
3.377995491027832031e-01 7.065033167600631714e-02 8.787178993225097656e-02
-3.611704707145690918e-02 -1.190682053565979004e-01 -1.263797581195831299e-01
1.924513876438140869e-01 -3.063555359840393066e-01 3.278163671493530273e-01
4.236258268356323242e-01 -1.540461033582687378e-01 6.382733583450317383e-03
3.548800349235534668e-01 -2.250618487596511841e-02 -5.357718467712402344e-01
2.519698739051818848e-01 -2.598623931407928467e-01 -3.641368448734283447e-01
2.076944559812545776e-01 -2.112865447998046875e-03 5.447536110877990723e-01
-1.093840599060058594e-02 -1.727432608604431152e-01 5.052502751350402832e-01
3.011403977870941162e-01 9.025125950574874878e-02 -3.233736753463745117e-01
-5.344335734844207764e-02 -1.723506748676300049e-01 2.236579954624176025e-01
-2.151267230510711670e-02 -6.005387380719184875e-02 4.418475329875946045e-01
6.622751057147979736e-02 -1.776629686355590820e-02 -4.290202558040618896e-01
9.413338452577590942e-02 -1.419105529785156250e-01 6.686284542083740234e-01
-5.981847643852233887e-03 -1.581754982471466064e-01 -2.269553244113922119e-01
4.171110987663269043e-01 -1.759947836399078369e-01 -3.267379105091094971e-02
2.546605169773101807e-01 -3.113399147987365723e-01 5.604979395866394043e-02
1.883570849895477295e-01 1.123713180422782898e-01 -2.376250028610229492e-01
-4.872658848762512207e-02 -4.348720610141754150e-02 1.833277046680450439e-01
3.904796838760375977e-01 4.030857235193252563e-02 -7.075061649084091187e-02
1.845204234123229980e-01 -3.052654564380645752e-01 -1.593417525291442871e-01
2.642995715141296387e-01 9.251325577497482300e-02 -3.664803504943847656e-01
3.397290110588073730e-01 -2.137070745229721069e-01 -3.967854082584381104e-01
8.889252692461013794e-02 -3.078856170177459717e-01 4.998330026865005493e-02
4.199328720569610596e-01 -4.006556421518325806e-02 -3.373167216777801514e-01
1.266541928052902222e-01 -3.142895102500915527e-01 -1.221978664398193359e-02
8.141943812370300293e-02 9.381259232759475708e-02 6.693279743194580078e-02
2.006109058856964111e-01 -8.062116801738739014e-02 -6.258103847503662109e-01
3.772497177124023438e-02 -2.495917081832885742e-01 4.711523354053497314e-01
2.440541684627532959e-01 5.464986711740493774e-02 -5.070441961288452148e-01
4.952912032604217529e-02 -1.436259001493453979e-01 -4.043616950511932373e-01
1.178624927997589111e-01 9.731041640043258667e-02 -2.048597335815429688e-01
4.178508222103118896e-01 -1.647464334964752197e-01 -2.177710533142089844e-01
-4.375550150871276855e-02 -1.390237212181091309e-01 -6.224143505096435547e-02
1.258036792278289795e-01 9.857387095689773560e-02 1.980335414409637451e-01
3.644778132438659668e-01 1.353068649768829346e-02 -4.620973765850067139e-01
3.071483969688415527e-02 -2.720944583415985107e-01 3.423104286193847656e-01
3.583678305149078369e-01 -1.026730909943580627e-01 3.874496519565582275e-01
4.353406429290771484e-01 -5.012356489896774292e-02 -1.079386994242668152e-01
3.510282039642333984e-01 1.696418225765228271e-02 -4.862746894359588623e-01
2.250066399574279785e-02 -2.289842665195465088e-01 4.952268302440643311e-01
3.351759016513824463e-01 -2.580235302448272705e-01 1.890951395034790039e-01
-1.725870370864868164e-02 1.262725889682769775e-02 3.245957195758819580e-02
2.953653335571289062e-01 -4.301622509956359863e-02 4.938881993293762207e-01
3.914407491683959961e-01 -2.126362621784210205e-01 -1.750496029853820801e-01
4.367377758026123047e-01 -5.821594968438148499e-02 -1.674419343471527100e-01
4.224686622619628906e-01 -2.720695734024047852e-02 -2.903302013874053955e-01
2.457973212003707886e-01 -2.890124320983886719e-01 -2.369242012500762939e-01
3.685335516929626465e-01 6.456143409013748169e-02 -1.614246666431427002e-01
1.023904457688331604e-01 -9.690913558006286621e-02 6.650700569152832031e-01
1.357658207416534424e-02 -3.407794237136840820e-02 -3.005960881710052490e-01
3.465489149093627930e-01 -2.626491785049438477e-01 -7.622893154621124268e-02
2.039779424667358398e-01 3.708324581384658813e-02 4.641851186752319336e-01
1.249600499868392944e-01 -3.188474476337432861e-01 1.854238808155059814e-01
8.166114240884780884e-02 -2.087852805852890015e-01 -3.771955072879791260e-01
1.041127890348434448e-01 9.830079227685928345e-02 1.430322229862213135e-01
1.572266221046447754e-02 -6.900662183761596680e-02 -3.356574177742004395e-01
4.854467511177062988e-02 -2.149474620819091797e-01 -2.917413115501403809e-01
3.935618996620178223e-01 -1.409732699394226074e-01 2.470663785934448242e-01
1.178478300571441650e-01 -1.205644309520721436e-01 -5.401444435119628906e-01
2.321968972682952881e-02 5.654651671648025513e-02 1.545810233801603317e-02
1.237881258130073547e-01 -1.744211465120315552e-01 -4.977631866931915283e-01
4.259924888610839844e-01 -6.367208063602447510e-02 6.039142608642578125e-02
-3.506711125373840332e-02 -1.682144403457641602e-02 2.053885459899902344e-01
1.140315160155296326e-01 -2.790105342864990234e-01 -2.247298657894134521e-01
2.945729792118072510e-01 9.552650898694992065e-02 8.582064509391784668e-02
2.349070161581039429e-01 6.668230146169662476e-02 3.478433787822723389e-01
4.402166604995727539e-02 -3.573738038539886475e-03 -3.525716960430145264e-01
3.616732358932495117e-01 -2.314850389957427979e-01 1.837024688720703125e-01
-3.354382514953613281e-02 -5.593124777078628540e-02 -1.125335171818733215e-01
1.203680038452148438e-01 -2.192171216011047363e-01 6.163539886474609375e-01
5.406063795089721680e-02 4.010828584432601929e-02 -2.786699533462524414e-01
4.085777997970581055e-01 -1.045009568333625793e-01 1.928476989269256592e-01
6.542295217514038086e-03 -2.368207573890686035e-01 -7.946787029504776001e-02
1.014808788895606995e-01 -2.409229874610900879e-01 -3.360135853290557861e-01
1.205758005380630493e-01 1.064445301890373230e-01 -1.192268207669258118e-01
3.278103470802307129e-01 -2.586357891559600830e-01 2.238070666790008545e-01
2.339947223663330078e-02 -2.379966676235198975e-01 -1.476976573467254639e-01
2.352516651153564453e-01 -8.104296773672103882e-02 -6.358225941658020020e-01
2.092031985521316528e-01 -7.114105671644210815e-02 6.259054541587829590e-01
2.815861701965332031e-01 -5.815569311380386353e-02 5.316889882087707520e-01
3.912916779518127441e-01 -1.668289899826049805e-01 -3.736977875232696533e-01
2.374888360500335693e-01 -2.987941503524780273e-01 3.008707761764526367e-01
-4.532204568386077881e-02 -1.629108190536499023e-01 -7.613578811287879944e-03
3.219050168991088867e-01 6.136045604944229126e-02 1.969130039215087891e-01
2.949538230895996094e-01 -1.010507717728614807e-01 -6.160712838172912598e-01
2.848251163959503174e-02 4.538560658693313599e-02 -1.445493698120117188e-01
5.733023583889007568e-02 -2.398115992546081543e-01 5.339189767837524414e-01
1.596895009279251099e-01 -2.050983756780624390e-01 -4.865130484104156494e-01
2.554233074188232422e-01 -5.663660168647766113e-02 5.675641894340515137e-01
4.264464974403381348e-01 -1.556446403264999390e-01 -7.859043031930923462e-02
-4.813407361507415771e-02 -8.997593820095062256e-02 -4.607273638248443604e-02
4.600523412227630615e-02 -9.200350195169448853e-02 -4.210018813610076904e-01
3.294283747673034668e-01 9.159206598997116089e-02 -1.457937359809875488e-01
1.899085789918899536e-01 -5.471723154187202454e-02 6.253315210342407227e-01
1.560151875019073486e-01 -1.056688949465751648e-01 -5.892469882965087891e-01
-1.348656788468360901e-02 -2.668931484222412109e-01 -5.586103349924087524e-02
1.997514516115188599e-01 -1.646688878536224365e-01 -3.225930333137512207e-01
-3.098316863179206848e-02 -2.311272025108337402e-01 -1.761385053396224976e-01
-6.317368149757385254e-02 -7.379810512065887451e-02 3.102113604545593262e-01
-5.318282917141914368e-02 -9.249541163444519043e-02 3.643264472484588623e-01
-3.188344463706016541e-02 3.441156446933746338e-02 -8.706670999526977539e-02
1.568791717290878296e-01 -2.466661036014556885e-01 -3.928189575672149658e-01
-8.760955184698104858e-03 -2.211252748966217041e-01 3.735661506652832031e-01
1.675686240196228027e-02 -2.885577082633972168e-01 -1.093708723783493042e-01
8.209687471389770508e-02 -1.611499637365341187e-01 4.828952848911285400e-01
2.041598111391067505e-01 -1.573366671800613403e-01 -2.804158926010131836e-01
1.828473210334777832e-01 -5.672525614500045776e-02 -1.132319420576095581e-01
9.719746559858322144e-02 -2.453590780496597290e-01 -4.597768187522888184e-01
-4.238063469529151917e-02 -2.342084050178527832e-01 9.749320149421691895e-02
-5.932233110070228577e-02 1.959875226020812988e-03 1.125408858060836792e-01
-7.385548949241638184e-02 -3.000839054584503174e-02 -1.058955639600753784e-01
-5.288810655474662781e-02 -2.141996920108795166e-01 -5.109418183565139771e-02
-4.469000920653343201e-02 -2.284967899322509766e-01 1.327238231897354126e-01
4.577741399407386780e-02 -2.202324569225311279e-01 -4.712931215763092041e-01
-6.248689815402030945e-02 -1.454780101776123047e-01 -2.304505705833435059e-01
5.556080490350723267e-02 -6.998555362224578857e-02 4.583221375942230225e-01
1.987926363945007324e-01 -9.507066756486892700e-02 -1.479841023683547974e-01
1.809921264648437500e-01 -5.318907648324966431e-02 -1.421774476766586304e-01
2.055003792047500610e-01 -1.204705089330673218e-01 -9.217965602874755859e-02
1.827303171157836914e-01 -1.888366937637329102e-01 2.096106857061386108e-01
1.704296767711639404e-01 -3.653874248266220093e-02 -1.812989264726638794e-01
-4.313345998525619507e-03 5.021257698535919189e-02 -4.487039148807525635e-02
1.796117275953292847e-01 -9.907913208007812500e-02 1.562540382146835327e-01
-3.248007968068122864e-02 1.542381942272186279e-02 -2.313513755798339844e-01
-4.989804700016975403e-02 -2.113118767738342285e-01 2.024107724428176880e-01
2.296596765518188477e-03 -2.151086479425430298e-01 4.118508696556091309e-01
1.430980563163757324e-01 -9.841692447662353516e-02 -5.163671374320983887e-01
9.747987985610961914e-02 -3.067493736743927002e-01 -2.139070779085159302e-01
8.096508681774139404e-02 8.363306522369384766e-03 2.384999394416809082e-01
1.938656717538833618e-01 -1.651767790317535400e-01 -3.636808693408966064e-01
6.180468574166297913e-02 -2.197228372097015381e-01 -4.924415647983551025e-01
1.646717935800552368e-01 -2.676645666360855103e-02 -1.492453515529632568e-01
9.518340229988098145e-04 -2.648591399192810059e-01 2.461708784103393555e-01
-7.803760468959808350e-02 -6.233687698841094971e-02 -1.416249126195907593e-01
1.921509504318237305e-01 -2.566436827182769775e-01 -8.551371097564697266e-02
1.454760730266571045e-01 -2.539172768592834473e-03 -1.106959432363510132e-01
-3.750650957226753235e-02 -1.392046958208084106e-01 -3.697716295719146729e-01
-8.649389445781707764e-02 -6.900081783533096313e-02 -6.318639963865280151e-03
1.985919028520584106e-01 -2.299379110336303711e-01 -2.219998240470886230e-01
-7.435354590415954590e-02 -1.893946528434753418e-02 -3.120742738246917725e-03
-5.112351104617118835e-02 1.686382293701171875e-02 -6.969510763883590698e-02
5.003072321414947510e-02 5.234652757644653320e-02 -4.470132291316986084e-03
1.003052517771720886e-01 -1.288200467824935913e-01 4.551940262317657471e-01
4.312802851200103760e-02 -1.659007817506790161e-01 -5.424891114234924316e-01
1.194057613611221313e-02 1.780106127262115479e-02 2.693047821521759033e-01
1.916604638099670410e-01 -2.508084774017333984e-01 -1.921076029539108276e-01
-5.069579929113388062e-03 -1.029201596975326538e-01 -4.867808222770690918e-01
6.149565428495407104e-02 -3.007962107658386230e-01 -2.086296677589416504e-01
-5.782438442111015320e-02 -1.044473052024841309e-02 1.956848353147506714e-01
-7.539634406566619873e-02 -2.859867364168167114e-02 -7.542064785957336426e-02
-1.188657060265541077e-02 -2.709148228168487549e-01 7.109853625297546387e-02
-6.523281335830688477e-02 -1.892946064472198486e-01 -4.797095060348510742e-02
-5.489031597971916199e-02 -2.031473517417907715e-01 -1.071097105741500854e-01
1.748255640268325806e-01 -1.052295342087745667e-01 -4.226898252964019775e-01
-8.176270127296447754e-02 -1.417320221662521362e-01 1.087258160114288330e-01
1.843434125185012817e-01 -2.689757347106933594e-01 -1.184639632701873779e-01
-7.626020908355712891e-02 -4.157217592000961304e-02 1.624714285135269165e-01
2.083722054958343506e-01 -1.595270782709121704e-01 -1.661927253007888794e-02
3.382983803749084473e-02 -3.010175824165344238e-01 1.103317290544509888e-01
-7.348926365375518799e-02 -9.443978965282440186e-02 -1.994826048612594604e-01
-8.438768982887268066e-02 -1.105225980281829834e-01 1.493176221847534180e-01
-6.124942377209663391e-02 -6.829962134361267090e-03 -1.401128768920898438e-01
-5.289844796061515808e-02 9.892106056213378906e-03 -1.195793151855468750e-01
1.777040213346481323e-02 -6.239832192659378052e-02 -5.141705870628356934e-01
1.949715763330459595e-01 -1.406010538339614868e-01 1.159463375806808472e-01
-1.311413571238517761e-02 -8.333034813404083252e-02 -4.642989933490753174e-01
-8.589439094066619873e-04 -2.586624622344970703e-01 2.707107663154602051e-01
1.054453998804092407e-01 -2.438960373401641846e-01 3.799896836280822754e-01
5.803355947136878967e-02 -3.109508454799652100e-01 -9.171031415462493896e-02
1.016230210661888123e-01 -1.166604161262512207e-01 -5.793408751487731934e-01
-4.991843178868293762e-02 1.681952178478240967e-02 7.887093722820281982e-02
9.964000433683395386e-02 -2.842023968696594238e-01 2.803470790386199951e-01
8.845680207014083862e-02 -5.796050280332565308e-02 -5.440353751182556152e-01
1.789628267288208008e-01 -1.415221840143203735e-01 2.216937839984893799e-01
8.174694329500198364e-02 3.387117385864257812e-02 -2.645701169967651367e-01
-1.961492374539375305e-02 -2.454611957073211670e-01 2.461492419242858887e-01
9.666887670755386353e-02 -2.633477449417114258e-01 -4.120741486549377441e-01
1.276189386844635010e-01 -3.054868578910827637e-01 1.098856627941131592e-01
2.068172544240951538e-01 -2.099486440420150757e-01 -4.205220192670822144e-02
-3.049128130078315735e-02 -1.306414604187011719e-01 4.330247640609741211e-01
5.405196920037269592e-02 -2.842059135437011719e-01 2.846310436725616455e-01
-8.553689718246459961e-02 -1.217358112335205078e-01 9.428636729717254639e-02
7.261084765195846558e-02 -6.342978030443191528e-02 4.331568777561187744e-01
2.222573757171630859e-02 5.329306423664093018e-02 -1.352399438619613647e-01
9.507399052381515503e-02 -3.179507255554199219e-01 -7.820388674736022949e-02
1.070733070373535156e-01 -3.073123693466186523e-01 1.504284143447875977e-01
1.432683765888214111e-01 -1.758119463920593262e-01 -5.247858762741088867e-01
3.089323639869689941e-02 -7.199472934007644653e-02 4.699652493000030518e-01
-6.912226974964141846e-02 -1.005939692258834839e-01 -2.308233678340911865e-01
1.161201000213623047e-01 -2.824856340885162354e-01 -3.409708142280578613e-01
2.695756405591964722e-02 -2.998945713043212891e-01 -2.363369241356849670e-02
5.841524899005889893e-02 -2.739343345165252686e-01 -3.422275483608245850e-01
1.964894682168960571e-01 -2.357950210571289062e-01 2.633565291762351990e-02
-8.385208249092102051e-02 -7.346318662166595459e-02 1.482095718383789062e-01
-6.762273609638214111e-02 -4.401735216379165649e-02 2.403886020183563232e-01
1.476215571165084839e-01 -6.047844886779785156e-03 -1.718916594982147217e-01
-2.896930649876594543e-02 3.492809832096099854e-02 6.896509230136871338e-02
-6.479021906852722168e-02 -1.877769231796264648e-01 1.622039526700973511e-01
-2.445812895894050598e-02 -3.120037168264389038e-02 3.663578927516937256e-01
1.510146260261535645e-02 5.356022715568542480e-02 5.493521690368652344e-03
1.465921998023986816e-01 -6.752163171768188477e-03 -2.876058965921401978e-02
1.396137475967407227e-01 -3.041692078113555908e-02 1.787882000207901001e-01
1.151237040758132935e-01 2.293902635574340820e-02 -2.906258776783943176e-02
7.036229968070983887e-02 -1.967758238315582275e-01 -5.351143479347229004e-01
1.772757619619369507e-01 -6.043317914009094238e-02 -2.865494787693023682e-01
-5.045289173722267151e-02 -1.123490482568740845e-01 3.778797984123229980e-01
1.494135707616806030e-01 -9.066164493560791016e-02 -4.928377270698547363e-01
9.433826059103012085e-02 -2.781600356101989746e-01 -3.618332445621490479e-01
1.494711264967918396e-02 4.406931996345520020e-02 1.257088184356689453e-01
1.295269429683685303e-01 -1.750205010175704956e-01 4.034734070301055908e-01
-4.735557362437248230e-02 -2.500901371240615845e-02 -2.881267070770263672e-01
7.779467850923538208e-03 5.189786851406097412e-02 -1.144739985466003418e-01
9.837836772203445435e-02 -1.716246604919433594e-01 4.612801969051361084e-01
1.651190370321273804e-01 -3.050814568996429443e-02 -3.495310246944427490e-02
9.596851468086242676e-02 3.625395894050598145e-02 -1.497612893581390381e-01
-2.144767716526985168e-02 -4.011040925979614258e-02 -4.084834754467010498e-01
1.280032545328140259e-01 -3.016551733016967773e-01 -2.229640185832977295e-01
1.134837567806243896e-01 2.484714984893798828e-02 -1.640094965696334839e-01
-5.259813740849494934e-02 -1.830511242151260376e-01 2.899187803268432617e-01
6.864854693412780762e-02 -2.930381894111633301e-01 2.538520097732543945e-01
5.492540821433067322e-02 6.397843360900878906e-03 2.926637828350067139e-01
1.500307470560073853e-01 -6.748641282320022583e-02 -4.548124074935913086e-01
-2.326737716794013977e-02 -2.298286855220794678e-01 -2.329268306493759155e-01
1.464202105998992920e-01 -2.377636432647705078e-01 3.029762208461761475e-01
8.587289601564407349e-03 -1.762022227048873901e-01 4.738689363002777100e-01
1.343645453453063965e-01 -7.260933518409729004e-03 9.587156772613525391e-02
-6.285543739795684814e-02 -1.899661421775817871e-01 -8.315317332744598389e-02
-4.110439494252204895e-02 -1.958610117435455322e-01 3.187486231327056885e-01
2.498178929090499878e-02 -1.329155266284942627e-02 -4.557302892208099365e-01
2.025404721498489380e-01 -2.241054475307464600e-01 -1.481118239462375641e-02
-6.586034595966339111e-02 -1.935257464647293091e-01 4.968736693263053894e-02
-3.133200481534004211e-02 -2.351517081260681152e-01 2.259754538536071777e-01
1.253087222576141357e-01 7.417231798171997070e-03 5.488546565175056458e-02
1.415652334690093994e-01 -4.274832457304000854e-02 2.129473984241485596e-01
2.538743242621421814e-02 -1.675760298967361450e-01 -5.148082375526428223e-01
1.864608526229858398e-01 -6.753037869930267334e-02 -2.058692872524261475e-01
6.368545442819595337e-02 5.001935362815856934e-02 -3.389929980039596558e-02
1.384008824825286865e-01 -1.197398081421852112e-01 3.644323348999023438e-01
1.360641270875930786e-01 -5.766106396913528442e-02 2.767877280712127686e-01
1.405810117721557617e-01 -5.340293049812316895e-03 3.124344721436500549e-02
-1.108162105083465576e-04 -2.808289527893066406e-01 -2.559386566281318665e-02
1.578371226787567139e-01 -2.203197777271270752e-02 -1.281809620559215546e-02
2.076400965452194214e-01 -1.362063735723495483e-01 -5.943108722567558289e-02
1.721457242965698242e-01 -2.257295250892639160e-01 -3.949281275272369385e-01
1.808613985776901245e-01 -1.046652495861053467e-01 -3.918203115463256836e-01
1.900649964809417725e-01 -1.127568408846855164e-01 -3.481140732765197754e-01
9.057627618312835693e-02 4.341289401054382324e-03 -4.019149541854858398e-01
3.184341639280319214e-02 5.555319786071777344e-02 -5.387566611170768738e-02
1.524088531732559204e-01 -2.873009443283081055e-01 -2.452855855226516724e-01
-5.505950376391410828e-02 -1.677731424570083618e-02 2.352466285228729248e-01
1.106443554162979126e-01 -2.330315262079238892e-01 -4.841202199459075928e-01
6.134377419948577881e-02 -1.990491747856140137e-01 4.751970469951629639e-01
1.060335263609886169e-01 -2.983542084693908691e-01 -2.690022587776184082e-01
-3.952003642916679382e-02 -2.394543886184692383e-01 3.067995980381965637e-02
9.423276036977767944e-02 2.191695570945739746e-02 -3.105963766574859619e-01
-5.974115058779716492e-02 7.794111967086791992e-03 2.073195576667785645e-02
1.249943077564239502e-01 -5.618964880704879761e-02 3.112755715847015381e-01
1.708269566297531128e-01 -2.474023699760437012e-01 -3.462331295013427734e-01
1.866987049579620361e-01 -7.573567330837249756e-02 -2.619472146034240723e-01
1.971768736839294434e-01 -1.420239359140396118e-01 -3.338602185249328613e-01
1.813012361526489258e-01 -5.468988418579101562e-02 -8.259838819503784180e-02
-4.113395139575004578e-02 -2.881302684545516968e-02 3.215273022651672363e-01
1.626843810081481934e-01 -5.483730882406234741e-02 1.378422230482101440e-01
-7.168929278850555420e-02 -1.666975319385528564e-01 1.764016002416610718e-01
2.254451811313629150e-02 -2.335007190704345703e-01 4.063636064529418945e-01
3.915051370859146118e-02 2.735836803913116455e-02 -3.439697921276092529e-01
8.273948729038238525e-02 -9.839783608913421631e-02 4.608704745769500732e-01
1.210594922304153442e-02 -2.825042903423309326e-01 1.805887669324874878e-01
-6.351336836814880371e-02 -1.243189498782157898e-01 -2.523229420185089111e-01
1.233252882957458496e-01 -3.205798566341400146e-02 -4.491650760173797607e-01
-4.669811949133872986e-02 -2.121568620204925537e-01 -1.434514969587326050e-01
1.728593856096267700e-01 -2.621413171291351318e-01 1.289893686771392822e-01
1.304510235786437988e-01 -2.314090728759765625e-02 -4.018383026123046875e-01
-4.078302904963493347e-02 -5.291619151830673218e-02 -3.581205904483795166e-01
7.150362432003021240e-02 -6.577417254447937012e-03 3.110286891460418701e-01
1.642883121967315674e-01 -1.960714161396026611e-01 -4.631572663784027100e-01
1.989600509405136108e-01 -9.864645451307296753e-02 -6.346476823091506958e-02
