5.567975342273712158e-02 -3.454661965370178223e-01 1.515713520348072052e-02
5.676723644137382507e-02 -2.801872491836547852e-01 1.549981255084276199e-02
-3.919064626097679138e-02 -2.508463859558105469e-01 1.421353593468666077e-02
1.268228292465209961e-01 -3.644079267978668213e-01 1.135092321783304214e-02
-5.520877987146377563e-02 5.698322653770446777e-01 -1.143983379006385803e-02
-1.019865944981575012e-01 7.415468096733093262e-01 -6.361973471939563751e-03
9.675893932580947876e-02 -1.051982045173645020e-01 -1.289121992886066437e-02
1.479992084205150604e-02 6.734512001276016235e-02 -1.601004414260387421e-02
1.093092188239097595e-01 1.216608211398124695e-01 -7.570620626211166382e-03
6.217540707439184189e-03 2.327460646629333496e-01 -1.506821066141128540e-02
-3.834426030516624451e-02 6.909600496292114258e-01 6.786518264561891556e-03
1.130349412560462952e-01 -4.621763825416564941e-01 1.209522690623998642e-02
-4.058115929365158081e-02 1.411609649658203125e-01 -1.589763909578323364e-02
-1.032805293798446655e-01 -2.450963556766510010e-01 6.564216688275337219e-03
5.717687308788299561e-02 -6.676935553550720215e-01 -9.445012547075748444e-03
-1.430097669363021851e-01 6.866921186447143555e-01 -5.478451028466224670e-03
-1.642326451838016510e-02 -3.919602632522583008e-01 1.328733656555414200e-02
-4.605403915047645569e-02 3.434251546859741211e-01 1.500471122562885284e-02
4.089410603046417236e-02 2.808908224105834961e-01 1.280889566987752914e-02
1.646365821361541748e-01 -4.818233847618103027e-01 -4.709162283688783646e-03
-1.102371513843536377e-01 3.028835058212280273e-01 -1.280879694968461990e-02
9.687817096710205078e-02 2.219113111495971680e-01 -6.704626139253377914e-03
-9.897188097238540649e-02 1.391761898994445801e-01 -1.336963195353746414e-02
1.189249604940414429e-01 -3.606385737657546997e-02 -9.550774469971656799e-03
6.873491406440734863e-02 7.933659851551055908e-02 -1.344009768217802048e-02
9.487828612327575684e-02 1.373360753059387207e-01 -9.688312187790870667e-03
6.181393563747406006e-02 -7.937348484992980957e-01 4.222977440804243088e-03
-8.969479054212570190e-02 1.736143827438354492e-01 1.443546544760465622e-02
1.062723249197006226e-01 -5.358182191848754883e-01 -1.131240464746952057e-02
9.781017154455184937e-02 1.983485221862792969e-01 7.608507294207811356e-03
1.374940946698188782e-02 1.522280871868133545e-01 1.582051441073417664e-02
9.516004472970962524e-02 -6.596512794494628906e-01 1.011712756007909775e-02
1.097919419407844543e-01 -5.888585448265075684e-01 1.087527349591255188e-02
-1.262949556112289429e-01 2.178022265434265137e-02 -9.157940745353698730e-03
1.583267003297805786e-01 -5.798082351684570312e-01 5.683441180735826492e-03
-1.355708837509155273e-01 4.395011663436889648e-01 1.050971727818250656e-02
1.198583319783210754e-01 -1.770602762699127197e-01 1.143986079841852188e-02
-7.280781120061874390e-02 4.651442766189575195e-01 1.344305835664272308e-02
-7.106862217187881470e-02 -2.681641280651092529e-01 -1.074871141463518143e-02
1.629004627466201782e-01 -5.233246684074401855e-01 -4.879940301179885864e-03
1.001753807067871094e-01 2.143741250038146973e-01 -6.211354397237300873e-03
8.040784299373626709e-02 -8.190839886665344238e-01 2.955722156912088394e-03
3.472210094332695007e-02 4.057073295116424561e-01 -1.030240673571825027e-02
3.360819071531295776e-02 -7.046848535537719727e-01 -6.906263995915651321e-03
8.224119246006011963e-02 -2.673712670803070068e-01 -1.424125954508781433e-02
1.493447087705135345e-02 1.066634133458137512e-01 -1.581156440079212189e-02
1.033487766981124878e-01 -6.706711649894714355e-01 -9.054485708475112915e-03
4.264329373836517334e-02 5.209299325942993164e-01 3.314840607345104218e-03
1.526974439620971680e-01 -5.077590346336364746e-01 7.557928096503019333e-03
1.660440117120742798e-01 -5.392634868621826172e-01 4.199407063424587250e-03
-8.965755999088287354e-02 3.041799068450927734e-01 -1.399071700870990753e-02
1.795863546431064606e-02 -5.257914066314697266e-01 -1.177852228283882141e-02
6.759657710790634155e-02 -6.088067293167114258e-01 1.159831508994102478e-02
-1.335887163877487183e-01 6.193679571151733398e-01 8.434182964265346527e-03
-1.424917578697204590e-01 6.297407150268554688e-01 7.320395205169916153e-03
1.316947042942047119e-01 -2.746802009642124176e-02 7.202867884188890457e-03
5.200100317597389221e-02 8.922941982746124268e-02 1.472568139433860779e-02
1.355228722095489502e-01 5.435470491647720337e-02 -7.352336542680859566e-04
-5.443759262561798096e-02 -6.272962689399719238e-02 -1.490571722388267517e-02
-8.910726755857467651e-02 5.644173622131347656e-01 -1.146019995212554932e-02
3.778180852532386780e-02 -4.390902444720268250e-02 -1.581655070185661316e-02
1.594382897019386292e-02 -2.618466615676879883e-01 -1.545853726565837860e-02
-9.987647086381912231e-02 -3.492066264152526855e-02 -1.177340280264616013e-02
2.757202461361885071e-02 4.688712060451507568e-01 -9.108832105994224548e-03
1.413028314709663391e-02 -4.871577322483062744e-01 1.296045538038015366e-02
-2.946932427585124969e-02 5.320497751235961914e-01 1.173618901520967484e-02
-3.923861682415008545e-02 2.793755829334259033e-01 -1.530185062438249588e-02
-6.467236578464508057e-02 7.426714897155761719e-01 -5.743011832237243652e-03
-1.047612279653549194e-01 -2.703039534389972687e-02 1.176531519740819931e-02
3.810558840632438660e-02 5.506220459938049316e-01 6.183186196722090244e-04
-3.709886595606803894e-02 -4.561135545372962952e-02 1.609495095908641815e-02
1.427915543317794800e-01 -2.103771567344665527e-01 -8.067599497735500336e-03
-1.490355096757411957e-02 1.400075852870941162e-01 -1.606578193604946136e-02
-1.126590371131896973e-01 6.367525458335876465e-01 -9.257469326257705688e-03
9.755999594926834106e-02 -2.171416282653808594e-01 -1.333111245185136795e-02
1.380250453948974609e-01 -5.953994393348693848e-01 -8.081927895545959473e-03
3.189438953995704651e-02 5.108173489570617676e-01 6.833033170551061630e-03
-1.000063642859458923e-01 -3.151041865348815918e-01 3.108440199866890907e-03
-1.389561295509338379e-01 6.157781481742858887e-01 -7.798052858561277390e-03
1.288529038429260254e-01 9.226071834564208984e-02 2.618580590933561325e-03
-7.378537952899932861e-02 7.401362061500549316e-01 6.400597747415304184e-03
-2.040335908532142639e-02 -2.086613476276397705e-01 1.555317267775535583e-02
-1.186691746115684509e-01 4.661828279495239258e-01 1.168296579271554947e-02
9.431552141904830933e-02 -8.270092606544494629e-01 2.230870071798563004e-03
-3.847019746899604797e-02 6.244070082902908325e-02 1.631904952228069305e-02
1.951335743069648743e-02 -1.217078566551208496e-01 -1.614386215806007385e-02
1.641704328358173370e-02 4.474143981933593750e-01 -1.088128611445426941e-02
4.780182614922523499e-02 -6.088522672653198242e-01 -1.082828268408775330e-02
-1.009352579712867737e-01 -1.555332243442535400e-01 -9.435826912522315979e-03
-1.053014546632766724e-01 3.916989564895629883e-01 -1.279163081198930740e-02
-4.976259544491767883e-02 5.188694000244140625e-01 1.257526688277721405e-02
-1.129140630364418030e-01 7.508212924003601074e-01 -5.547833163291215897e-03
7.338923215866088867e-02 -5.642273426055908203e-01 1.240838598459959030e-02
-3.354029729962348938e-02 -2.093794643878936768e-01 1.501666288822889328e-02
9.744477272033691406e-02 -2.309534549713134766e-01 -1.336327940225601196e-02
-1.314694732427597046e-01 7.290959954261779785e-01 -5.179074592888355255e-03
-6.777679175138473511e-02 7.827573418617248535e-01 2.756651723757386208e-03
-7.317671179771423340e-02 -3.322561085224151611e-01 -8.707606233656406403e-03
-4.175830399617552757e-04 -3.646997511386871338e-01 -1.397543493658304214e-02
-2.748356014490127563e-02 9.588722884654998779e-02 -1.614269427955150604e-02
-1.606912612915039062e-01 4.961988031864166260e-01 -6.454348564147949219e-03
4.544998053461313248e-03 3.876844346523284912e-01 -1.299308706074953079e-02
-1.390167623758316040e-01 2.702354639768600464e-02 -6.757402792572975159e-03
-1.696949899196624756e-01 3.771005570888519287e-01 4.830203950405120850e-03
1.394546031951904297e-01 -5.357047170400619507e-02 -5.633973982185125351e-03
8.971056342124938965e-02 1.503116190433502197e-01 1.035600434988737106e-02
5.547022074460983276e-02 -2.885002791881561279e-01 -1.507466007024049759e-02
7.356668263673782349e-02 -6.423330903053283691e-01 -1.030020881444215775e-02
-9.248157590627670288e-02 -3.627241849899291992e-01 1.691246870905160904e-03
1.882528699934482574e-02 3.391419947147369385e-01 -1.306687854230403900e-02
1.540267020463943481e-01 -4.658664762973785400e-01 7.562233600765466690e-03
-1.036266610026359558e-01 2.053239643573760986e-01 1.358019281178712845e-02
-1.179443374276161194e-01 4.272512346506118774e-02 -1.069115847349166870e-02
-3.462392836809158325e-02 4.317042231559753418e-01 -1.361393835395574570e-02
-2.319160476326942444e-02 -6.227977871894836426e-01 3.727006260305643082e-03
-2.307958528399467468e-02 -4.038679003715515137e-01 -1.212112698704004288e-02
-1.247754618525505066e-01 2.033863365650177002e-01 -1.135343499481678009e-02
-4.445224069058895111e-03 -2.220878303050994873e-01 1.588349044322967529e-02
1.572216302156448364e-01 -5.055913329124450684e-01 -6.316794548183679581e-03
1.303061842918395996e-01 -5.810510516166687012e-01 9.540308266878128052e-03
-9.583367407321929932e-02 2.384350001811981201e-01 1.410662755370140076e-02
-1.019684150815010071e-01 5.517461299896240234e-01 -1.128563936799764633e-02
-8.739712834358215332e-02 6.185507178306579590e-01 1.058179512619972229e-02
8.592866361141204834e-03 -6.693192720413208008e-01 6.729180924594402313e-03
2.909947000443935394e-02 -1.771755516529083252e-01 1.631366647779941559e-02
5.406170338392257690e-02 2.591767907142639160e-01 1.210096944123506546e-02
1.035918891429901123e-01 -4.400265216827392578e-01 1.283602509647607803e-02
1.289197057485580444e-01 4.541053250432014465e-02 -5.251687951385974884e-03
4.563175141811370850e-02 -7.745007872581481934e-01 4.180602729320526123e-03
-1.005157008767127991e-01 4.166996479034423828e-01 -1.286800019443035126e-02
-1.362830102443695068e-01 5.162068009376525879e-01 -9.544644504785537720e-03
5.805801227688789368e-02 -6.983842253684997559e-01 -8.465657010674476624e-03
1.082941442728042603e-01 -4.443432092666625977e-01 -1.208662893623113632e-02
-2.078038454055786133e-02 6.544888615608215332e-01 6.951720453798770905e-03
-2.414812147617340088e-02 5.586800575256347656e-01 1.079972460865974426e-02
1.375593394041061401e-01 -7.502529025077819824e-01 4.280700813978910446e-03
-1.252613216638565063e-01 2.947402894496917725e-01 -1.157804857939481735e-02
-1.024931743741035461e-01 -2.552745044231414795e-01 -5.785872228443622589e-03
8.924193680286407471e-02 -2.753693461418151855e-01 -1.387128885835409164e-02
-1.003418713808059692e-01 3.694458603858947754e-01 -1.318297162652015686e-02
-2.839637547731399536e-02 -1.819817125797271729e-01 -1.506903860718011856e-02
6.574587430804967880e-03 -9.363118559122085571e-02 1.661686785519123077e-02
2.199430763721466064e-02 -7.459724545478820801e-01 -2.019851002842187881e-03
-1.037935726344585419e-02 1.797443926334381104e-01 -1.583279483020305634e-02
5.703135207295417786e-02 -2.654718160629272461e-01 1.555115450173616409e-02
-5.197810474783182144e-03 -1.191170066595077515e-01 1.647115498781204224e-02
2.812281809747219086e-02 -5.729249119758605957e-01 -1.108842063695192337e-02
-1.628569215536117554e-01 5.136123895645141602e-01 6.111988332122564316e-03
1.194890215992927551e-01 -9.344779700040817261e-02 1.061698049306869507e-02
1.216216534376144409e-01 -2.418283820152282715e-01 -1.129618845880031586e-02
-5.314789339900016785e-02 -2.981950640678405762e-01 1.241617836058139801e-02
-4.345053061842918396e-02 4.895729124546051025e-01 1.301369909197092056e-02
-5.116588994860649109e-02 1.214801892638206482e-02 -1.547040976583957672e-02
8.467314392328262329e-02 1.256669759750366211e-01 -1.126397959887981415e-02
-1.124123781919479370e-01 2.208600342273712158e-01 -1.259611919522285461e-02
9.483297169208526611e-02 7.143267244100570679e-02 -1.102137845009565353e-02
2.959758229553699493e-02 -1.583808362483978271e-01 -1.597019843757152557e-02
-1.181159317493438721e-01 2.270271480083465576e-01 1.245298143476247787e-02
-1.016855798661708832e-02 -2.768828868865966797e-01 1.521766278892755508e-02
-9.468748420476913452e-02 6.509692072868347168e-01 -9.517197497189044952e-03
-7.461999356746673584e-02 -8.286850899457931519e-02 -1.347047463059425354e-02
1.367928087711334229e-01 4.574783891439437866e-02 5.528121255338191986e-04
4.274871945381164551e-02 5.046637654304504395e-01 4.795734304934740067e-03
-8.788514137268066406e-02 4.415730759501457214e-02 1.402838435024023056e-02
8.287961781024932861e-02 -5.485706925392150879e-01 1.249092724174261093e-02
6.884489953517913818e-02 -3.832754194736480713e-01 -1.417277939617633820e-02
-7.005321979522705078e-02 5.446663498878479004e-01 -1.204197201877832413e-02
-3.247862681746482849e-02 6.887385249137878418e-01 6.341843865811824799e-03
-3.506211563944816589e-02 5.033436417579650879e-01 -1.238263677805662155e-02
-1.629863679409027100e-01 6.694043874740600586e-01 -1.090579899027943611e-03
1.020033657550811768e-02 2.556391656398773193e-01 1.492549665272235870e-02
1.500454694032669067e-01 -6.640966236591339111e-02 1.348012301605194807e-05
4.963928088545799255e-02 -4.718102514743804932e-01 -1.342736277729272842e-02
-3.324243007227778435e-03 6.048171520233154297e-01 -7.287851534783840179e-03
-4.722558706998825073e-02 -1.986113488674163818e-01 1.441192440688610077e-02
-4.199708998203277588e-02 2.024065256118774414e-01 -1.570483110845088959e-02
-2.939512208104133606e-02 2.827396690845489502e-01 -1.526099536567926407e-02
9.453624486923217773e-03 -5.948876142501831055e-01 -9.403606876730918884e-03
3.046079538762569427e-02 -3.578552976250648499e-02 -1.598825305700302124e-02
-1.382129043340682983e-01 2.518465518951416016e-01 1.034530624747276306e-02
-1.205236092209815979e-01 2.913604378700256348e-01 1.232283003628253937e-02
-9.782609343528747559e-02 8.052174746990203857e-02 1.350719016045331955e-02
9.956766664981842041e-02 -2.632772624492645264e-01 1.362253166735172272e-02
-1.005760505795478821e-01 5.011616349220275879e-01 -1.203570235520601273e-02
1.108242794871330261e-01 -1.039022579789161682e-01 1.181170716881752014e-02
1.291383206844329834e-01 -2.623517513275146484e-01 -1.053098216652870178e-02
-3.121235594153404236e-02 6.038379669189453125e-01 -9.698691777884960175e-03
-6.980500370264053345e-02 7.366508245468139648e-01 6.433944683521986008e-03
4.159249737858772278e-02 2.698846533894538879e-02 1.571585983037948608e-02
2.799700014293193817e-03 -5.808278918266296387e-01 -9.350934997200965881e-03
-7.352427393198013306e-02 -2.169187366962432861e-01 -1.156500261276960373e-02
-3.698429465293884277e-02 4.180571064352989197e-03 -1.589930988848209381e-02
-1.584123224020004272e-01 6.745082139968872070e-01 3.084834199398756027e-03
-8.546193689107894897e-02 -3.941863477230072021e-01 2.200961345806717873e-03
1.210943683981895447e-01 -1.519745290279388428e-01 -1.075064484030008316e-02
5.631384626030921936e-02 1.454647183418273926e-01 1.380040682852268219e-02
1.322098970413208008e-01 -1.771577075123786926e-02 6.797024514526128769e-03
-1.359857171773910522e-01 5.452236533164978027e-01 -9.229643270373344421e-03
6.733715534210205078e-02 -2.179587185382843018e-01 -1.494947727769613266e-02
-1.917126704938709736e-03 2.061989158391952515e-02 -1.632322371006011963e-02
6.916231662034988403e-02 -4.653594493865966797e-01 1.384761556982994080e-02
7.119411975145339966e-02 1.033002585172653198e-01 -1.294481661170721054e-02
1.413248777389526367e-01 -6.782290935516357422e-01 -5.957239773124456406e-03
9.245460480451583862e-02 -4.690802693367004395e-01 1.313924789428710938e-02
1.284487843513488770e-01 -8.262276649475097656e-02 9.067585691809654236e-03
1.390707343816757202e-01 -3.007310032844543457e-01 9.764496237039566040e-03
7.674262393265962601e-03 2.968444824218750000e-01 1.449850667268037796e-02
2.395092044025659561e-03 -4.057178199291229248e-01 -1.345002651214599609e-02
-3.198964521288871765e-02 -3.223356902599334717e-01 1.356936804950237274e-02
-1.410371363162994385e-01 1.581125259399414062e-01 -8.777113631367683411e-03
1.548676192760467529e-01 -4.191701710224151611e-01 -7.095974404364824295e-03
-4.537017643451690674e-02 2.079140245914459229e-01 -1.563887670636177063e-02
1.623909175395965576e-02 1.052158623933792114e-01 1.608022302389144897e-02
-4.801425710320472717e-02 5.581513643264770508e-01 1.172145269811153412e-02
7.622180879116058350e-02 -7.325275540351867676e-01 -7.585034240037202835e-03
-1.274315565824508667e-01 7.519205808639526367e-01 -4.446521401405334473e-03
-4.525183513760566711e-02 7.491190433502197266e-01 3.359017195180058479e-03
1.319390088319778442e-01 -7.563150525093078613e-01 4.801771137863397598e-03
3.258747979998588562e-02 -6.148099303245544434e-01 1.071591861546039581e-02
-5.670235678553581238e-02 9.609051048755645752e-03 -1.523420121520757675e-02
7.368013262748718262e-02 -3.650329709053039551e-01 1.460663136094808578e-02
-5.669644102454185486e-02 2.250173091888427734e-01 1.566650904715061188e-02
-1.544845253229141235e-01 6.816826462745666504e-01 -3.626763122156262398e-03
1.093873828649520874e-01 -1.995054483413696289e-01 1.266561821103096008e-02
-1.548403799533843994e-01 1.737785637378692627e-01 -6.133104674518108368e-03
1.673606038093566895e-01 -3.086434602737426758e-01 -2.152485307306051254e-03
5.592114105820655823e-02 -6.471356749534606934e-01 1.056496053934097290e-02
1.070138812065124512e-01 -8.056676387786865234e-01 -3.501495113596320152e-03
-4.089573398232460022e-02 3.238859474658966064e-01 1.519092638045549393e-02
2.241122350096702576e-02 1.636319458484649658e-01 1.543362811207771301e-02
4.471007734537124634e-03 -5.286042094230651855e-01 -1.101034507155418396e-02
2.062992006540298462e-02 4.901280105113983154e-01 9.311156347393989563e-03
1.941130124032497406e-02 -3.819095194339752197e-01 1.476828288286924362e-02
-5.180603638291358948e-02 9.166419506072998047e-02 -1.565019413828849792e-02
1.408253163099288940e-01 -2.569133639335632324e-01 -8.869614452123641968e-03
1.240795329213142395e-01 -5.272766351699829102e-01 -1.025565806776285172e-02
-9.140106290578842163e-02 5.044764280319213867e-01 1.252853032201528549e-02
7.761932164430618286e-02 -2.388423979282379150e-01 -1.449638884514570236e-02
1.026653051376342773e-01 1.064731702208518982e-01 9.444653987884521484e-03
-2.815792523324489594e-02 -3.483374603092670441e-03 -1.608445309102535248e-02
-1.049416661262512207e-01 4.850403070449829102e-01 -1.203059777617454529e-02
-1.436774581670761108e-01 5.123755335807800293e-01 9.056304581463336945e-03
2.164700068533420563e-02 -6.416135281324386597e-02 1.653350703418254852e-02
1.352366358041763306e-01 -3.909334838390350342e-01 1.041403412818908691e-02
8.182537555694580078e-02 -8.001226782798767090e-01 -4.202308133244514465e-03
9.712526574730873108e-03 -1.465169787406921387e-01 1.647858694195747375e-02
1.147498115897178650e-01 -2.843879461288452148e-01 1.245574653148651123e-02
7.522863894701004028e-02 -3.217548429965972900e-01 1.477844268083572388e-02
-3.206428885459899902e-02 2.865187823772430420e-01 1.549920998513698578e-02
4.602587968111038208e-02 4.690024256706237793e-01 6.331739947199821472e-03
3.847063332796096802e-02 3.501573801040649414e-01 -1.136916037648916245e-02
-7.027050107717514038e-02 1.331339180469512939e-01 1.536316797137260437e-02
3.920883685350418091e-02 -7.436353564262390137e-01 5.833251401782035828e-03
1.584149152040481567e-01 -5.317347645759582520e-01 6.282974500209093094e-03
-1.034447476267814636e-01 7.962897419929504395e-01 2.854670630767941475e-03
1.738694868981838226e-02 -7.287295460700988770e-01 3.677533240988850594e-03
3.492541611194610596e-02 -5.213428735733032227e-01 1.294849906116724014e-02
6.494441628456115723e-02 -4.055592119693756104e-01 -1.406671013683080673e-02
7.868644595146179199e-02 1.718325316905975342e-01 -1.107071992009878159e-02
4.208781197667121887e-02 -6.855019927024841309e-01 8.862357586622238159e-03
1.615128815174102783e-01 -3.834390044212341309e-01 -5.533081945031881332e-03
-3.440861776471138000e-02 7.206949591636657715e-01 -4.265159834176301956e-03
-3.746048733592033386e-02 -1.230628937482833862e-01 1.562861911952495575e-02
3.851295262575149536e-02 2.066770792007446289e-01 -1.392078213393688202e-02
-2.169841527938842773e-02 -1.921187937259674072e-01 1.565449871122837067e-02
6.094086170196533203e-02 1.171767041087150574e-01 -1.357183884829282761e-02
-5.246416851878166199e-02 -2.239322662353515625e-01 -1.326625514775514603e-02
-1.039694324135780334e-01 5.552899241447448730e-01 1.135490834712982178e-02
-4.714507237076759338e-02 -2.516819536685943604e-01 -1.321928109973669052e-02
-8.945140987634658813e-02 1.982038617134094238e-01 -1.414291467517614365e-02
-1.330241560935974121e-01 8.448665589094161987e-02 9.497933089733123779e-03
-1.153347343206405640e-01 6.922951340675354004e-01 -7.675436791032552719e-03
-5.742058157920837402e-02 -2.312679588794708252e-01 -1.277723070234060287e-02
8.784333616495132446e-02 -9.313570335507392883e-04 -1.274881791323423386e-02
-7.633623480796813965e-02 5.343494564294815063e-02 -1.445565093308687210e-02
6.509006768465042114e-02 -7.507368922233581543e-02 -1.484583877027034760e-02
1.163399815559387207e-01 -5.515148639678955078e-01 -1.052999589592218399e-02
7.626695930957794189e-02 -1.114219725131988525e-01 -1.438400801271200180e-02
-1.485262364149093628e-01 1.903685033321380615e-01 -7.822189480066299438e-03
4.897664114832878113e-02 -6.351645588874816895e-01 1.072761323302984238e-02
2.006313297897577286e-04 -5.506761670112609863e-01 1.066044066101312637e-02
-2.716015651822090149e-02 2.267587482929229736e-01 -1.565676555037498474e-02
5.060976836830377579e-03 -2.784104645252227783e-01 -1.515391841530799866e-02
-2.064416185021400452e-04 -4.086408317089080811e-01 1.379657629877328873e-02
-1.890477910637855530e-02 5.817300081253051758e-01 9.775679558515548706e-03
-4.813072085380554199e-02 1.260217428207397461e-01 1.608983986079692841e-02
9.848718345165252686e-02 4.075760766863822937e-02 -1.108573842793703079e-02
8.903778344392776489e-02 1.954024657607078552e-02 -1.240310911089181900e-02
6.879979372024536133e-02 -8.194776773452758789e-01 1.497693476267158985e-03
5.405046790838241577e-02 1.278941631317138672e-01 -1.392047014087438583e-02
1.305181682109832764e-01 -2.310895025730133057e-01 -1.018029171973466873e-02
1.177125051617622375e-01 -4.155250191688537598e-01 -1.160417217761278152e-02
1.597485691308975220e-02 5.042706727981567383e-01 9.326723404228687286e-03
1.184070408344268799e-01 1.721772849559783936e-01 -8.215742418542504311e-04
-1.794335804879665375e-02 6.619294732809066772e-02 1.658526249229907990e-02
-4.620736464858055115e-02 6.409281492233276367e-01 9.372678585350513458e-03
-7.843695580959320068e-02 -3.369313478469848633e-01 -7.652841042727231979e-03
1.197857037186622620e-01 -5.975447297096252441e-01 -9.638570249080657959e-03
4.573552310466766357e-02 -7.332397699356079102e-01 -6.392854265868663788e-03
1.180663555860519409e-01 -7.035771012306213379e-01 -7.451404351741075516e-03
-4.293977096676826477e-02 3.895846009254455566e-01 1.449627522379159927e-02
-1.009700074791908264e-01 -3.082056045532226562e-01 -2.771150320768356323e-03
1.932143233716487885e-02 -6.998158097267150879e-01 -5.719445180147886276e-03
-3.539042547345161438e-02 -5.771464705467224121e-01 -3.789147827774286270e-03
1.141769066452980042e-01 -2.379582524299621582e-01 -1.202772185206413269e-02
-1.141606569290161133e-01 2.032244503498077393e-01 -1.239171251654624939e-02
-1.288561671972274780e-01 7.102626562118530273e-01 6.341851316392421722e-03
-3.413197584450244904e-03 -3.983595073223114014e-01 -1.333028916269540787e-02
1.069476976990699768e-01 -4.150033891201019287e-01 -1.235976070165634155e-02
1.312234997749328613e-01 -4.114710688591003418e-01 -1.040262449532747269e-02
1.039567515254020691e-01 -5.231084823608398438e-01 1.205767970532178879e-02
1.240231469273567200e-01 -6.960316300392150879e-01 -7.243827916681766510e-03
-7.329051196575164795e-02 5.910452455282211304e-05 1.470603980123996735e-02
3.080016933381557465e-02 -2.190954685211181641e-01 -1.574290357530117035e-02
-8.762624859809875488e-02 6.494641900062561035e-01 9.818409569561481476e-03
-1.110233599320054054e-03 -3.482536077499389648e-01 1.466049626469612122e-02
1.078612357378005981e-01 -1.972184777259826660e-01 -1.244692504405975342e-02
3.153953701257705688e-02 -2.122565209865570068e-01 1.617247611284255981e-02
-4.868045449256896973e-03 -3.690396845340728760e-01 -1.373954117298126221e-02
1.856525801122188568e-02 -9.868934005498886108e-02 1.656029559671878815e-02
1.041742637753486633e-01 -5.956367850303649902e-01 -1.054165046662092209e-02
9.569677710533142090e-02 1.666662395000457764e-01 9.022771380841732025e-03
-1.305233538150787354e-01 1.157830841839313507e-02 -8.210948668420314789e-03
-9.745439514517784119e-03 -2.906837761402130127e-01 -1.461500115692615509e-02
4.907612502574920654e-02 -6.149675250053405762e-01 1.125268545001745224e-02
8.828027546405792236e-02 3.328744173049926758e-01 2.469861647114157677e-03
-6.550425291061401367e-02 6.514753103256225586e-01 9.655267931520938873e-03
1.692588329315185547e-01 -4.226826131343841553e-01 3.449343144893646240e-03
7.728010416030883789e-02 1.896589398384094238e-01 -1.086696889251470566e-02
3.229625057429075241e-03 -3.351615369319915771e-01 1.495920494198799133e-02
-2.121973782777786255e-02 -3.995219171047210693e-01 1.284917350858449936e-02
-9.464155882596969604e-02 5.200853347778320312e-01 -1.200424693524837494e-02
1.225928962230682373e-02 -4.502724409103393555e-01 -1.306178420782089233e-02
-6.077611818909645081e-02 5.522487312555313110e-02 -1.524311117827892303e-02
8.458459749817848206e-03 -6.734244525432586670e-02 1.664930209517478943e-02
-9.259557723999023438e-02 3.660530149936676025e-01 1.383613608777523041e-02
-1.440636813640594482e-02 -5.075259804725646973e-01 -1.020709611475467682e-02
-5.591003224253654480e-02 4.891654551029205322e-01 -1.296882703900337219e-02
-2.360246144235134125e-02 -3.154848217964172363e-01 1.415903959423303604e-02
-6.507009267807006836e-02 -1.860652267932891846e-01 -1.287079323083162308e-02
-6.505402922630310059e-02 1.022187843918800354e-01 -1.519032102078199387e-02
-1.867144927382469177e-02 -4.463042616844177246e-01 -1.148543693125247955e-02
9.116860479116439819e-02 2.817210555076599121e-01 -5.319618154317140579e-03
1.666626036167144775e-01 -4.483306407928466797e-01 -4.161320161074399948e-03
-6.979830563068389893e-02 2.667604386806488037e-01 -1.487679872661828995e-02
6.731847673654556274e-02 2.025323212146759033e-01 -1.170696318149566650e-02
-5.432961136102676392e-02 -4.951755702495574951e-01 -4.878287203609943390e-03
5.194736272096633911e-02 2.284141778945922852e-01 1.286783721297979355e-02
8.251357078552246094e-02 -2.945472598075866699e-01 1.456855516880750656e-02
6.985260639339685440e-03 -1.994682550430297852e-01 1.621637865900993347e-02
-1.607731133699417114e-01 2.921109497547149658e-01 6.679404526948928833e-03
-1.170867867767810822e-02 2.450565695762634277e-01 1.563696935772895813e-02
2.955318801105022430e-02 -9.991241246461868286e-02 1.641862280666828156e-02
3.321211040019989014e-02 -7.338940501213073730e-01 5.825349129736423492e-03
-2.706036157906055450e-02 2.134771645069122314e-01 1.601662859320640564e-02
-3.013232909142971039e-02 5.270751714706420898e-01 -1.171643566340208054e-02
5.459823459386825562e-02 9.881592541933059692e-02 -1.420241128653287888e-02
1.047254949808120728e-01 -5.787912607192993164e-01 1.128370314836502075e-02
1.596903055906295776e-01 -3.953667581081390381e-01 -6.040490232408046722e-03
1.917001232504844666e-02 5.581991672515869141e-01 6.514034233987331390e-03
8.090491592884063721e-02 -4.662415087223052979e-01 -1.310015749186277390e-02
7.169562857598066330e-03 4.064956605434417725e-01 -1.248561125248670578e-02
-6.749680638313293457e-02 3.722504079341888428e-01 -1.428810227662324905e-02
-4.175213724374771118e-02 4.026460945606231689e-01 1.432381570339202881e-02
1.144064441323280334e-01 -3.581624627113342285e-01 1.247064676135778427e-02
4.332822933793067932e-02 -5.489166378974914551e-01 1.259032730013132095e-02
5.183061212301254272e-02 -4.271741807460784912e-01 1.446583308279514313e-02
4.938205331563949585e-02 4.055988416075706482e-02 1.528053078800439835e-02
6.794653832912445068e-02 -7.593672871589660645e-01 -6.227206438779830933e-03
-5.343195050954818726e-02 -3.047868013381958008e-01 1.225851662456989288e-02
1.414324045181274414e-01 -6.009374186396598816e-02 -5.230419337749481201e-03
1.609811931848526001e-02 -4.433160722255706787e-01 1.381266769021749496e-02
1.343344002962112427e-01 -5.241806432604789734e-02 -6.963107269257307053e-03
-4.275790601968765259e-02 3.127916753292083740e-01 1.528937648981809616e-02
-5.308050662279129028e-02 -4.122433960437774658e-01 9.507190436124801636e-03
-6.526097655296325684e-02 -4.584889113903045654e-01 4.918748512864112854e-03
-1.654123663902282715e-01 5.578373670578002930e-01 4.893586039543151855e-03
4.799935221672058105e-02 -7.161086797714233398e-01 7.936778478324413300e-03
-4.416209086775779724e-02 -1.690906882286071777e-01 -1.447576936334371567e-02
-3.343632444739341736e-02 -1.514751911163330078e-01 -1.514094229787588120e-02
-1.451088637113571167e-01 7.214335799217224121e-01 -3.630873747169971466e-03
3.267588838934898376e-02 1.554925739765167236e-01 -1.481509394943714142e-02
6.715942174196243286e-02 1.124630644917488098e-01 -1.315630320459604263e-02
-9.107296168804168701e-02 7.576110959053039551e-01 -5.688873585313558578e-03
-5.533343926072120667e-02 -5.139271020889282227e-01 -2.895543118938803673e-03
-8.446649461984634399e-02 3.527736067771911621e-01 1.423742994666099548e-02
-3.289945423603057861e-03 -1.024896427989006042e-01 1.654948480427265167e-02
2.338572591543197632e-02 -7.402148842811584473e-02 1.651267707347869873e-02
-1.115850433707237244e-01 2.400881946086883545e-01 -1.270306482911109924e-02
-8.729267120361328125e-02 3.394533395767211914e-01 -1.393821742385625839e-02
-8.409032225608825684e-02 2.331148982048034668e-01 -1.441310159862041473e-02
1.581411510705947876e-01 -3.761220276355743408e-01 6.713934708386659622e-03
-1.569004803895950317e-01 3.654766082763671875e-01 7.858358323574066162e-03
-4.133985564112663269e-02 4.565260186791419983e-02 1.623590849339962006e-02
-1.085807830095291138e-01 6.195612549781799316e-01 9.990150108933448792e-03
-1.044574193656444550e-02 -1.137275621294975281e-01 1.642092876136302948e-02
8.243467658758163452e-02 -7.127310633659362793e-01 8.870227262377738953e-03
-1.060758009552955627e-01 3.690885603427886963e-01 -1.286976877599954605e-02
-1.079893321730196476e-03 -5.318325161933898926e-01 1.110562775284051895e-02
7.792355120182037354e-02 -5.064015090465545654e-02 -1.395778264850378036e-02
-3.391521051526069641e-02 -5.150611400604248047e-01 8.334571495652198792e-03
5.922659486532211304e-02 4.468911886215209961e-01 4.295762162655591965e-03
-5.693887546658515930e-02 5.394007563591003418e-01 -1.209393795579671860e-02
6.475005298852920532e-02 4.273836314678192139e-01 -3.847476094961166382e-03
-1.248658262193202972e-02 -1.982023417949676514e-01 1.587776094675064087e-02
-1.591033935546875000e-01 4.101265668869018555e-01 7.451448123902082443e-03
-5.084629356861114502e-02 4.600015282630920410e-01 1.359059009701013565e-02
-1.583119779825210571e-01 2.689068615436553955e-01 7.031897548586130142e-03
6.305699050426483154e-02 2.973776161670684814e-01 -1.002252288162708282e-02
1.596838086843490601e-01 -4.394915997982025146e-01 -6.083640735596418381e-03
1.732466369867324829e-02 -1.924838423728942871e-01 1.630864478647708893e-02
-1.576525531709194183e-02 -1.708516106009483337e-02 -1.625192351639270782e-02
5.508051812648773193e-02 -5.147571563720703125e-01 1.329979579895734787e-02
-1.263395845890045166e-01 2.228210270404815674e-01 1.162541285157203674e-02
8.099115639925003052e-02 -2.216657400131225586e-01 -1.434185169637203217e-02
-9.320240467786788940e-02 1.304238140583038330e-01 1.410391926765441895e-02
5.738465581089258194e-03 3.211530148983001709e-01 1.423485577106475830e-02
-4.307206347584724426e-02 6.029282212257385254e-01 1.042519323527812958e-02
-1.632608920335769653e-01 1.425906419754028320e-01 -1.233721617609262466e-03
-6.111767888069152832e-02 -4.715142250061035156e-01 5.217318888753652573e-03
8.624403923749923706e-02 9.985516965389251709e-02 -1.153789367526769638e-02
-2.866928651928901672e-02 4.664816856384277344e-01 1.308538485318422318e-02
-6.153682991862297058e-02 -9.476359188556671143e-02 1.466409768909215927e-02
-4.972114786505699158e-02 -1.326743513345718384e-01 1.498137693852186203e-02
8.466929942369461060e-02 -4.571808129549026489e-02 1.373547129333019257e-02
1.131818071007728577e-02 -5.440634489059448242e-02 1.664004102349281311e-02
-3.435212373733520508e-02 8.460384607315063477e-02 -1.605902984738349915e-02
8.590217679738998413e-02 3.004574179649353027e-01 -5.790591705590486526e-03
-1.009895727038383484e-01 3.861456513404846191e-01 1.331932097673416138e-02
1.602033078670501709e-01 -3.036660552024841309e-01 -5.176944192498922348e-03
-1.502889581024646759e-02 3.035340011119842529e-01 -1.487837545573711395e-02
-1.595974341034889221e-02 -4.959051012992858887e-01 1.095611415803432465e-02
-1.033388823270797729e-01 -3.069496154785156250e-01 1.639132620766758919e-03
-1.053956449031829834e-01 -5.242647975683212280e-02 1.131216343492269516e-02
-9.398948401212692261e-02 7.139222025871276855e-01 -7.609121501445770264e-03
9.772368520498275757e-02 -7.521817833185195923e-02 1.287659443914890289e-02
1.210064999759197235e-02 -2.528783679008483887e-02 1.661971956491470337e-02
1.267950534820556641e-01 -2.022586949169635773e-02 -7.836303673684597015e-03
1.218149736523628235e-01 -9.514096193015575409e-03 -8.557761088013648987e-03
-1.618242077529430389e-02 6.050833463668823242e-01 -8.601587265729904175e-03
-8.276178687810897827e-02 7.930947542190551758e-01 -2.775735454633831978e-03
5.542406812310218811e-02 -3.646395206451416016e-01 1.501930318772792816e-02
-3.250897675752639771e-02 -2.484777867794036865e-01 1.461285725235939026e-02
-1.314934343099594116e-01 1.287694573402404785e-01 1.029901672154664993e-02
8.844247460365295410e-02 -2.913120687007904053e-01 -1.388679165393114090e-02
-7.594361156225204468e-02 5.649512410163879395e-01 -1.163785066455602646e-02
-1.298975571990013123e-02 -2.665790319442749023e-01 1.523413602262735367e-02
-4.625990614295005798e-02 2.885316610336303711e-01 1.546638365834951401e-02
1.026042550802230835e-02 -2.124294638633728027e-01 -1.575194858014583588e-02
-1.331763714551925659e-01 6.123520135879516602e-01 8.611094206571578979e-03
-6.753474473953247070e-02 6.399252414703369141e-01 -9.884592145681381226e-03
4.184510558843612671e-02 4.146493375301361084e-01 9.352359920740127563e-03
-5.112063139677047729e-02 -2.041902244091033936e-01 1.409699302166700363e-02
1.495517045259475708e-01 -5.652213692665100098e-01 7.485212292522192001e-03
-4.984076321125030518e-02 4.947186410427093506e-01 1.301769725978374481e-02
3.138918429613113403e-02 -1.237096041440963745e-01 1.637896336615085602e-02
2.869221940636634827e-02 5.930922925472259521e-02 1.599227823317050934e-02
3.124923445284366608e-02 -3.727463483810424805e-01 1.502820849418640137e-02
-5.645353719592094421e-02 3.183873295783996582e-01 1.514463592320680618e-02
-1.613481938838958740e-01 4.620029330253601074e-01 6.839032750576734543e-03
1.230574911460280418e-03 4.905802905559539795e-01 1.106812618672847748e-02
-3.209794312715530396e-02 1.221905276179313660e-01 -1.605093292891979218e-02
-1.423637866973876953e-01 1.280320286750793457e-01 8.510867133736610413e-03
4.679825529456138611e-02 5.178000926971435547e-01 1.235505798831582069e-03
4.000634327530860901e-02 1.330487132072448730e-01 -1.467960793524980545e-02
-7.769987732172012329e-02 7.949070930480957031e-01 -2.090149326249957085e-03
6.872889399528503418e-02 -6.271165013313293457e-01 -1.065893005579710007e-02
2.401521801948547363e-02 3.443305194377899170e-01 -1.264023967087268829e-02
-1.149316802620887756e-01 5.374422669410705566e-01 -1.088211964815855026e-02
1.491784676909446716e-02 -2.778223752975463867e-01 1.575895957648754120e-02
-1.267575919628143311e-01 -1.469211578369140625e-01 -3.418417414650321007e-03
1.102015450596809387e-01 -5.501119494438171387e-01 -1.091887895017862320e-02
6.038735806941986084e-02 -8.818905800580978394e-02 -1.511564664542675018e-02
2.822121139615774155e-03 8.536713570356369019e-02 -1.613528653979301453e-02
-4.811179637908935547e-02 -2.767078578472137451e-01 1.322118286043405533e-02
-1.478278636932373047e-01 1.340503990650177002e-01 -7.090607658028602600e-03
1.211436614394187927e-01 -2.951293289661407471e-01 1.187621336430311203e-02
1.049485281109809875e-01 -5.619677305221557617e-01 -1.102880947291851044e-02
6.252183020114898682e-02 -4.173287749290466309e-01 1.445659250020980835e-02
-7.279512286186218262e-02 1.273251175880432129e-01 1.524468977004289627e-02
-9.274856001138687134e-02 5.521662831306457520e-01 1.177403423935174942e-02
5.027101840823888779e-03 -3.644618391990661621e-01 -1.416009571403264999e-02
2.523811534047126770e-03 5.372574925422668457e-01 -9.395175613462924957e-03
1.287743300199508667e-01 -6.500165462493896484e-01 -7.979627698659896851e-03
7.602312415838241577e-02 -7.714118957519531250e-01 -5.839784629642963409e-03
6.224592030048370361e-02 -7.290906310081481934e-01 8.001509122550487518e-03
-3.951667994260787964e-02 1.414572894573211670e-01 1.623144745826721191e-02
8.299738168716430664e-02 -7.342929244041442871e-01 8.122251369059085846e-03
1.799579150974750519e-02 2.493900656700134277e-01 1.467911340296268463e-02
6.809508055448532104e-02 -5.432764887809753418e-01 1.280528772622346878e-02
-1.507665365934371948e-01 7.043818831443786621e-01 -3.365438897162675858e-03
-5.039864405989646912e-02 3.352798521518707275e-01 -1.481331605464220047e-02
1.038808524608612061e-01 -7.020105719566345215e-01 -8.207574486732482910e-03
7.948472350835800171e-02 2.624591588973999023e-01 -8.662147447466850281e-03
-2.065520361065864563e-02 -2.460226416587829590e-02 -1.617026701569557190e-02
-1.104317530989646912e-01 6.503909826278686523e-01 9.211152791976928711e-03
-4.582222923636436462e-02 -8.891630917787551880e-02 1.552690193057060242e-02
-9.491241071373224258e-04 4.617315828800201416e-01 -1.177602913230657578e-02
1.286299675703048706e-01 -7.687404751777648926e-01 -4.009530413895845413e-03
-4.048408940434455872e-02 6.627013087272644043e-01 -8.136987686157226562e-03
-7.591315358877182007e-02 -2.683120071887969971e-01 1.065675169229507446e-02
-8.748189359903335571e-02 5.647264719009399414e-01 1.167591102421283722e-02
-2.873962931334972382e-02 -9.336500614881515503e-02 -1.571418903768062592e-02
-1.970247598364949226e-03 4.438970088958740234e-01 1.240671332925558090e-02
-1.590233445167541504e-01 1.848876774311065674e-01 -5.153099074959754944e-03
-3.917317371815443039e-04 -3.915176391601562500e-01 1.406442187726497650e-02
-3.743372857570648193e-02 -2.706447243690490723e-01 -1.356513891369104385e-02
-9.982876479625701904e-03 -4.779651388525962830e-02 -1.625462435185909271e-02
-8.518020063638687134e-02 -1.582626998424530029e-01 1.188364997506141663e-02
5.678637325763702393e-02 1.647415757179260254e-01 -1.325582340359687805e-02
-1.104731336236000061e-01 -9.606105834245681763e-02 -9.332550689578056335e-03
1.189622469246387482e-02 8.796681463718414307e-02 -1.597668230533599854e-02
-1.078673526644706726e-01 7.972135543823242188e-01 -2.452498069033026695e-03
-5.001796409487724304e-02 8.981899172067642212e-02 1.604591123759746552e-02
-1.448247730731964111e-01 3.024125993251800537e-01 9.643756784498691559e-03
-1.234790384769439697e-01 7.182712107896804810e-02 -1.034035347402095795e-02
3.934585675597190857e-02 2.274871170520782471e-01 1.381112076342105865e-02
5.470009893178939819e-02 -7.244711518287658691e-01 -7.320665754377841949e-03
4.693456366658210754e-02 -6.257033944129943848e-01 1.092561613768339157e-02
-2.923811320215463638e-03 -2.469290196895599365e-01 -1.527125854045152664e-02
-7.059283554553985596e-02 6.243259310722351074e-01 -1.033312361687421799e-02
-1.402241885662078857e-01 1.435113847255706787e-01 -8.728460408747196198e-03
2.794723585247993469e-02 -4.696903228759765625e-01 1.369406003504991531e-02
9.683490544557571411e-02 -3.166468441486358643e-01 -1.336546149104833603e-02
-3.272680565714836121e-02 1.644394993782043457e-01 1.623942889273166656e-02
1.338906586170196533e-01 -3.010369241237640381e-01 1.046481356024742126e-02
-1.479336619377136230e-01 2.059851586818695068e-01 8.490303531289100647e-03
-3.388783335685729980e-02 2.368358150124549866e-02 1.637885533273220062e-02
-1.491270214319229126e-01 5.885900259017944336e-01 7.328731939196586609e-03
-5.070144683122634888e-02 -7.010418176651000977e-02 1.543809380382299423e-02
5.656071379780769348e-02 2.237070500850677490e-01 1.255610771477222443e-02
-9.093675762414932251e-03 -6.291551589965820312e-01 -5.862799007445573807e-03
1.641309559345245361e-01 -5.803053379058837891e-01 -3.688698867335915565e-03
-9.631314128637313843e-02 -2.037043571472167969e-01 9.406724944710731506e-03
4.064255952835083008e-02 -7.426080703735351562e-01 -5.438950378447771072e-03
7.153876125812530518e-02 -5.306556820869445801e-01 1.296256110072135925e-02
1.027839258313179016e-02 5.642102956771850586e-01 -7.454945705831050873e-03
4.545475542545318604e-02 -2.707578800618648529e-02 -1.551345176994800568e-02
-4.753123223781585693e-02 -3.230113089084625244e-01 1.240854430943727493e-02
-7.216400653123855591e-02 2.772431671619415283e-01 1.505056396126747131e-02
3.915252536535263062e-02 -7.006010413169860840e-01 -7.497807964682579041e-03
9.620206803083419800e-02 -2.902885377407073975e-01 -1.345004420727491379e-02
8.691651374101638794e-02 -1.248685419559478760e-01 1.409763470292091370e-02
-9.329622238874435425e-02 -8.612281829118728638e-02 1.218367647379636765e-02
-4.852317646145820618e-02 -4.835842549800872803e-01 -6.819287780672311783e-03
-1.451257169246673584e-01 3.868886530399322510e-01 -9.354372508823871613e-03
-7.346172630786895752e-02 7.502759099006652832e-01 -5.723840091377496719e-03
-1.066607311367988586e-01 -2.386211752891540527e-01 5.940728355199098587e-03
-1.158407032489776611e-01 3.860386610031127930e-01 -1.216392964124679565e-02
1.459852606058120728e-01 -2.451033592224121094e-01 -7.857003249228000641e-03
-1.273640543222427368e-01 4.794724285602569580e-01 1.092950534075498581e-02
1.156675145030021667e-01 -3.705140948295593262e-01 1.234322786331176758e-02
-1.008395552635192871e-01 7.113659381866455078e-01 7.723118644207715988e-03
1.138777583837509155e-01 -2.309101521968841553e-01 1.238621491938829422e-02
1.518604904413223267e-02 -3.773753643035888672e-01 -1.425944734364748001e-02
-9.442022070288658142e-03 -3.835708796977996826e-01 1.379940286278724670e-02
3.141104057431221008e-02 -8.330198377370834351e-02 -1.602321863174438477e-02
-1.291491650044918060e-02 -5.873721837997436523e-01 -7.474866230040788651e-03
1.031513065099716187e-01 1.992660015821456909e-02 -1.083985995501279831e-02
-1.718487404286861420e-02 -2.899883687496185303e-01 1.480444427579641342e-02
-8.848407119512557983e-02 7.126168608665466309e-01 7.826595567166805267e-03
5.205907672643661499e-02 -3.029374182224273682e-01 -1.505861151963472366e-02
8.077370002865791321e-03 1.320164501667022705e-01 1.610816270112991333e-02
-1.621587574481964111e-01 4.619506299495697021e-01 -6.398954428732395172e-03
-7.743097841739654541e-02 1.367925703525543213e-01 1.503916829824447632e-02
5.453329533338546753e-02 2.657375633716583252e-01 1.192032638937234879e-02
-3.387245535850524902e-02 6.612056493759155273e-01 7.850452326238155365e-03
1.088200956583023071e-01 -2.241322398185729980e-01 1.282043009996414185e-02
-8.441440761089324951e-02 6.643745303153991699e-01 9.427205659449100494e-03
1.262100487947463989e-01 -1.813539266586303711e-01 -1.036139391362667084e-02
-4.179441928863525391e-02 2.243181765079498291e-01 -1.561255007982254028e-02
-9.850193746387958527e-03 -1.890165731310844421e-02 -1.630358025431632996e-02
-1.154272705316543579e-01 3.300349116325378418e-01 1.268139854073524475e-02
1.263076364994049072e-01 -6.898815035820007324e-01 7.752116769552230835e-03
-1.145239993929862976e-01 3.231945931911468506e-01 1.276433654129505157e-02
-7.728224992752075195e-02 -4.050906002521514893e-01 -4.440827760845422745e-03
6.997745018452405930e-03 2.330137789249420166e-01 1.529129780828952789e-02
3.561225160956382751e-02 -5.730684399604797363e-01 -1.135252881795167923e-02
-1.322540827095508575e-02 6.784275770187377930e-01 -4.111740272492170334e-03
7.499819248914718628e-02 2.579180598258972168e-01 9.686092846095561981e-03
-1.081055700778961182e-01 7.751546502113342285e-01 -4.374019335955381393e-03
2.161394339054822922e-03 -2.730237245559692383e-01 1.559165120124816895e-02
-2.120689302682876587e-02 1.010058447718620300e-02 -1.622284762561321259e-02
-6.816054880619049072e-02 4.208296537399291992e-01 -1.381105836480855942e-02
4.094193875789642334e-02 -4.537309706211090088e-01 1.412442885339260101e-02
9.547390788793563843e-02 -2.019582390785217285e-01 -1.344439201056957245e-02
7.954984158277511597e-02 -6.358689814805984497e-02 -1.393176708370447159e-02
-9.621137380599975586e-02 -2.708660066127777100e-01 7.166243158280849457e-03
-1.357905119657516479e-01 6.620912551879882812e-01 7.228021975606679916e-03
1.472526192665100098e-01 -3.452731966972351074e-01 8.696944452822208405e-03
-1.964515447616577148e-02 2.850771248340606689e-01 -1.514324080199003220e-02
-1.714633405208587646e-01 2.710092365741729736e-01 -1.777453813701868057e-03
1.239198371767997742e-01 -1.665020883083343506e-01 1.084985304623842239e-02
-1.592784076929092407e-01 2.474679648876190186e-01 -6.192042957991361618e-03
3.403718024492263794e-02 4.129571318626403809e-01 1.032859552651643753e-02
9.487856179475784302e-02 3.058977723121643066e-01 1.235499395988881588e-03
-1.034578531980514526e-01 6.715283989906311035e-01 -8.752996101975440979e-03
8.218051493167877197e-02 -7.268500328063964844e-01 8.392550982534885406e-03
-5.489128828048706055e-02 4.031821191310882568e-01 -1.412454061210155487e-02
1.298845745623111725e-02 -1.452735364437103271e-01 -1.609606668353080750e-02
4.349425807595252991e-02 2.086766362190246582e-01 1.381346303969621658e-02
-1.532180160284042358e-01 5.058484077453613281e-01 7.883588783442974091e-03
-8.397123962640762329e-02 2.385880947113037109e-01 -1.441176794469356537e-02
1.094435527920722961e-01 -2.264299616217613220e-02 -1.068411953747272491e-02
-7.008408755064010620e-02 1.289924383163452148e-01 -1.502387691289186478e-02
3.648533020168542862e-04 3.493696749210357666e-01 1.403498090803623199e-02
5.298772454261779785e-02 2.070951461791992188e-01 1.314336806535720825e-02
1.102886274456977844e-01 -7.500652670860290527e-01 6.882998626679182053e-03
1.956715993583202362e-02 2.525611519813537598e-01 -1.433209050446748734e-02
-1.493356376886367798e-01 4.925540387630462646e-01 -8.293542079627513885e-03
-3.143715485930442810e-02 2.908939495682716370e-03 -1.603048853576183319e-02
1.153118684887886047e-01 -1.261866241693496704e-01 -1.120577473193407059e-02
9.180314093828201294e-02 -3.071700334548950195e-01 -1.367283053696155548e-02
-8.956932276487350464e-02 -1.632730066776275635e-01 -1.081619877368211746e-02
8.575746417045593262e-02 -4.476284980773925781e-02 -1.333859097212553024e-02
-5.227349698543548584e-02 -4.585354626178741455e-01 7.869022898375988007e-03
2.738711424171924591e-02 8.338365703821182251e-02 1.588761247694492340e-02
-1.293960958719253540e-01 3.461851924657821655e-02 9.289703331887722015e-03
-7.173136621713638306e-02 -2.114652693271636963e-01 1.232378743588924408e-02
-1.452028453350067139e-01 4.739473760128021240e-01 9.225852787494659424e-03
3.304379805922508240e-02 -3.053696751594543457e-01 -1.519985403865575790e-02
1.612076610326766968e-01 -3.698245286941528320e-01 -5.538539495319128036e-03
8.931464701890945435e-02 1.957519352436065674e-01 9.259833954274654388e-03
-1.118856295943260193e-01 -3.072672523558139801e-02 -1.039140392094850540e-02
3.142351284623146057e-02 2.357631027698516846e-01 -1.394405029714107513e-02
1.013350859284400940e-01 8.070110529661178589e-02 1.023013517260551453e-02
7.735591381788253784e-02 -7.076682150363922119e-02 1.443944871425628662e-02
