2.227582931518554688e-01 -6.057249754667282104e-02 -8.015224337577819824e-02
1.451847255229949951e-01 -1.048643887042999268e-02 -1.983268558979034424e-02
-9.206876158714294434e-03 -3.488389030098915100e-02 -9.855149686336517334e-02
1.261802911758422852e-01 -5.147061869502067566e-02 -2.627081274986267090e-01
8.438713848590850830e-03 -9.597933292388916016e-02 -2.492004632949829102e-01
6.812680512666702271e-02 -1.306608319282531738e-02 -3.532727435231208801e-02
1.479044556617736816e-01 -7.320856302976608276e-02 -2.380709946155548096e-01
1.276441812515258789e-01 -1.291100680828094482e-02 5.046004056930541992e-02
3.852036595344543457e-02 -5.734215676784515381e-02 1.448423564434051514e-01
1.873635351657867432e-01 -2.142882347106933594e-02 -7.398653030395507812e-02
1.726587265729904175e-01 -3.532310947775840759e-02 1.665457189083099365e-01
1.062989383935928345e-01 -1.028748154640197754e-01 1.577367782592773438e-01
7.425393909215927124e-02 -4.863117635250091553e-02 -2.870507240295410156e-01
-2.512960135936737061e-02 -6.989137083292007446e-02 2.034137398004531860e-02
9.697291254997253418e-02 -2.250829711556434631e-02 1.071166023612022400e-01
3.477066010236740112e-02 -1.022404208779335022e-01 -2.440802454948425293e-01
-3.857634961605072021e-02 -8.702081441879272461e-02 -5.415039882063865662e-02
1.125051081180572510e-02 -2.618902549147605896e-02 -8.894471824169158936e-02
5.693695321679115295e-02 -5.340323597192764282e-02 1.628944873809814453e-01
2.115036249160766602e-01 -2.855174243450164795e-02 -2.538924291729927063e-02
2.194024920463562012e-01 -8.281213045120239258e-02 8.671929687261581421e-02
1.057586818933486938e-02 -8.100280910730361938e-02 1.079685017466545105e-01
4.882857576012611389e-02 -1.611031964421272278e-02 -9.863144159317016602e-02
6.707829236984252930e-02 -2.392985671758651733e-02 8.058870583772659302e-02
-2.267811447381973267e-02 -8.477085828781127930e-02 2.375568449497222900e-02
6.845073401927947998e-02 -4.361536726355552673e-02 1.570304036140441895e-01
1.219295412302017212e-01 -1.136336028575897217e-01 -1.380166113376617432e-01
1.942657828330993652e-01 -9.489972144365310669e-02 -7.695697247982025146e-02
1.126331239938735962e-01 -1.158610135316848755e-01 8.721401542425155640e-02
5.162332579493522644e-02 -4.433478042483329773e-02 1.386680006980895996e-01
8.635753393173217773e-02 -1.355383172631263733e-02 2.293369919061660767e-02
8.057782799005508423e-02 -1.236981526017189026e-01 -1.525281742215156555e-02
2.248307913541793823e-01 -3.859214112162590027e-02 -2.214048616588115692e-02
1.298838853836059570e-02 -1.157593876123428345e-01 -1.976525224745273590e-02
1.216252595186233521e-01 -4.104030132293701172e-02 -2.521377801895141602e-01
1.386651396751403809e-01 -1.023335382342338562e-02 -5.242281779646873474e-02
2.280056327581405640e-01 -6.173682957887649536e-02 1.140911355614662170e-01
9.155122190713882446e-02 -3.840159624814987183e-02 1.649214029312133789e-01
1.499693393707275391e-01 -9.974439442157745361e-02 1.579694449901580811e-01
-2.823161333799362183e-02 -9.845464676618576050e-02 -4.811245203018188477e-02
1.647527515888214111e-01 -1.867034658789634705e-02 8.805035799741744995e-02
-1.993425190448760986e-02 -1.034082397818565369e-01 -1.589653193950653076e-01
1.240601688623428345e-01 -2.806905657052993774e-02 -2.151439487934112549e-01
4.963570460677146912e-02 -1.230083778500556946e-01 -4.177217930555343628e-02
1.977533400058746338e-01 -9.535269439220428467e-02 -5.717965960502624512e-02
3.522029891610145569e-02 -1.150352209806442261e-01 4.374770075082778931e-02
1.666241288185119629e-01 -8.788186311721801758e-02 -1.815699338912963867e-01
1.606702059507369995e-01 -1.437585428357124329e-02 4.655656218528747559e-02
6.843564659357070923e-02 -1.232199221849441528e-01 -6.284233182668685913e-03
-1.412301510572433472e-02 -8.010027557611465454e-02 5.389499664306640625e-02
2.489879727363586426e-02 -1.111505180597305298e-01 -1.963354945182800293e-01
1.478026062250137329e-02 -3.092019259929656982e-02 -1.926705539226531982e-01
6.365343928337097168e-02 -1.964739710092544556e-02 -1.807727813720703125e-01
9.417705237865447998e-02 -1.222088038921356201e-01 -8.441478013992309570e-02
9.936296939849853516e-02 -1.315774768590927124e-02 3.611566126346588135e-02
-4.184059798717498779e-03 -9.685848653316497803e-02 4.932940751314163208e-02
-2.778081595897674561e-02 -1.016932874917984009e-01 -8.713848143815994263e-02
1.574029177427291870e-01 -1.334951445460319519e-02 -7.138154655694961548e-02
1.233144998550415039e-01 -3.000980243086814880e-02 1.556836068630218506e-01
6.545042991638183594e-02 -1.070953607559204102e-01 -2.249172329902648926e-01
-2.607362717390060425e-02 -9.512852877378463745e-02 -1.904512345790863037e-01
2.323246896266937256e-01 -4.931194335222244263e-02 7.663695514202117920e-02
-1.761925220489501953e-02 -4.279916733503341675e-02 -1.727489233016967773e-01
-2.087455242872238159e-02 -4.532000049948692322e-02 -4.316366463899612427e-02
4.669508710503578186e-02 -1.224785074591636658e-01 -8.724842965602874756e-02
2.833448350429534912e-02 -1.091141328215599060e-01 6.833211332559585571e-02
3.921735286712646484e-02 -9.733781218528747559e-02 1.262860894203186035e-01
5.002744495868682861e-03 -3.145951777696609497e-02 -2.939666435122489929e-02
1.523479819297790527e-01 -1.129025593400001526e-02 -8.409298956394195557e-03
4.112760350108146667e-02 -9.513768553733825684e-02 -2.673075795173645020e-01
-3.157532215118408203e-02 -6.815338134765625000e-02 -2.167930006980895996e-01
-4.468302428722381592e-02 -8.166170865297317505e-02 -1.008033007383346558e-01
-4.191021621227264404e-02 -6.628452986478805542e-02 -1.618607938289642334e-01
1.640815585851669312e-01 -1.785702258348464966e-02 -1.081295907497406006e-01
7.990694046020507812e-02 -8.174309134483337402e-02 -2.862409651279449463e-01
6.162524223327636719e-04 -1.141754090785980225e-01 -6.258985400199890137e-02
-3.137791156768798828e-02 -5.061649531126022339e-02 -1.495909988880157471e-01
-1.131243258714675903e-02 -1.103167831897735596e-01 -8.709722757339477539e-02
1.439973413944244385e-01 -1.081340312957763672e-01 -1.360608935356140137e-01
-2.007152885198593140e-02 -5.120815336704254150e-02 -4.540357738733291626e-03
8.225321769714355469e-03 -1.158461868762969971e-01 -4.499154165387153625e-02
5.975439772009849548e-02 -1.011690646409988403e-01 1.383177340030670166e-01
-1.882487535476684570e-02 -1.061412394046783447e-01 -6.472876667976379395e-02
2.143068015575408936e-01 -7.170715928077697754e-02 -9.829390048980712891e-02
1.989154517650604248e-02 -1.179989874362945557e-01 -1.209881529211997986e-01
7.856579869985580444e-02 -1.149741560220718384e-01 -1.761649847030639648e-01
5.901247262954711914e-03 -8.515553921461105347e-02 -2.709332406520843506e-01
1.907119452953338623e-01 -1.006459742784500122e-01 7.308392226696014404e-02
1.579081416130065918e-01 -1.028463989496231079e-01 1.360580325126647949e-01
9.533625096082687378e-02 -1.173215955495834351e-01 7.858426868915557861e-02
-3.419418632984161377e-02 -9.113173931837081909e-02 -1.758499443531036377e-01
-8.485890924930572510e-03 -9.318292140960693359e-02 -2.372071743011474609e-01
2.083386480808258057e-01 -7.129133492708206177e-02 -1.192193105816841125e-01
1.723087280988693237e-01 -3.066124394536018372e-02 -1.630817502737045288e-01
1.536535024642944336e-01 -1.147544309496879578e-01 6.130781024694442749e-03
-3.337073326110839844e-02 -5.373427644371986389e-02 -6.833133846521377563e-02
1.986897438764572144e-01 -9.886161983013153076e-02 3.696566820144653320e-02
1.908113062381744385e-01 -4.408030211925506592e-02 -1.612652540206909180e-01
4.722868651151657104e-02 -1.185387074947357178e-01 -1.516192257404327393e-01
1.465888321399688721e-01 -8.719406276941299438e-02 1.962443292140960693e-01
-1.676613837480545044e-02 -1.052815765142440796e-01 -3.821676224470138550e-02
9.258560091257095337e-02 -1.196056306362152100e-01 -1.247346401214599609e-01
4.319238290190696716e-02 -1.121961176395416260e-01 -1.995277404785156250e-01
6.759493052959442139e-02 -9.147317707538604736e-02 1.680667400360107422e-01
1.511203944683074951e-01 -5.528625473380088806e-02 -2.385699450969696045e-01
1.471044868230819702e-01 -1.045366227626800537e-01 -1.518261730670928955e-01
5.354980751872062683e-02 -1.719002425670623779e-02 -1.411826461553573608e-01
7.306995987892150879e-02 -1.857032254338264465e-02 5.231467634439468384e-02
2.351753413677215576e-03 -4.192670434713363647e-02 -2.287964522838592529e-01
-1.049801707267761230e-02 -4.039166867733001709e-02 -1.858889460563659668e-01
1.737220436334609985e-01 -3.626803681254386902e-02 -1.779290735721588135e-01
2.203175723552703857e-01 -5.900512635707855225e-02 1.408120691776275635e-01
1.256652623414993286e-01 -1.154410839080810547e-02 3.207073360681533813e-02
1.281007379293441772e-01 -2.229463309049606323e-02 1.225321814417839050e-01
1.116126999258995056e-01 -7.983810454607009888e-02 2.074128985404968262e-01
-4.587303102016448975e-02 -7.471456378698348999e-02 -1.210314258933067322e-01
9.110558778047561646e-02 -1.235926300287246704e-01 -2.577261067926883698e-02
2.357910424470901489e-01 -5.361262708902359009e-02 1.330936327576637268e-02
3.495963662862777710e-02 -1.025332957506179810e-01 1.055338457226753235e-01
-2.002241462469100952e-02 -1.059242859482765198e-01 -1.227651163935661316e-01
-4.766851663589477539e-03 -3.334187343716621399e-02 -7.211901247501373291e-02
4.922921210527420044e-02 -1.141953766345977783e-01 7.033669948577880859e-02
1.764129102230072021e-01 -1.781432330608367920e-02 6.075488030910491943e-02
2.810964733362197876e-02 -2.318594232201576233e-02 -1.532471776008605957e-01
1.616869866847991943e-01 -9.088799357414245605e-02 1.792986690998077393e-01
1.876254975795745850e-01 -1.832106336951255798e-02 2.231046557426452637e-02
7.816401124000549316e-02 -7.002020627260208130e-02 1.947642564773559570e-01
1.005789414048194885e-01 -1.106586754322052002e-01 1.231435760855674744e-01
8.393728733062744141e-02 -1.222155541181564331e-01 2.155778557062149048e-02
9.930331259965896606e-02 -1.164746880531311035e-01 -1.472617387771606445e-01
-2.629444003105163574e-03 -3.284002467989921570e-02 -1.434107422828674316e-01
1.945837736129760742e-01 -2.343916520476341248e-02 7.410059869289398193e-02
1.035225540399551392e-01 -1.227054446935653687e-01 -1.321514323353767395e-02
9.424351900815963745e-02 -7.616577297449111938e-02 -2.852874994277954102e-01
3.219436109066009521e-02 -4.356564581394195557e-02 1.068761572241783142e-01
1.287582963705062866e-01 -9.887567907571792603e-02 -2.065027356147766113e-01
9.888032823801040649e-02 -1.906918734312057495e-02 8.768617361783981323e-02
7.911992073059082031e-02 -1.398951560258865356e-02 -1.365781426429748535e-01
1.407162249088287354e-01 -1.131804287433624268e-01 8.468232303857803345e-02
9.030097723007202148e-02 -1.029680594801902771e-01 1.529643833637237549e-01
7.410906255245208740e-02 -1.034393981099128723e-01 -2.367418706417083740e-01
1.544308662414550781e-01 -4.421044886112213135e-02 -2.233195900917053223e-01
1.353247910737991333e-01 -1.166094094514846802e-01 5.320099741220474243e-02
3.683301433920860291e-02 -8.545375615358352661e-02 -2.862751185894012451e-01
-4.243613779544830322e-02 -7.121810317039489746e-02 -6.515003740787506104e-02
1.332366764545440674e-01 -1.861550286412239075e-02 1.010265871882438660e-01
2.351352423429489136e-01 -6.193473562598228455e-02 1.599024981260299683e-03
7.852973788976669312e-02 -1.739231497049331665e-02 -1.715659797191619873e-01
1.332870125770568848e-01 -8.898907899856567383e-02 -2.302237153053283691e-01
8.838422596454620361e-03 -3.086426854133605957e-02 -1.752247214317321777e-01
1.112497970461845398e-01 -3.577299788594245911e-02 1.697904467582702637e-01
1.220206916332244873e-01 -1.477010175585746765e-02 6.856667250394821167e-02
1.731671541929244995e-01 -7.364815473556518555e-02 2.022602856159210205e-01
1.835043728351593018e-01 -1.028799191117286682e-01 -5.410327389836311340e-02
8.454456180334091187e-02 -1.233819723129272461e-01 -7.054732739925384521e-02
1.706121563911437988e-01 -1.100522205233573914e-01 -5.934089422225952148e-04
2.189728319644927979e-01 -3.411782905459403992e-02 7.012667506933212280e-02
1.131798326969146729e-01 -1.210758239030838013e-01 -6.309703737497329712e-02
9.142101556062698364e-02 -2.951312437653541565e-02 1.353788077831268311e-01
1.046248972415924072e-01 -1.227008327841758728e-01 -2.965811640024185181e-02
1.670981347560882568e-01 -3.788425028324127197e-02 -1.930226385593414307e-01
1.794039011001586914e-01 -1.014813259243965149e-01 -8.565016090869903564e-02
6.827776134014129639e-02 -1.222630888223648071e-01 1.317856460809707642e-02
1.975008249282836914e-01 -2.609452977776527405e-02 8.962621539831161499e-02
2.243800610303878784e-01 -4.530815035104751587e-02 1.070918366312980652e-01
1.886028051376342773e-02 -8.104111999273300171e-02 1.223645880818367004e-01
2.228620797395706177e-01 -4.878211766481399536e-02 1.220016106963157654e-01
7.587380707263946533e-02 -1.161170378327369690e-02 -5.816298723220825195e-02
1.188260018825531006e-01 -1.733235269784927368e-02 8.846121281385421753e-02
1.803028583526611328e-02 -5.682066828012466431e-02 1.110117658972740173e-01
1.554752737283706665e-01 -1.113318800926208496e-01 7.457359880208969116e-02
2.080684006214141846e-01 -3.828153759241104126e-02 1.310283839702606201e-01
2.192437052726745605e-01 -5.522647872567176819e-02 -9.412662684917449951e-02
1.161354556679725647e-01 -1.047176495194435120e-02 1.059151440858840942e-02
1.104173585772514343e-01 -9.524870663881301880e-03 -2.098046429455280304e-02
2.015288621187210083e-01 -6.313869357109069824e-02 -1.474223434925079346e-01
-2.892170101404190063e-02 -9.924885630607604980e-02 -1.482081711292266846e-01
2.306579202413558960e-01 -4.408986866474151611e-02 -6.752405315637588501e-03
1.551053076982498169e-01 -9.221481531858444214e-02 -1.894163191318511963e-01
-4.308943450450897217e-02 -8.631683140993118286e-02 -1.141789928078651428e-01
7.673941552639007568e-02 -1.098402440547943115e-01 1.185802444815635681e-01
1.740211248397827148e-01 -4.934024810791015625e-02 -2.005397081375122070e-01
8.936899900436401367e-02 -1.557433232665061951e-02 -1.590840220451354980e-01
6.946861743927001953e-03 -1.160725206136703491e-01 -1.006432026624679565e-01
1.211665645241737366e-01 -1.143937185406684875e-02 -1.055781096220016479e-01
2.260584980249404907e-01 -4.280640929937362671e-02 8.921060711145401001e-02
1.926037371158599854e-01 -1.959720999002456665e-02 -8.606154471635818481e-03
1.452883481979370117e-01 -1.166864931583404541e-01 -6.148640066385269165e-03
4.982003569602966309e-02 -1.070145666599273682e-01 -2.272835373878479004e-01
3.125651925802230835e-02 -2.891878038644790649e-02 4.123323410749435425e-02
1.836199760437011719e-01 -3.348543122410774231e-02 1.511914432048797607e-01
7.444615662097930908e-02 -1.058241501450538635e-01 1.342058777809143066e-01
1.614612191915512085e-01 -1.060473993420600891e-01 -1.081284955143928528e-01
-7.261939346790313721e-03 -4.070468991994857788e-02 -1.993475258350372314e-01
1.377240717411041260e-01 -2.635951340198516846e-02 1.435720026493072510e-01
1.995213627815246582e-01 -3.116243332624435425e-02 -1.003601104021072388e-01
1.327563524246215820e-01 -1.089937165379524231e-01 1.243953481316566467e-01
1.490530818700790405e-01 -1.891699433326721191e-02 -1.433835923671722412e-01
5.010145530104637146e-02 -1.098425537347793579e-01 -2.137203812599182129e-01
9.424842149019241333e-02 -1.144252195954322815e-01 -1.681281030178070068e-01
1.802361756563186646e-01 -1.017379015684127808e-01 1.021182611584663391e-01
-2.307253330945968628e-02 -4.312985390424728394e-02 -1.269782483577728271e-01
1.620324105024337769e-01 -1.121913194656372070e-01 -2.544291503727436066e-02
5.858814343810081482e-02 -1.203709542751312256e-01 2.926713228225708008e-02
1.919300556182861328e-01 -1.012863218784332275e-01 5.457048863172531128e-02
1.374211758375167847e-01 -1.077309250831604004e-02 -7.207822799682617188e-02
9.614782780408859253e-02 -9.906998276710510254e-02 -2.389495372772216797e-01
1.911324262619018555e-02 -1.166486889123916626e-01 -1.402997672557830811e-01
2.214505523443222046e-01 -7.157674431800842285e-02 -6.923139840364456177e-02
6.391061842441558838e-02 -1.343215629458427429e-02 -9.050616621971130371e-02
7.828754186630249023e-02 -1.169919520616531372e-01 7.658369094133377075e-02
1.522536873817443848e-01 -1.134969368577003479e-01 5.389492958784103394e-02
2.275792211294174194e-01 -5.701307207345962524e-02 -5.836713314056396484e-02
1.149333864450454712e-01 -9.463217109441757202e-03 -6.451644748449325562e-02
6.854245066642761230e-02 -2.870224043726921082e-02 1.075632050633430481e-01
1.466275751590728760e-01 -1.085626333951950073e-01 1.146131828427314758e-01
1.676896810531616211e-01 -1.069650650024414062e-01 -7.964627444744110107e-02
1.999294459819793701e-01 -9.842339158058166504e-02 1.823886856436729431e-02
6.606019288301467896e-02 -1.608564704656600952e-02 1.359908655285835266e-02
1.329257488250732422e-01 -8.677165210247039795e-02 2.000519335269927979e-01
1.444572359323501587e-01 -1.111653447151184082e-02 1.251854002475738525e-02
9.414116293191909790e-02 -1.152674704790115356e-01 9.431346505880355835e-02
2.648599445819854736e-02 -1.134354770183563232e-01 -1.818961501121520996e-01
4.689973965287208557e-02 -1.784060150384902954e-02 -2.158700302243232727e-02
5.580389872193336487e-02 -2.101057395339012146e-02 4.014936834573745728e-02
8.565106391906738281e-01 2.589485235512256622e-02 -8.674202114343643188e-02
8.127990961074829102e-01 -9.180917590856552124e-02 -6.709398329257965088e-02
7.783054113388061523e-01 1.215678602457046509e-01 4.730980843305587769e-03
6.737747192382812500e-01 -1.121324673295021057e-02 2.649370953440666199e-02
8.319317698478698730e-01 -3.784503787755966187e-02 -8.697856217622756958e-02
8.727559447288513184e-01 8.511437475681304932e-02 4.530895128846168518e-02
7.620112299919128418e-01 1.120679378509521484e-01 1.859110035002231598e-02
6.988518834114074707e-01 -8.575007319450378418e-02 -3.008611127734184265e-02
6.761950254440307617e-01 -4.602828994393348694e-02 3.629490360617637634e-02
7.557524442672729492e-01 9.215191751718521118e-02 -4.174152016639709473e-02
8.400117158889770508e-01 9.887603670358657837e-02 -6.187724694609642029e-02
8.018484711647033691e-01 -5.913626402616500854e-02 8.072011917829513550e-02
8.015818595886230469e-01 5.497568845748901367e-02 -8.251764625310897827e-02
8.530856966972351074e-01 -5.953731760382652283e-02 -7.392632961273193359e-02
7.649071812629699707e-01 -1.200834810733795166e-01 4.836694151163101196e-02
8.675580024719238281e-01 9.328957647085189819e-02 -5.950173363089561462e-02
7.922201156616210938e-01 -3.087720274925231934e-02 -8.895795047283172607e-02
7.283949255943298340e-01 -1.217141225934028625e-01 3.531141206622123718e-02
8.123697042465209961e-01 -1.261262297630310059e-01 2.498411387205123901e-02
7.281836271286010742e-01 -9.945037961006164551e-02 5.860681831836700439e-02
8.754874467849731445e-01 -1.112117804586887360e-02 6.144160404801368713e-02
8.610591888427734375e-01 -1.354591548442840576e-02 6.986201554536819458e-02
7.163423895835876465e-01 1.754575222730636597e-02 7.111776620149612427e-02
7.270071506500244141e-01 8.422883599996566772e-02 2.914849296212196350e-02
8.252663016319274902e-01 1.249626427888870239e-01 -3.032490797340869904e-02
8.628063201904296875e-01 4.137332364916801453e-02 6.747809052467346191e-02
9.145749807357788086e-01 -1.929078064858913422e-02 1.282004732638597488e-02
7.473048567771911621e-01 -5.235145986080169678e-02 8.329976350069046021e-02
8.982942700386047363e-01 7.062109559774398804e-02 3.213307261466979980e-02
8.576666712760925293e-01 -1.021713316440582275e-01 -3.189285844564437866e-02
9.153727889060974121e-01 -3.105816245079040527e-02 -1.932845450937747955e-02
7.131806015968322754e-01 -2.417470142245292664e-02 -5.966283753514289856e-02
8.563307523727416992e-01 1.915159169584512711e-03 7.358874380588531494e-02
6.735882163047790527e-01 -4.056337848305702209e-02 -6.974807474762201309e-03
7.431764006614685059e-01 1.719004288315773010e-02 8.286851644515991211e-02
7.825632095336914062e-01 9.827919304370880127e-03 -8.834946155548095703e-02
8.054322600364685059e-01 -2.106857253238558769e-03 -9.203244000673294067e-02
9.108570218086242676e-01 -3.701062873005867004e-02 4.929333925247192383e-03
8.254755139350891113e-01 4.967147484421730042e-02 -8.598506450653076172e-02
7.865311503410339355e-01 7.941350340843200684e-02 6.798649579286575317e-02
8.146326541900634766e-01 -4.881172627210617065e-02 8.084643632173538208e-02
7.173848152160644531e-01 -1.205848827958106995e-01 2.595697902143001556e-02
8.679509758949279785e-01 -1.069919439032673836e-03 6.734639406204223633e-02
9.247647523880004883e-01 2.583405748009681702e-02 3.391555510461330414e-04
8.300680518150329590e-01 -1.249760016798973083e-01 -1.660703914240002632e-03
8.752638101577758789e-01 1.003071665763854980e-01 3.135746344923973083e-02
7.059043645858764648e-01 5.501050502061843872e-02 3.870284929871559143e-02
7.509521842002868652e-01 1.072209998965263367e-01 -4.988785367459058762e-03
7.652990818023681641e-01 1.074588391929864883e-03 -8.455421775579452515e-02
7.694827914237976074e-01 -5.625444464385509491e-04 8.978648483753204346e-02
8.620959520339965820e-01 -6.749079376459121704e-02 -6.517368555068969727e-02
6.841301321983337402e-01 -4.348155483603477478e-02 -2.868696860969066620e-02
8.118063211441040039e-01 8.547207713127136230e-02 6.496974080801010132e-02
8.405371904373168945e-01 -1.180863976478576660e-01 7.565859705209732056e-03
8.267001509666442871e-01 -1.247779875993728638e-01 1.117173768579959869e-02
8.732520937919616699e-01 1.100541278719902039e-01 -3.895852342247962952e-02
6.910708546638488770e-01 -3.074724599719047546e-02 -3.910357505083084106e-02
9.065242409706115723e-01 7.656946033239364624e-02 -4.100033268332481384e-02
8.828495740890502930e-01 -8.444970846176147461e-02 -5.029714200645685196e-03
7.405160665512084961e-01 -1.298276335000991821e-02 8.554723113775253296e-02
8.785107135772705078e-01 8.469571173191070557e-02 -6.037946790456771851e-02
8.964388370513916016e-01 8.612928539514541626e-02 -4.544614627957344055e-02
8.936411142349243164e-01 7.713539153337478638e-02 -5.505909398198127747e-02
7.788617014884948730e-01 -6.342679262161254883e-02 8.219560980796813965e-02
6.928243637084960938e-01 -1.395016536116600037e-02 6.003048270940780640e-02
8.525707125663757324e-01 1.241845488548278809e-01 1.198365353047847748e-02
8.180944323539733887e-01 -7.656265050172805786e-02 -7.509930431842803955e-02
7.359972596168518066e-01 9.589487314224243164e-02 1.702351868152618408e-02
8.280016779899597168e-01 1.297265291213989258e-01 -1.548312138766050339e-02
7.779715061187744141e-01 1.137723699212074280e-01 -2.959110774099826813e-02
7.654482126235961914e-01 -3.312530741095542908e-02 8.855584263801574707e-02
7.199409008026123047e-01 -3.813251107931137085e-02 7.761844992637634277e-02
7.871760725975036621e-01 -1.340271160006523132e-02 -8.980347961187362671e-02
7.801779508590698242e-01 -1.195774599909782410e-01 -4.561683908104896545e-02
8.615447282791137695e-01 -7.739085704088211060e-02 4.388261958956718445e-02
7.936232686042785645e-01 -9.002216160297393799e-02 6.889580190181732178e-02
8.790600299835205078e-01 -7.412962615489959717e-02 2.711398527026176453e-02
8.306527137756347656e-01 -4.005817230790853500e-03 -9.170268476009368896e-02
7.349681258201599121e-01 -1.282095909118652344e-01 -1.614596694707870483e-02
7.983880639076232910e-01 1.154509186744689941e-01 -3.944133222103118896e-02
8.052618503570556641e-01 1.070486679673194885e-01 4.808472096920013428e-02
7.626553773880004883e-01 6.323485076427459717e-02 7.233874499797821045e-02
8.480576872825622559e-01 1.247451454401016235e-01 -2.677264623343944550e-02
7.533245086669921875e-01 -1.146093681454658508e-01 5.305875092744827271e-02
7.635115981101989746e-01 2.226389199495315552e-02 8.631774038076400757e-02
7.379283308982849121e-01 -6.248698383569717407e-02 7.881765812635421753e-02
7.200577855110168457e-01 -4.530416429042816162e-02 -6.248372420668601990e-02
8.342070579528808594e-01 -9.847425669431686401e-02 -5.574881657958030701e-02
8.849673271179199219e-01 -5.453952029347419739e-02 3.683082014322280884e-02
7.113289237022399902e-01 5.158627033233642578e-02 -3.398173674941062927e-02
8.570931553840637207e-01 -1.058192998170852661e-01 1.018531341105699539e-02
6.797952651977539062e-01 -5.210425332188606262e-02 -1.916157454252243042e-02
6.801621913909912109e-01 1.568763144314289093e-02 2.504180558025836945e-02
8.199748396873474121e-01 -1.209566220641136169e-01 -3.465936332941055298e-02
9.047118425369262695e-01 9.137038886547088623e-02 -2.063341904431581497e-03
7.884348034858703613e-01 -5.143567547202110291e-02 -8.458401262760162354e-02
8.762596249580383301e-01 6.421264261007308960e-02 5.353153124451637268e-02
7.780364751815795898e-01 4.031128808856010437e-02 -8.174808323383331299e-02
7.212960720062255859e-01 4.778448492288589478e-02 -4.771336913108825684e-02
8.672459125518798828e-01 -5.743456631898880005e-02 5.216743797063827515e-02
7.279841899871826172e-01 -9.369259700179100037e-03 8.138406276702880859e-02
7.683039307594299316e-01 9.898536652326583862e-02 -4.354914650321006775e-02
7.619456052780151367e-01 -8.305338025093078613e-02 -6.890823692083358765e-02
8.394492864608764648e-01 -1.028855666518211365e-01 3.838865831494331360e-02
8.470425009727478027e-01 -8.270624279975891113e-02 5.124257132411003113e-02
8.754563927650451660e-01 1.458214782178401947e-02 6.329350918531417847e-02
9.044703841209411621e-01 -4.862122610211372375e-02 8.160518482327461243e-03
7.670521736145019531e-01 -1.133468598127365112e-01 -5.023155733942985535e-02
8.602308630943298340e-01 6.718463450670242310e-02 -7.611636072397232056e-02
7.308107018470764160e-01 -7.926803827285766602e-02 7.085605710744857788e-02
8.789699673652648926e-01 1.089988499879837036e-01 1.637033000588417053e-02
8.074251413345336914e-01 -1.326670348644256592e-01 -1.342342328280210495e-02
6.937735676765441895e-01 -1.029352769255638123e-01 5.622074473649263382e-03
8.545557260513305664e-01 7.768854498863220215e-02 5.896561965346336365e-02
6.830298304557800293e-01 -1.513333246111869812e-02 -2.691481076180934906e-02
8.765998482704162598e-01 -1.171691156923770905e-02 -7.854440063238143921e-02
7.202137708663940430e-01 -1.258395761251449585e-01 9.067472070455551147e-03
7.100979685783386230e-01 -1.132342889904975891e-01 -1.437622867524623871e-02
7.131654024124145508e-01 -6.472562439739704132e-03 -5.873563140630722046e-02
8.234326243400573730e-01 1.162494346499443054e-01 3.700907900929450989e-02
8.140754103660583496e-01 2.370347827672958374e-02 -9.086105972528457642e-02
6.988527774810791016e-01 -7.432661950588226318e-04 6.322634965181350708e-02
7.653982043266296387e-01 3.928493708372116089e-02 -7.787093520164489746e-02
7.289849519729614258e-01 -9.477175027132034302e-02 -4.944661632180213928e-02
8.907898068428039551e-01 2.039293386042118073e-02 5.203351005911827087e-02
8.627555370330810547e-01 1.229461133480072021e-01 3.410561475902795792e-03
9.166480898857116699e-01 2.174158580601215363e-02 2.147056348621845245e-02
7.698876857757568359e-01 4.117917269468307495e-02 8.256344497203826904e-02
7.290827035903930664e-01 -4.848588723689317703e-03 -6.923784315586090088e-02
8.923422694206237793e-01 3.398149460554122925e-02 4.957850649952888489e-02
9.109376668930053711e-01 4.919950664043426514e-02 2.578830532729625702e-02
8.941926360130310059e-01 -6.685927510261535645e-02 6.490496918559074402e-03
7.601462602615356445e-01 1.035252884030342102e-01 -3.062138520181179047e-02
6.999234557151794434e-01 -8.901728689670562744e-02 4.750117287039756775e-02
7.144996523857116699e-01 -1.128152087330818176e-01 3.691576048731803894e-02
8.925421237945556641e-01 7.421474438160657883e-03 5.030201748013496399e-02
7.843391299247741699e-01 1.076811030507087708e-01 -4.307518899440765381e-02
9.205089807510375977e-01 5.642155557870864868e-02 7.150223245844244957e-04
8.137122988700866699e-01 6.977869570255279541e-02 -7.839358597993850708e-02
7.794945836067199707e-01 1.199422702193260193e-01 -1.571724191308021545e-02
8.877147436141967773e-01 6.415901333093643188e-02 4.529625549912452698e-02
8.886908292770385742e-01 9.737854450941085815e-02 2.090783603489398956e-02
8.118479847908020020e-01 1.270132362842559814e-01 -2.185196802020072937e-02
7.080804109573364258e-01 -1.798488758504390717e-02 7.217387855052947998e-02
8.777131438255310059e-01 4.709777608513832092e-02 5.790028348565101624e-02
8.345907926559448242e-01 -1.219483390450477600e-01 -1.412053685635328293e-02
6.861476898193359375e-01 3.091233409941196442e-02 2.431955933570861816e-02
8.935613632202148438e-01 8.410514146089553833e-02 2.826353721320629120e-02
7.287728786468505859e-01 5.957531183958053589e-02 5.901825800538063049e-02
7.700658440589904785e-01 -8.643177151679992676e-02 7.325144857168197632e-02
9.120885729789733887e-01 7.560117542743682861e-02 5.227930378168821335e-03
7.378706932067871094e-01 -5.744301900267601013e-02 -6.951159238815307617e-02
9.176810979843139648e-01 5.569741874933242798e-02 -3.679165244102478027e-02
7.239202857017517090e-01 -5.290365219116210938e-02 7.685185968875885010e-02
9.070565700531005859e-01 -4.550911486148834229e-02 -2.871093153953552246e-02
9.009028673171997070e-01 5.180718004703521729e-02 -6.074889004230499268e-02
8.274783492088317871e-01 -2.228642441332340240e-02 -9.039799869060516357e-02
8.913503289222717285e-01 1.033313870429992676e-01 7.030607201159000397e-03
7.838792800903320312e-01 -4.876858741044998169e-02 8.585084229707717896e-02
7.609416246414184570e-01 -1.357499659061431885e-01 2.142753079533576965e-02
7.399145364761352539e-01 -1.276789009571075439e-01 3.216692432761192322e-02
9.241315126419067383e-01 1.190245617181062698e-03 -6.771243643015623093e-03
7.028335332870483398e-01 -2.430344559252262115e-02 -5.127229914069175720e-02
8.587838411331176758e-01 8.472173660993576050e-02 -6.804644316434860229e-02
6.820896863937377930e-01 1.731688715517520905e-02 -8.342450484633445740e-03
8.284258842468261719e-01 -2.644929289817810059e-02 8.164340257644653320e-02
8.278269171714782715e-01 -1.189483627676963806e-01 2.518089488148689270e-02
8.711842298507690430e-01 -8.439862728118896484e-02 -4.257523640990257263e-02
7.864480614662170410e-01 -7.151714060455560684e-03 9.028038382530212402e-02
6.945047378540039062e-01 -4.748176783323287964e-02 -4.113728553056716919e-02
8.809470534324645996e-01 3.475842997431755066e-03 5.928632989525794983e-02
6.821948885917663574e-01 -6.667488813400268555e-02 3.916903212666511536e-02
7.684874534606933594e-01 7.522863149642944336e-02 -6.335335969924926758e-02
6.842050552368164062e-01 -8.879557251930236816e-02 9.120407514274120331e-03
7.077114582061767578e-01 -9.701194614171981812e-02 -3.122467361390590668e-02
7.463504076004028320e-01 5.973588675260543823e-02 6.862653791904449463e-02
8.170931935310363770e-01 1.028701886534690857e-01 -5.821048095822334290e-02
8.702517747879028320e-01 1.772093120962381363e-03 -8.291514962911605835e-02
8.759400248527526855e-01 -5.248253419995307922e-02 -6.509566307067871094e-02
7.418375611305236816e-01 8.261774480342864990e-02 -3.952779620885848999e-02
8.285605311393737793e-01 3.397209942340850830e-02 -8.938805013895034790e-02
7.338833808898925781e-01 -4.410252347588539124e-02 8.177684247493743896e-02
8.901740908622741699e-01 -6.530489027500152588e-02 -3.958739712834358215e-02
7.215536832809448242e-01 -6.770344823598861694e-02 -5.786218121647834778e-02
8.527598977088928223e-01 -3.854547068476676941e-02 -8.194905519485473633e-02
8.397670388221740723e-01 -1.130184903740882874e-01 2.303226478397846222e-02
7.912023067474365234e-01 -6.804242730140686035e-02 7.945413887500762939e-02
7.472701072692871094e-01 8.386495709419250488e-02 5.131912976503372192e-02
6.923393011093139648e-01 1.730775460600852966e-02 4.989344626665115356e-02
6.798928380012512207e-01 -7.558070123195648193e-02 -2.767645986750721931e-03
8.413500785827636719e-01 3.776471689343452454e-02 7.677114009857177734e-02
7.367582321166992188e-01 9.775930643081665039e-02 2.856052014976739883e-03
6.953958868980407715e-01 4.687114059925079346e-02 -8.296433836221694946e-03
7.931555509567260742e-01 -1.230106800794601440e-01 -4.092874377965927124e-02
8.326849937438964844e-01 6.669602543115615845e-02 -8.025195449590682983e-02
7.042722105979919434e-01 -3.972730413079261780e-02 -5.167344212532043457e-02
9.261884689331054688e-01 1.884935982525348663e-02 -1.786130480468273163e-02
7.899466156959533691e-01 1.255924850702285767e-01 -2.379545010626316071e-03
7.450786828994750977e-01 8.180113509297370911e-03 -7.608839124441146851e-02
7.898529767990112305e-01 9.837783128023147583e-02 5.459516122937202454e-02
6.728943586349487305e-01 -5.213633179664611816e-02 2.255470305681228638e-02
9.039051532745361328e-01 -5.524298548698425293e-02 -1.636535674333572388e-02
9.086692333221435547e-01 3.696528822183609009e-02 -5.685391649603843689e-02
7.714346647262573242e-01 -1.097668260335922241e-01 5.813829600811004639e-02
7.841638922691345215e-01 1.196995973587036133e-01 2.251428924500942230e-02
8.513231277465820312e-01 -9.667223691940307617e-02 3.479284793138504028e-02
7.289873957633972168e-01 7.324717193841934204e-02 4.748913273215293884e-02
7.474524378776550293e-01 -4.426392912864685059e-02 -7.625738531351089478e-02
7.046677470207214355e-01 2.152364701032638550e-03 -5.009066686034202576e-02
7.705698013305664062e-01 1.608492247760295868e-02 -8.459214121103286743e-02
7.871726155281066895e-01 -1.013187393546104431e-01 6.286862492561340332e-02
7.395097613334655762e-01 2.714990265667438507e-02 -6.934446841478347778e-02
8.374322056770324707e-01 -7.264253497123718262e-02 6.318634748458862305e-02
9.024221301078796387e-01 -5.644750781357288361e-03 -6.161122769117355347e-02
7.991650700569152832e-01 -4.413916543126106262e-02 -8.714383095502853394e-02
8.095408082008361816e-01 -6.173404306173324585e-02 -8.216966688632965088e-02
9.073358178138732910e-01 2.016280777752399445e-02 3.529367595911026001e-02
9.232951402664184570e-01 2.779684029519557953e-02 -3.342799469828605652e-02
8.575281500816345215e-01 1.253269463777542114e-01 -1.561629306524991989e-02
8.537141084671020508e-01 -1.100569143891334534e-01 -1.634002290666103363e-02
7.459715604782104492e-01 -1.052373275160789490e-01 -5.056830123066902161e-02
7.175821661949157715e-01 -9.577307105064392090e-02 -4.108772799372673035e-02
8.893167972564697266e-01 1.055512428283691406e-01 -2.732860855758190155e-02
7.035305500030517578e-01 -4.853901267051696777e-02 6.731151044368743896e-02
7.627910971641540527e-01 -1.306980103254318237e-01 -2.756715938448905945e-02
8.115943670272827148e-01 1.129139401018619537e-02 8.717338740825653076e-02
8.317945003509521484e-01 1.304689943790435791e-01 -6.240473594516515732e-04
8.907333016395568848e-01 -5.767027847468852997e-03 -7.124831527471542358e-02
8.822678923606872559e-01 -8.071840554475784302e-02 1.109514292329549789e-02
7.056955695152282715e-01 -7.473109662532806396e-02 -4.335524886846542358e-02
9.071660041809082031e-01 1.136454753577709198e-03 3.378329798579216003e-02
7.265388965606689453e-01 2.364397794008255005e-02 -6.225751712918281555e-02
7.127432227134704590e-01 7.275570929050445557e-02 2.147559449076652527e-02
6.800259947776794434e-01 -3.269759193062782288e-02 4.540447145700454712e-02
8.354561924934387207e-01 1.250514686107635498e-01 1.970794424414634705e-02
7.357534170150756836e-01 5.476101860404014587e-02 -5.577262490987777710e-02
8.182241320610046387e-01 1.247528344392776489e-01 2.310780994594097137e-02
7.328223586082458496e-01 -1.120019927620887756e-01 4.995614662766456604e-02
7.984880805015563965e-01 -8.418043702840805054e-02 -7.273646444082260132e-02
7.348342537879943848e-01 2.612314373254776001e-02 7.779254019260406494e-02
8.286669850349426270e-01 -5.144759267568588257e-02 7.573100179433822632e-02
9.161614775657653809e-01 -2.270419895648956299e-02 -3.097716718912124634e-02
7.705697417259216309e-01 5.116947367787361145e-02 -7.583366334438323975e-02
8.130872845649719238e-01 8.542903512716293335e-02 -7.030543684959411621e-02
9.067144393920898438e-01 7.474009692668914795e-02 1.781387627124786377e-02
8.325898647308349609e-01 6.686245650053024292e-02 7.087776064872741699e-02
8.996877670288085938e-01 -4.999277740716934204e-02 -4.079012945294380188e-02
7.454065084457397461e-01 9.841736406087875366e-02 2.942058444023132324e-02
6.710522174835205078e-01 -2.935851551592350006e-02 2.029927819967269897e-02
8.423253297805786133e-01 9.901022911071777344e-02 5.008036643266677856e-02
9.172695279121398926e-01 6.736480444669723511e-02 -2.612884528934955597e-02
9.039239883422851562e-01 -1.576199568808078766e-02 3.348226845264434814e-02
7.763671278953552246e-01 6.401613354682922363e-02 -7.257896661758422852e-02
6.757432222366333008e-01 -5.995683372020721436e-02 -4.797709174454212189e-03
6.972901821136474609e-01 5.375181883573532104e-02 2.918774262070655823e-03
8.783239126205444336e-01 1.155095249414443970e-01 -1.964592188596725464e-02
9.147642254829406738e-01 2.696615271270275116e-02 -5.047947540879249573e-02
7.415366768836975098e-01 1.346366479992866516e-03 8.486472815275192261e-02
8.807044029235839844e-01 1.147752180695533752e-01 -4.097170196473598480e-03
7.288264036178588867e-01 8.930064737796783447e-02 -7.922769524157047272e-03
7.566362023353576660e-01 2.756246365606784821e-02 -7.753150910139083862e-02
7.584612965583801270e-01 -5.191165208816528320e-02 -7.847372442483901978e-02
6.986231207847595215e-01 -1.026621907949447632e-01 3.081449121236801147e-02
7.777814865112304688e-01 -3.280228376388549805e-02 -8.654271066188812256e-02
7.644024491310119629e-01 1.147468015551567078e-01 -7.318977266550064087e-03
7.944099307060241699e-01 -1.115275621414184570e-01 -5.369027704000473022e-02
7.918413877487182617e-01 -1.372383087873458862e-01 -4.383849911391735077e-03
7.004246711730957031e-01 3.202832117676734924e-02 -3.355419635772705078e-02
8.752082586288452148e-01 6.579150259494781494e-02 -7.160910964012145996e-02
7.610748410224914551e-01 -3.959631174802780151e-02 -8.157049119472503662e-02
7.740243077278137207e-01 -1.305046826601028442e-01 3.355274349451065063e-02
9.188421368598937988e-01 4.856332764029502869e-02 1.141116395592689514e-02
8.231315612792968750e-01 8.130401372909545898e-03 -9.217997640371322632e-02
7.447115182876586914e-01 -2.977162599563598633e-02 8.609867841005325317e-02
7.501952648162841797e-01 1.057801768183708191e-01 1.721137948334217072e-02
8.156296014785766602e-01 -8.444444090127944946e-02 6.605384498834609985e-02
8.930862545967102051e-01 -3.321119770407676697e-02 3.968616947531700134e-02
7.193808555603027344e-01 -7.308688014745712280e-02 6.899952888488769531e-02
8.420287966728210449e-01 -1.045457050204277039e-01 -4.452367126941680908e-02
8.457524180412292480e-01 1.374806091189384460e-02 7.799799740314483643e-02
8.457765579223632812e-01 -6.342577748000621796e-03 7.773990929126739502e-02
9.169414639472961426e-01 -2.694460935890674591e-02 -7.019266020506620407e-03
8.245633840560913086e-01 7.823459059000015259e-02 -7.514651864767074585e-02
7.441743016242980957e-01 -1.350522637367248535e-01 1.304403226822614670e-02
7.065224051475524902e-01 6.038241833448410034e-02 -1.570252701640129089e-02
7.068219780921936035e-01 -1.161531582474708557e-01 2.963791135698556900e-03
8.613291978836059570e-01 3.827373310923576355e-02 -8.383875340223312378e-02
8.980169296264648438e-01 5.641350056976079941e-03 -6.739823520183563232e-02
9.223787188529968262e-01 1.389039494097232819e-02 -3.528685122728347778e-02
8.517525792121887207e-01 -1.121114715933799744e-01 -1.354241510853171349e-03
8.869440555572509766e-01 -5.845180898904800415e-02 -5.121236667037010193e-02
7.800431251525878906e-01 -1.386495679616928101e-01 5.548628978431224823e-03
7.276113033294677734e-01 4.109618812799453735e-02 6.883624196052551270e-02
8.122384548187255859e-01 -2.900069393217563629e-02 -9.022098779678344727e-02
8.866316676139831543e-01 -4.461835697293281555e-02 -6.097997725009918213e-02
8.201242089271545410e-01 1.289947926998138428e-01 1.078869588673114777e-02
7.942636013031005859e-01 1.152834072709083557e-01 3.610158339142799377e-02
8.517544269561767578e-01 -6.834413111209869385e-02 5.731155350804328918e-02
9.188066124916076660e-01 -6.496961228549480438e-03 1.009100303053855896e-02
8.009883761405944824e-01 2.750451676547527313e-02 8.654685318470001221e-02
7.396970391273498535e-01 -3.303768113255500793e-02 -7.453131675720214844e-02
8.455202579498291016e-01 3.539551421999931335e-02 -8.760542422533035278e-02
7.305890917778015137e-01 7.942068576812744141e-02 -3.048560395836830139e-02
9.236623644828796387e-01 -6.907556671649217606e-04 -2.221599780023097992e-02
8.734480738639831543e-01 -9.446217119693756104e-02 -7.394531741738319397e-03
8.438786268234252930e-01 5.901315808296203613e-02 7.051607966423034668e-02
8.667510747909545898e-01 -7.564330846071243286e-02 -5.606402456760406494e-02
7.063396573066711426e-01 2.462326176464557648e-02 -4.461624473333358765e-02
8.237946033477783203e-01 1.578988321125507355e-02 8.446550369262695312e-02
7.952095270156860352e-01 -1.326826512813568115e-01 2.197908982634544373e-02
8.169203400611877441e-01 1.304110437631607056e-01 -6.450037471950054169e-03
8.795731663703918457e-01 -2.778953686356544495e-02 5.461955443024635315e-02
8.552060127258300781e-01 -9.225030988454818726e-02 -4.917358607053756714e-02
7.658131718635559082e-01 -1.361094713211059570e-01 -1.575059629976749420e-02
6.779493093490600586e-01 -2.242726739495992661e-03 -1.196288317441940308e-02
8.976730704307556152e-01 9.609841555356979370e-02 -3.086242824792861938e-02
8.357194662094116211e-01 -1.407095976173877716e-02 8.082843571901321411e-02
8.415515422821044922e-01 5.434858053922653198e-02 -8.380965888500213623e-02
7.161338925361633301e-01 9.900258854031562805e-03 -5.822978541254997253e-02
8.410570025444030762e-01 -5.244520679116249084e-02 -8.080897480249404907e-02
7.317655086517333984e-01 -1.307419687509536743e-01 1.516536995768547058e-02
6.807048320770263672e-01 -7.625126093626022339e-02 2.724726870656013489e-02
7.493264675140380859e-01 -9.387437254190444946e-02 6.789354234933853149e-02
6.880692839622497559e-01 -9.008560329675674438e-02 -7.258554454892873764e-03
9.009814858436584473e-01 8.813922107219696045e-02 1.378915831446647644e-02
7.010320425033569336e-01 3.876898810267448425e-02 4.742529243230819702e-02
8.294765353202819824e-01 -1.123731732368469238e-01 -4.236814007163047791e-02
7.239346504211425781e-01 6.541013717651367188e-02 -3.743808716535568237e-02
7.821385860443115234e-01 -7.735671103000640869e-02 7.680520415306091309e-02
8.456069231033325195e-01 8.092827349901199341e-02 -7.273267954587936401e-02
7.636181712150573730e-01 8.492555469274520874e-02 5.869569629430770874e-02
9.117948412895202637e-01 -1.603773422539234161e-02 -4.603450372815132141e-02
8.785039186477661133e-01 2.099965140223503113e-02 -7.962312549352645874e-02
6.829856634140014648e-01 2.714099548757076263e-02 1.215920597314834595e-02
8.205181956291198730e-01 -1.158792525529861450e-01 3.634317591786384583e-02
6.941616535186767578e-01 -7.345305383205413818e-02 -3.191264718770980835e-02
6.738071441650390625e-01 -2.482286188751459122e-03 7.660914212465286255e-03
6.910114288330078125e-01 -7.512526959180831909e-02 4.711655527353286743e-02
8.865448832511901855e-01 -2.102925069630146027e-02 -7.065616548061370850e-02
-3.697362244129180908e-01 2.980935573577880859e-02 1.075247377157211304e-01
-4.075456261634826660e-01 1.271908730268478394e-01 2.099540643393993378e-02
-4.119402468204498291e-01 9.155218303203582764e-02 7.979314029216766357e-02
-4.094473719596862793e-01 -4.264808446168899536e-02 -8.938451111316680908e-02
-5.102931857109069824e-01 -3.204849362373352051e-02 5.679314583539962769e-02
-3.268283903598785400e-01 -6.591011583805084229e-02 -8.618689328432083130e-02
-3.607020080089569092e-01 1.116877347230911255e-01 -6.555747985839843750e-02
-2.824272513389587402e-01 7.395321875810623169e-02 4.547817260026931763e-02
-4.134640991687774658e-01 -1.325799152255058289e-03 1.120989769697189331e-01
-4.784008264541625977e-01 9.852040559053421021e-02 -5.886413529515266418e-02
-5.360990166664123535e-01 8.642127364873886108e-02 3.693046513944864273e-03
-4.525538086891174316e-01 9.701477736234664917e-02 7.249805331230163574e-02
-3.951855301856994629e-01 1.117956489324569702e-01 -6.924731284379959106e-02
-4.841438829898834229e-01 -4.276736080646514893e-02 -4.407222196459770203e-02
-4.961509406566619873e-01 1.052877381443977356e-01 4.345906153321266174e-02
-3.274881839752197266e-01 1.548382360488176346e-02 -1.168769001960754395e-01
-5.518299341201782227e-01 5.108399689197540283e-02 -4.152199253439903259e-04
-2.452587187290191650e-01 4.385725408792495728e-02 4.066627100110054016e-02
-4.325486719608306885e-01 -4.732317477464675903e-02 -7.630201429128646851e-02
-3.393160104751586914e-01 -4.404006153345108032e-02 9.712253510951995850e-02
-4.097770750522613525e-01 -6.462395191192626953e-02 -7.032758742570877075e-02
-3.541774153709411621e-01 -1.493040472269058228e-04 1.084089875221252441e-01
-2.963652312755584717e-01 2.588086202740669250e-02 8.644343912601470947e-02
-2.917031347751617432e-01 1.016969829797744751e-01 -3.103634715080261230e-02
-5.398487448692321777e-01 6.284239888191223145e-02 4.847802966833114624e-02
-4.118816256523132324e-01 -1.416137441992759705e-02 1.102905794978141785e-01
-4.397153854370117188e-01 2.996857091784477234e-02 -1.022940203547477722e-01
-4.820770621299743652e-01 -6.234027445316314697e-02 -8.654482662677764893e-03
-2.933189868927001953e-01 -2.536422200500965118e-02 8.890364319086074829e-02
-5.438002347946166992e-01 1.365792006254196167e-03 3.433500975370407104e-02
-3.722764253616333008e-01 1.241277977824211121e-01 1.672213897109031677e-02
-3.756780624389648438e-01 -8.410997688770294189e-02 -5.840640142560005188e-02
-3.523032963275909424e-01 -1.061839461326599121e-01 7.790580857545137405e-03
-3.602786958217620850e-01 -2.451449818909168243e-02 1.065530553460121155e-01
-5.000919103622436523e-01 -1.163257844746112823e-02 8.356464654207229614e-02
-3.276354372501373291e-01 -1.848394982516765594e-02 1.014049500226974487e-01
-2.977580428123474121e-01 9.987983107566833496e-02 1.491738855838775635e-02
-2.621714174747467041e-01 1.308026816695928574e-02 -1.012251377105712891e-01
-4.502936899662017822e-01 1.274470984935760498e-01 1.158428192138671875e-02
-2.352743893861770630e-01 -5.678794533014297485e-02 -6.481735408306121826e-02
-2.440084517002105713e-01 3.865206986665725708e-02 -8.173679560422897339e-02
-3.676846623420715332e-01 3.160098567605018616e-03 -1.157432422041893005e-01
-3.410080075263977051e-01 1.186336055397987366e-01 -3.703270852565765381e-02
-5.081290006637573242e-01 -2.980329655110836029e-02 -3.162514045834541321e-02
-2.473259866237640381e-01 5.167434364557266235e-02 -7.473386079072952271e-02
-2.245910465717315674e-01 5.013293027877807617e-02 -5.386788863688707352e-03
-2.269585430622100830e-01 -6.349666416645050049e-02 2.149900794029235840e-02
-5.000827312469482422e-01 -5.281613022089004517e-02 1.075340807437896729e-02
-3.751431107521057129e-01 -4.782334715127944946e-02 9.921350330114364624e-02
-3.858342170715332031e-01 -6.727149337530136108e-02 -7.630789279937744141e-02
-5.423873662948608398e-01 2.965698577463626862e-02 5.519286170601844788e-02
-4.559012949466705322e-01 9.503891691565513611e-03 1.070683673024177551e-01
-2.584006786346435547e-01 -9.149044007062911987e-02 5.895277019590139389e-03
-4.985781311988830566e-01 1.143392622470855713e-01 1.876071095466613770e-03
-4.966854453086853027e-01 5.188169423490762711e-03 -6.845481693744659424e-02
-4.027258753776550293e-01 -9.691360592842102051e-02 -1.001687161624431610e-02
-2.902892529964447021e-01 -7.714849710464477539e-02 -7.065241038799285889e-02
-4.707927107810974121e-01 -1.402995921671390533e-02 -7.760174572467803955e-02
-5.059038996696472168e-01 1.235732901841402054e-02 8.751754462718963623e-02
-3.239660561084747314e-01 7.024600356817245483e-02 -1.003123745322227478e-01
-4.000090658664703369e-01 -1.990761421620845795e-02 -1.041667312383651733e-01
-2.583343386650085449e-01 -2.974021621048450470e-02 -9.448906034231185913e-02
-2.369137257337570190e-01 2.814158610999584198e-02 4.339176416397094727e-02
-3.191372156143188477e-01 6.675203889608383179e-02 7.561396807432174683e-02
