2.135871052742004395e-01 2.331720739603042603e-01 1.228907182812690735e-01
-1.706778109073638916e-01 1.613062471151351929e-01 -4.082065522670745850e-01
2.463249862194061279e-01 1.362977828830480576e-02 2.750558853149414062e-01
-9.111100435256958008e-02 2.219109833240509033e-01 4.855881929397583008e-01
1.454324424266815186e-01 2.083076387643814087e-01 -2.829039096832275391e-01
-1.136977523565292358e-01 2.565948292613029480e-02 -5.138174295425415039e-01
-2.550768852233886719e-01 -5.141020566225051880e-02 2.922893464565277100e-01
1.131007969379425049e-01 1.889761537313461304e-03 5.444426536560058594e-01
8.876146376132965088e-02 -3.755076229572296143e-01 -2.066721767187118530e-01
-6.990937888622283936e-02 -3.246964216232299805e-01 3.595891594886779785e-01
2.079307585954666138e-01 -2.518933713436126709e-01 1.914696991443634033e-01
-5.151904374361038208e-02 -3.267071843147277832e-01 -3.816880881786346436e-01
-6.275932490825653076e-02 -2.248042821884155273e-01 4.772837162017822266e-01
-4.800920188426971436e-02 -4.134114831686019897e-02 -5.369598269462585449e-01
-1.648032069206237793e-01 -3.723085224628448486e-01 -1.208343803882598877e-01
-2.920209765434265137e-01 -3.707868233323097229e-02 1.389101594686508179e-01
2.517036497592926025e-01 1.105461418628692627e-01 1.737903803586959839e-02
-2.169104665517807007e-01 -2.176285088062286377e-01 2.708270549774169922e-01
2.192473262548446655e-01 -1.807094961404800415e-01 2.741583883762359619e-01
7.457625865936279297e-02 -2.061239033937454224e-01 4.901541173458099365e-01
1.566992998123168945e-01 -3.485972583293914795e-01 1.143445372581481934e-01
5.449060723185539246e-02 1.306897699832916260e-01 -4.578184783458709717e-01
2.083311676979064941e-01 -2.615159451961517334e-01 1.586567908525466919e-01
-2.012779712677001953e-01 2.885597944259643555e-01 2.247767001390457153e-01
-4.850368201732635498e-02 4.102480709552764893e-01 1.823867559432983398e-01
1.788766831159591675e-01 2.955528199672698975e-01 4.997804388403892517e-02
-7.153503596782684326e-02 -3.470540344715118408e-01 -3.454933762550354004e-01
-2.632151544094085693e-01 -2.263760715723037720e-01 1.561828330159187317e-02
-7.123029232025146484e-02 -4.072673320770263672e-01 -2.101594954729080200e-01
-2.584332525730133057e-01 -2.409997433423995972e-01 -4.971653968095779419e-02
-1.580578535795211792e-01 -3.817863166332244873e-01 -9.345261007547378540e-02
2.896653115749359131e-02 2.193776965141296387e-01 -4.105499088764190674e-01
2.391165792942047119e-01 1.667635142803192139e-01 5.745299160480499268e-02
8.188109099864959717e-02 3.650991618633270264e-01 2.631427645683288574e-01
-4.131599329411983490e-03 4.018730819225311279e-01 2.313963621854782104e-01
-2.175388038158416748e-01 5.685648322105407715e-02 -3.978164792060852051e-01
-1.084632426500320435e-01 3.327698409557342529e-01 3.377563059329986572e-01
2.572484612464904785e-01 -7.867173105478286743e-02 -4.823047667741775513e-02
2.748344093561172485e-02 -3.881010711193084717e-01 -2.577418088912963867e-01
-1.656164675951004028e-01 -3.729029595851898193e-01 5.100829899311065674e-02
1.872418969869613647e-01 -2.666259407997131348e-01 -1.699539124965667725e-01
-1.144879460334777832e-01 3.432638943195343018e-01 3.091370165348052979e-01
7.970853149890899658e-02 2.939969599246978760e-01 4.124559462070465088e-01
-1.769977062940597534e-02 -4.269668161869049072e-01 -1.598791331052780151e-01
1.015247255563735962e-01 -2.931987345218658447e-01 3.769363462924957275e-01
2.291940897703170776e-01 1.918188482522964478e-01 2.341883629560470581e-02
-2.862400114536285400e-01 1.491578668355941772e-01 3.165300935506820679e-02
-8.932797610759735107e-02 3.970475196838378906e-01 1.896900385618209839e-01
1.498741358518600464e-01 5.676294676959514618e-03 5.057739019393920898e-01
1.664194613695144653e-01 2.725776433944702148e-01 2.882737517356872559e-01
2.572296559810638428e-01 8.723247051239013672e-02 4.161738604307174683e-02
-2.636181116104125977e-01 -1.948305815458297729e-01 1.215539202094078064e-01
-2.717949748039245605e-01 1.149985119700431824e-01 2.062498331069946289e-01
-2.312609106302261353e-01 -2.921897768974304199e-01 1.935340464115142822e-02
-2.579811513423919678e-01 -4.578354768455028534e-03 2.933065593242645264e-01
-2.772438228130340576e-01 -1.819844841957092285e-01 -1.041159182786941528e-01
1.452915817499160767e-01 -2.308803498744964600e-01 3.963031172752380371e-01
-2.219471037387847900e-01 2.923091351985931396e-01 -7.510954141616821289e-02
3.038747608661651611e-02 -2.246170118451118469e-02 5.836439132690429688e-01
-1.591930687427520752e-01 1.714935004711151123e-01 4.474408328533172607e-01
2.612171769142150879e-01 4.581411927938461304e-02 1.459553241729736328e-01
-1.462121307849884033e-01 1.520023345947265625e-01 -4.397958815097808838e-01
2.756155282258987427e-02 -2.504916191101074219e-01 -4.436959028244018555e-01
4.150048643350601196e-02 -2.927302420139312744e-01 -3.961584866046905518e-01
-1.132156699895858765e-01 -4.154816567897796631e-01 1.287687104195356369e-02
1.670728772878646851e-01 3.060648143291473389e-01 1.731060743331909180e-01
2.739090844988822937e-02 4.040697515010833740e-01 1.978367269039154053e-01
2.242264002561569214e-01 -2.395882457494735718e-01 9.379954636096954346e-02
2.065613865852355957e-01 3.038427606225013733e-02 -2.695389091968536377e-01
1.468767672777175903e-01 2.459937781095504761e-01 -2.307622432708740234e-01
1.273102313280105591e-01 2.511336207389831543e-01 -2.638269960880279541e-01
-1.739089339971542358e-01 1.221456099301576614e-02 4.710611104965209961e-01
2.526873350143432617e-01 -1.281010657548904419e-01 1.547481119632720947e-01
8.111685514450073242e-02 1.205164417624473572e-01 -4.407359659671783447e-01
-1.393427997827529907e-01 2.830424308776855469e-01 3.726296722888946533e-01
-2.350259944796562195e-02 2.510054036974906921e-02 5.853317975997924805e-01
-2.179768979549407959e-01 -9.454080462455749512e-02 -4.008559584617614746e-01
1.920208334922790527e-01 2.064013928174972534e-01 3.241048753261566162e-01
-2.572822570800781250e-01 -9.483970701694488525e-02 2.647275328636169434e-01
7.085813581943511963e-02 -3.045594990253448486e-01 3.888901472091674805e-01
1.457452178001403809e-01 -1.856929808855056763e-02 -4.033312499523162842e-01
-1.330414712429046631e-01 -3.157505095005035400e-01 -3.428325653076171875e-01
1.684317886829376221e-01 -3.386769294738769531e-01 -2.011794969439506531e-02
-2.151230126619338989e-01 -3.192090988159179688e-01 2.834003418684005737e-03
1.269716024398803711e-01 -1.933342218399047852e-01 -3.855006396770477295e-01
2.388267815113067627e-01 1.689163297414779663e-01 8.543907850980758667e-02
7.851098477840423584e-02 -2.300358004868030548e-02 5.665355324745178223e-01
5.175923183560371399e-02 -4.053092300891876221e-01 1.910936683416366577e-01
1.068988889455795288e-01 -6.760431081056594849e-02 -4.544787704944610596e-01
-2.200173214077949524e-02 2.067292630672454834e-01 5.277866125106811523e-01
1.465907394886016846e-01 -3.504385054111480713e-01 -1.110025197267532349e-01
1.829594224691390991e-01 -1.858565062284469604e-01 3.728467524051666260e-01
-2.516069114208221436e-01 -2.563893198966979980e-01 -4.540088772773742676e-02
7.556004822254180908e-02 -3.834313154220581055e-01 -2.099575102329254150e-01
-2.166754007339477539e-01 2.897206842899322510e-01 -1.202312409877777100e-01
-6.647571921348571777e-02 -3.624842762947082520e-01 -3.214149773120880127e-01
1.861940026283264160e-01 -5.043468251824378967e-02 -3.284780383110046387e-01
-3.006799519062042236e-02 3.885015547275543213e-01 2.760914564132690430e-01
-6.753625720739364624e-02 5.536402016878128052e-02 -5.222183465957641602e-01
-2.516004145145416260e-01 2.161468863487243652e-01 -1.545055508613586426e-01
-2.362590581178665161e-01 -2.864829003810882568e-01 -3.757528960704803467e-02
-1.642522513866424561e-01 1.555685698986053467e-01 -4.196726083755493164e-01
-4.513857513666152954e-02 4.205672144889831543e-01 1.447041518986225128e-02
-7.697660475969314575e-02 4.106619954109191895e-01 1.344648450613021851e-01
-1.717825680971145630e-01 -5.624561384320259094e-02 4.644016027450561523e-01
-1.580955386161804199e-01 -2.531440854072570801e-01 3.522260487079620361e-01
1.006487756967544556e-01 -8.368422091007232666e-02 5.391761064529418945e-01
6.600998342037200928e-02 3.914227485656738281e-01 1.885007172822952271e-01
1.012992709875106812e-01 9.230685234069824219e-02 5.432933568954467773e-01
2.345027774572372437e-02 -1.804282516241073608e-01 -4.894021749496459961e-01
-1.476994752883911133e-01 -3.475743234157562256e-01 -2.613610923290252686e-01
1.484198272228240967e-01 2.383083105087280273e-01 -2.385154068470001221e-01
-4.148128628730773926e-02 2.108258455991744995e-01 -4.391057491302490234e-01
-2.308540195226669312e-01 -1.072663292288780212e-01 3.333984017372131348e-01
6.612341105937957764e-02 3.733366131782531738e-01 -1.191275119781494141e-01
1.787644922733306885e-01 1.735970824956893921e-01 -2.459582090377807617e-01
-2.325140833854675293e-01 -2.739018797874450684e-01 -1.668029874563217163e-01
-5.922291055321693420e-02 -3.152756094932556152e-01 3.804025352001190186e-01
1.572156846523284912e-01 1.056211534887552261e-02 4.960652589797973633e-01
1.405410915613174438e-01 -3.061071783304214478e-02 -4.118266701698303223e-01
-1.754924803972244263e-01 -1.243095248937606812e-01 4.321658909320831299e-01
-1.714459955692291260e-01 -3.554602265357971191e-01 -1.732461601495742798e-01
1.646601110696792603e-01 3.532643988728523254e-02 -3.620524704456329346e-01
-2.264278382062911987e-01 -2.812210619449615479e-01 1.124696284532546997e-01
-1.938787698745727539e-01 -3.018020987510681152e-01 -2.520863711833953857e-01
-8.469766378402709961e-02 -4.100389778614044189e-02 -5.311355590820312500e-01
6.755124032497406006e-02 3.991637825965881348e-01 3.697061911225318909e-02
2.522462308406829834e-01 -3.346299007534980774e-02 -1.022694408893585205e-01
-1.004497855901718140e-01 -4.225116372108459473e-01 -5.083695054054260254e-02
7.330548763275146484e-02 3.583714067935943604e-01 -1.521783322095870972e-01
-4.561439901590347290e-02 4.125984609127044678e-01 1.714776903390884399e-01
-1.117409169673919678e-01 5.269291251897811890e-02 5.387185811996459961e-01
-1.575488448143005371e-01 -1.651646792888641357e-01 4.335013031959533691e-01
1.039221733808517456e-01 2.114968895912170410e-01 4.782439470291137695e-01
-2.338925004005432129e-01 -2.895694077014923096e-01 -6.722043454647064209e-02
2.633561939001083374e-02 -4.014061987400054932e-01 -2.246330082416534424e-01
9.281118214130401611e-02 -4.098072350025177002e-01 -2.792579680681228638e-02
-2.516943514347076416e-01 -1.915474236011505127e-01 -2.476077973842620850e-01
-2.806738764047622681e-02 8.511629886925220490e-03 5.842749476432800293e-01
1.447678208351135254e-01 3.284462094306945801e-01 -3.468057513236999512e-02
1.272500306367874146e-01 1.099728271365165710e-01 -3.918604850769042969e-01
-1.855968087911605835e-01 -2.967589795589447021e-01 -2.835199534893035889e-01
-1.330139189958572388e-01 -1.111098974943161011e-01 4.929548203945159912e-01
-1.939795911312103271e-01 -8.026967942714691162e-02 -4.424825310707092285e-01
2.361427247524261475e-01 -6.022915989160537720e-02 -1.788482218980789185e-01
1.766366958618164062e-01 -3.160696625709533691e-01 -8.615580201148986816e-02
1.556221991777420044e-01 1.337167024612426758e-01 -3.308849930763244629e-01
2.607788741588592529e-01 -4.988737776875495911e-02 -3.147093951702117920e-02
2.286374419927597046e-01 -4.097359627485275269e-02 3.413156270980834961e-01
1.863203793764114380e-01 -3.042981624603271484e-01 -6.989023834466934204e-02
2.095156311988830566e-01 -1.776957362890243530e-01 3.119125962257385254e-01
4.212429746985435486e-02 -3.116554915904998779e-01 3.952198028564453125e-01
2.238303422927856445e-01 -2.189867496490478516e-01 -8.285199850797653198e-02
7.334008812904357910e-02 9.884972125291824341e-02 -4.585184752941131592e-01
-7.224088907241821289e-02 -3.105614185333251953e-01 -3.962158262729644775e-01
-4.511611908674240112e-02 -4.321789145469665527e-01 -1.233418732881546021e-01
2.287867516279220581e-01 1.452261507511138916e-01 2.637994289398193359e-01
-1.019462347030639648e-01 3.815989792346954346e-01 2.279449403285980225e-01
-2.452586293220520020e-01 8.451510220766067505e-04 3.306487798690795898e-01
1.111481189727783203e-01 3.479510247707366943e-01 2.507291734218597412e-01
-1.024339646100997925e-01 1.180075928568840027e-01 -4.877043962478637695e-01
2.217092365026473999e-02 -3.378707468509674072e-01 3.625274002552032471e-01
-3.030009567737579346e-01 -5.121618881821632385e-02 -5.716347694396972656e-02
-1.601195037364959717e-01 -3.056106269359588623e-01 -3.194917738437652588e-01
-2.370251417160034180e-01 1.899410337209701538e-01 -2.563055455684661865e-01
-7.651891559362411499e-03 -4.204862117767333984e-01 -1.844136118888854980e-01
-8.362185955047607422e-02 -4.281179010868072510e-01 3.307901322841644287e-02
-2.173297256231307983e-01 2.959034144878387451e-01 -9.088044613599777222e-02
-1.808584183454513550e-01 -1.403164416551589966e-01 4.145714640617370605e-01
-2.787033021450042725e-01 -1.514561921358108521e-01 1.062961742281913757e-01
8.200676739215850830e-02 1.381923723965883255e-02 5.667765736579895020e-01
-2.094087898731231689e-01 2.136573567986488342e-02 4.122350513935089111e-01
-1.693653464317321777e-01 3.564632833003997803e-01 -5.424406379461288452e-02
3.607546165585517883e-02 3.756124675273895264e-01 -1.582578569650650024e-01
-2.451706677675247192e-03 3.990990519523620605e-01 -1.153175234794616699e-01
-2.945649623870849609e-01 8.083770424127578735e-02 -1.195738315582275391e-01
9.320701658725738525e-02 -3.344480693340301514e-01 3.199705183506011963e-01
2.392295598983764648e-01 -9.125541895627975464e-02 -1.544966846704483032e-01
1.005992293357849121e-01 -3.763169944286346436e-01 -1.781659126281738281e-01
1.435346007347106934e-01 -3.571141064167022705e-01 1.453633606433868408e-01
1.391721367835998535e-01 -2.051199376583099365e-01 4.305422604084014893e-01
-1.070328801870346069e-01 -4.117372632026672363e-02 -5.227124691009521484e-01
3.217780590057373047e-02 1.098651587963104248e-01 5.719977617263793945e-01
7.752950489521026611e-02 3.817805051803588867e-01 -5.676377564668655396e-02
-6.807948648929595947e-02 3.634417429566383362e-03 5.693773031234741211e-01
-8.356861770153045654e-02 -2.499460279941558838e-01 -4.525593221187591553e-01
1.923407316207885742e-01 1.051619648933410645e-01 -2.702755928039550781e-01
-5.203453451395034790e-02 -2.803221344947814941e-02 5.736421942710876465e-01
1.232350245118141174e-02 -8.242398500442504883e-02 5.729976296424865723e-01
1.448242515325546265e-01 -3.583397865295410156e-01 1.324829310178756714e-01
-4.334062337875366211e-03 -1.850053369998931885e-01 -4.976204633712768555e-01
9.692080318927764893e-02 3.780481219291687012e-01 1.799456775188446045e-03
-3.467681258916854858e-02 -8.398679643869400024e-02 -5.335121154785156250e-01
2.344710826873779297e-01 1.592051088809967041e-01 -3.691786527633666992e-02
-3.047909438610076904e-01 -2.183447964489459991e-02 -4.306127130985260010e-02
-2.683860063552856445e-01 1.372639387845993042e-01 2.012384831905364990e-01
3.999510407447814941e-02 -2.362788915634155273e-01 4.802175164222717285e-01
-3.791936486959457397e-02 -3.997936546802520752e-01 -2.498991787433624268e-01
-1.282739490270614624e-01 3.929128050804138184e-01 2.496435865759849548e-02
-1.345523446798324585e-01 -2.833834588527679443e-01 3.496283888816833496e-01
1.163607537746429443e-01 -1.496255546808242798e-01 -4.226644337177276611e-01
1.396594196557998657e-01 -2.913284003734588623e-01 -2.669083774089813232e-01
-1.138474941253662109e-01 -3.737323880195617676e-01 2.128981500864028931e-01
-1.645056158304214478e-01 6.812611967325210571e-02 4.796434044837951660e-01
-1.770854182541370392e-02 -2.925811409950256348e-01 4.256674945354461670e-01
2.206825911998748779e-01 1.105998083949089050e-01 3.323279917240142822e-01
2.163497656583786011e-01 -2.216283045709133148e-02 3.808947205543518066e-01
2.410068511962890625e-01 -1.939852237701416016e-01 3.177171200513839722e-02
1.958094239234924316e-01 1.277369707822799683e-01 3.922016322612762451e-01
1.032423973083496094e-01 3.428856432437896729e-01 -1.326118856668472290e-01
2.392321825027465820e-01 -1.227970421314239502e-01 2.545254826545715332e-01
1.412342190742492676e-01 1.786709427833557129e-01 4.589372873306274414e-01
3.194218128919601440e-02 3.202400505542755127e-01 -2.830587625503540039e-01
2.309649586677551270e-01 1.872224062681198120e-01 1.448020339012145996e-01
7.270418107509613037e-02 3.412983119487762451e-01 -1.965429037809371948e-01
8.429765701293945312e-02 -3.625339269638061523e-01 2.727189064025878906e-01
-2.324031144380569458e-01 1.054768785834312439e-01 -3.459138572216033936e-01
-3.935737535357475281e-02 5.956868082284927368e-02 -5.227453112602233887e-01
1.306846737861633301e-01 -2.765209078788757324e-01 -3.049571514129638672e-01
3.167078644037246704e-02 4.116427302360534668e-01 4.299918189644813538e-03
-1.916530877351760864e-01 -9.941823035478591919e-02 4.181596636772155762e-01
2.947914972901344299e-02 -4.256555736064910889e-01 1.289198100566864014e-01
1.699021160602569580e-01 -2.721860110759735107e-01 -2.190952003002166748e-01
1.757792681455612183e-01 -2.000044435262680054e-01 -2.883714437484741211e-01
-1.174066960811614990e-01 -3.050384297966957092e-02 5.317034721374511719e-01
-2.746172994375228882e-02 1.038585156202316284e-01 -5.056563615798950195e-01
-2.959952056407928467e-01 1.043236404657363892e-01 -3.834204375743865967e-02
2.750388905405998230e-02 1.015352681279182434e-01 -4.891371726989746094e-01
-2.764575481414794922e-01 -1.900809109210968018e-01 7.243786007165908813e-03
-4.299400374293327332e-03 -3.940669000148773193e-01 2.528844773769378662e-01
1.062422394752502441e-01 -2.485753744840621948e-01 4.266628921031951904e-01
1.800484657287597656e-01 -3.191255629062652588e-01 1.114002168178558350e-01
1.178599148988723755e-01 -3.675584197044372559e-01 1.957760304212570190e-01
9.832543134689331055e-02 2.519030570983886719e-01 -3.097848296165466309e-01
2.189947664737701416e-01 1.517931520938873291e-01 -1.392962783575057983e-01
2.476018965244293213e-01 -1.231311634182929993e-01 2.060324698686599731e-01
1.328980624675750732e-01 -1.869389861822128296e-01 -3.804512321949005127e-01
-1.425115615129470825e-01 -2.540323734283447266e-01 -4.070953130722045898e-01
1.905299723148345947e-01 -3.089926540851593018e-01 3.911937773227691650e-02
1.071446388959884644e-01 3.011263608932495117e-01 3.678956925868988037e-01
-2.669581174850463867e-01 2.127323597669601440e-01 -1.304131001234054565e-03
8.471372723579406738e-02 3.529854416847229004e-01 2.937527298927307129e-01
-1.201103627681732178e-01 3.651950955390930176e-01 -1.654949039220809937e-01
-1.951071470975875854e-01 -3.302402198314666748e-01 -1.680321544408798218e-01
1.868830174207687378e-01 1.372708827257156372e-01 4.065607786178588867e-01
1.709815412759780884e-01 3.023802340030670166e-01 1.625151634216308594e-01
2.348127961158752441e-01 -1.508055329322814941e-01 -1.302838176488876343e-01
1.021214872598648071e-01 -3.435173332691192627e-01 -2.538564503192901611e-01
1.685269623994827271e-01 -2.265121787786483765e-01 -2.810554206371307373e-01
1.648352444171905518e-01 -2.625882625579833984e-01 -2.474749088287353516e-01
-2.802048027515411377e-01 -7.984972745180130005e-02 -2.313914000988006592e-01
2.154510468244552612e-02 -2.600420117378234863e-01 4.618405401706695557e-01
-2.225055992603302002e-01 2.424875348806381226e-01 2.421051859855651855e-01
-1.648401319980621338e-01 -2.079339325428009033e-01 -4.210218787193298340e-01
2.259124964475631714e-01 -2.177488505840301514e-01 -7.041715085506439209e-02
-2.490849792957305908e-01 -2.618188261985778809e-01 -3.402651473879814148e-02
2.495812773704528809e-01 -1.190414801239967346e-01 -7.263543456792831421e-02
1.630076169967651367e-01 7.160956412553787231e-02 -3.522059619426727295e-01
9.646700695157051086e-03 1.678670048713684082e-01 -4.607348740100860596e-01
-6.193191930651664734e-02 5.703998357057571411e-02 5.705350041389465332e-01
-2.120994627475738525e-01 -7.991246879100799561e-02 3.883705437183380127e-01
9.902597963809967041e-02 3.793981969356536865e-01 3.263959661126136780e-02
-1.868755072355270386e-01 5.256134271621704102e-02 -4.447532892227172852e-01
-1.052521020174026489e-01 -4.175006747245788574e-01 -9.012495726346969604e-02
-4.841468483209609985e-02 2.561497092247009277e-01 -3.951030969619750977e-01
-1.632776260375976562e-01 1.364539861679077148e-01 4.601599872112274170e-01
-9.494747221469879150e-02 2.611549198627471924e-01 -3.767302930355072021e-01
1.627534627914428711e-01 1.958110928535461426e-01 4.086232781410217285e-01
-6.884908676147460938e-02 3.526620864868164062e-01 3.403344154357910156e-01
-7.305750250816345215e-02 3.149060904979705811e-01 -3.126370608806610107e-01
-8.233398199081420898e-02 -1.246035937219858170e-02 -5.309923291206359863e-01
4.622269049286842346e-02 -2.746181190013885498e-02 -5.086755752563476562e-01
1.673970371484756470e-01 6.267600506544113159e-02 -3.476192951202392578e-01
-8.801689743995666504e-02 1.315837204456329346e-01 -4.862290024757385254e-01
2.229993343353271484e-01 1.942725032567977905e-01 2.021174728870391846e-01
1.346342265605926514e-01 -3.720067441463470459e-01 1.097544804215431213e-01
-2.114943414926528931e-01 -2.729080319404602051e-01 1.981140822172164917e-01
5.463038012385368347e-02 -2.795072197914123535e-01 4.304409623146057129e-01
2.007993459701538086e-01 2.369773387908935547e-01 -5.949483811855316162e-02
2.430739402770996094e-01 -1.875223517417907715e-01 6.830707192420959473e-02
8.139327168464660645e-02 -3.687987327575683594e-01 2.614672482013702393e-01
2.432725578546524048e-02 -2.681021392345428467e-01 -4.306812584400177002e-01
1.985669434070587158e-01 1.298270970582962036e-01 -2.344568669795989990e-01
-2.860604226589202881e-01 -1.546014845371246338e-01 -8.018338680267333984e-02
1.425307542085647583e-01 -3.046684861183166504e-01 -2.389390468597412109e-01
2.383473217487335205e-01 -2.007705569267272949e-01 1.276483945548534393e-02
-3.016402721405029297e-01 3.628275543451309204e-02 -9.132652729749679565e-02
-1.857413351535797119e-01 -3.572084903717041016e-01 -5.884937196969985962e-02
5.886053666472434998e-02 -3.716377615928649902e-01 2.792623937129974365e-01
6.361290812492370605e-02 2.602826803922653198e-02 5.757911801338195801e-01
1.055595427751541138e-01 1.085790991783142090e-01 -4.208009541034698486e-01
-3.081808611750602722e-02 -4.244072139263153076e-01 1.473455876111984253e-01
3.547198697924613953e-02 2.734184563159942627e-01 -3.483783602714538574e-01
1.966469436883926392e-01 -2.670118808746337891e-01 -1.277177482843399048e-01
1.879409700632095337e-01 6.287106871604919434e-02 -3.042228221893310547e-01
-1.925283968448638916e-01 2.145003229379653931e-01 -3.274275362491607666e-01
2.165094763040542603e-01 6.978484243154525757e-02 3.682911992073059082e-01
2.515317872166633606e-02 3.270272910594940186e-01 4.000382423400878906e-01
-1.543846875429153442e-01 -2.050303071737289429e-01 4.070833921432495117e-01
2.345974147319793701e-01 1.580866426229476929e-01 2.052233517169952393e-01
-2.359272092580795288e-01 -2.357029356062412262e-02 3.517322838306427002e-01
1.215233653783798218e-01 -1.838591545820236206e-01 -3.990301489830017090e-01
-1.773836314678192139e-01 3.364927768707275391e-01 -1.188764572143554688e-01
-2.460510581731796265e-01 -1.924977302551269531e-01 2.100425213575363159e-01
1.528566181659698486e-01 3.231961429119110107e-01 -1.157144457101821899e-02
-7.265905290842056274e-02 3.556808233261108398e-01 3.311955332756042480e-01
-7.256808876991271973e-02 -2.680872753262519836e-02 5.641667246818542480e-01
1.204472333192825317e-01 3.342619538307189941e-01 2.685172557830810547e-01
1.299485266208648682e-01 3.552051186561584473e-01 9.477505087852478027e-02
-1.973331719636917114e-01 -2.975981310009956360e-02 -4.431611597537994385e-01
7.114309072494506836e-02 -1.720727384090423584e-01 -4.613481462001800537e-01
-2.976725250482559204e-02 2.514970898628234863e-01 4.916097521781921387e-01
-1.945507228374481201e-01 -1.725810021162033081e-01 -4.039092361927032471e-01
3.226421028375625610e-02 -4.175642728805541992e-01 1.643853336572647095e-01
-1.714911758899688721e-01 2.522644996643066406e-01 3.577858507633209229e-01
-4.991013929247856140e-02 -4.005121886730194092e-01 -2.444011270999908447e-01
-5.982107669115066528e-02 4.170577824115753174e-01 1.156822592020034790e-01
-2.491796314716339111e-01 -1.373359411954879761e-01 -3.092237412929534912e-01
-1.787238568067550659e-01 -1.579584926366806030e-01 4.066171646118164062e-01
2.494103908538818359e-01 1.300892531871795654e-01 8.801124989986419678e-02
2.508072555065155029e-02 -3.958918750286102295e-01 -2.405382692813873291e-01
2.146847397089004517e-01 2.318319678306579590e-01 6.418189406394958496e-02
-2.017266303300857544e-01 3.197918832302093506e-01 1.179164201021194458e-01
1.424764245748519897e-01 3.401208519935607910e-01 2.774056978523731232e-02
4.412753507494926453e-02 -8.910363167524337769e-02 5.658117532730102539e-01
-3.973045200109481812e-02 1.441987603902816772e-01 5.566162467002868652e-01
-1.173172146081924438e-01 -7.040207833051681519e-02 -5.154700875282287598e-01
-1.495916396379470825e-01 -2.981617152690887451e-01 -3.468667268753051758e-01
-1.029883474111557007e-01 -1.898887604475021362e-01 -4.843741059303283691e-01
2.654239535331726074e-01 -1.442188024520874023e-02 2.861222624778747559e-02
2.264299094676971436e-01 1.871565878391265869e-01 1.952711939811706543e-01
-1.539249420166015625e-01 -3.312964439392089844e-01 -2.845142483711242676e-01
2.402078509330749512e-01 1.151503548026084900e-01 2.409255206584930420e-01
6.183363124728202820e-02 3.941329121589660645e-01 -3.673729300498962402e-02
-2.839007973670959473e-01 1.277542859315872192e-01 1.197637096047401428e-01
2.030332088470458984e-01 -1.822409629821777344e-01 3.264274001121520996e-01
-5.855396762490272522e-02 -2.179464325308799744e-02 5.717310309410095215e-01
1.297515034675598145e-01 3.419060111045837402e-01 2.093000710010528564e-01
-1.849176436662673950e-01 1.107076257467269897e-01 4.380195140838623047e-01
2.208621501922607422e-01 9.490016102790832520e-02 3.423165082931518555e-01
-1.805386841297149658e-01 -3.468804061412811279e-01 1.084769591689109802e-01
1.495024189352989197e-02 -3.676796257495880127e-01 -3.083148896694183350e-01
-2.106840759515762329e-01 1.319601684808731079e-01 -3.711335957050323486e-01
-2.116568684577941895e-01 2.311046868562698364e-01 -2.665325999259948730e-01
2.561968564987182617e-01 3.715620934963226318e-02 2.070599049329757690e-01
1.557720005512237549e-01 3.275487720966339111e-01 7.425508648157119751e-02
1.573772728443145752e-01 -2.253714948892593384e-01 3.823243677616119385e-01
5.044982954859733582e-02 -4.304595291614532471e-01 4.023861885070800781e-02
8.068531751632690430e-04 4.028205871582031250e-01 -9.772291034460067749e-02
-1.351040136069059372e-02 -3.711711168289184570e-01 -3.124156594276428223e-01
-1.017179340124130249e-01 1.889041662216186523e-01 -4.431184828281402588e-01
-1.756835877895355225e-01 -1.509281992912292480e-01 4.162006974220275879e-01
-2.719821333885192871e-01 1.805972754955291748e-01 -1.108159273862838745e-01
-1.524066925048828125e-01 3.708502650260925293e-01 1.208003908395767212e-01
2.515427470207214355e-01 -1.467133909463882446e-01 1.522446051239967346e-03
9.195451438426971436e-02 2.367870956659317017e-01 -3.361623287200927734e-01
1.462423801422119141e-02 2.266595065593719482e-01 -4.114409983158111572e-01
-2.812953591346740723e-01 4.119978472590446472e-02 -2.314413785934448242e-01
-7.609653472900390625e-02 4.017719030380249023e-01 -8.906750380992889404e-02
-2.276567667722702026e-01 4.596819356083869934e-02 -3.827966153621673584e-01
2.433308213949203491e-02 3.642831742763519287e-01 -2.004358023405075073e-01
-7.246091961860656738e-02 -2.543556988239288330e-01 4.444501101970672607e-01
6.614126265048980713e-02 8.796323090791702271e-02 -4.692620337009429932e-01
-2.943410277366638184e-01 2.037712559103965759e-02 -1.687938570976257324e-01
5.762202665209770203e-02 4.015582799911499023e-01 4.757888615131378174e-03
2.397440373897552490e-01 2.282381430268287659e-02 -1.575115025043487549e-01
-2.716623619198799133e-02 -3.196857571601867676e-01 -3.922409117221832275e-01
1.016467958688735962e-01 2.832649052143096924e-01 -2.607661485671997070e-01
1.350766420364379883e-01 1.732079535722732544e-01 -3.361980617046356201e-01
2.260486930608749390e-01 -2.190439403057098389e-01 1.654132455587387085e-01
5.829336866736412048e-02 3.585611879825592041e-01 3.162836134433746338e-01
-2.037889510393142700e-01 -2.410028874874114990e-01 2.743476033210754395e-01
2.482877075672149658e-01 1.053885668516159058e-01 1.970540881156921387e-01
-2.948609888553619385e-01 8.714738488197326660e-02 -1.067760735750198364e-01
-7.154937088489532471e-02 2.533095479011535645e-01 4.725014269351959229e-01
2.478604316711425781e-01 4.628483578562736511e-02 -1.044342070817947388e-01
2.099531888961791992e-01 -2.509192228317260742e-01 1.823291033506393433e-01
9.269474074244499207e-03 4.138606488704681396e-01 1.604440212249755859e-01
1.998143643140792847e-01 -2.931685745716094971e-01 4.699864983558654785e-02
-2.491937875747680664e-01 1.879638060927391052e-02 -3.426128327846527100e-01
-6.778179854154586792e-02 -4.341479837894439697e-01 -6.100252270698547363e-02
-2.527328133583068848e-01 -2.488483041524887085e-01 3.127838298678398132e-02
-7.874482870101928711e-02 -1.965828686952590942e-01 -4.905937910079956055e-01
1.821012198925018311e-01 2.918167114257812500e-01 9.473163634538650513e-02
1.124283373355865479e-01 -1.195992529392242432e-01 -4.380336999893188477e-01
-1.562357991933822632e-01 1.083602756261825562e-01 -4.559352993965148926e-01
-8.315601944923400879e-02 -4.223334193229675293e-01 8.557634055614471436e-02
-3.565895184874534607e-02 2.808244824409484863e-01 4.611261487007141113e-01
6.490400433540344238e-02 3.225344419479370117e-01 -2.459714114665985107e-01
-2.846007645130157471e-01 -1.401188969612121582e-01 -1.415072232484817505e-01
1.492047309875488281e-02 4.127681553363800049e-01 -2.660935372114181519e-02
2.063781768083572388e-01 -2.404547780752182007e-01 -1.376101076602935791e-01
-2.316792160272598267e-01 -1.394024211913347244e-02 3.633457124233245850e-01
2.437141835689544678e-01 9.120653569698333740e-02 2.471628636121749878e-01
-2.811961472034454346e-01 7.162613421678543091e-02 1.903163492679595947e-01
-1.197872459888458252e-01 3.146347701549530029e-01 3.540090024471282959e-01
-9.702262468636035919e-03 4.183560311794281006e-01 -1.335626840591430664e-02
2.180925458669662476e-01 -2.564605474472045898e-01 6.062975525856018066e-02
2.555728256702423096e-01 -7.287953048944473267e-02 2.013259828090667725e-01
1.325800567865371704e-01 -3.502942025661468506e-01 -1.653062850236892700e-01
-1.195930689573287964e-01 3.792872726917266846e-01 1.989915966987609863e-01
2.284057885408401489e-01 -1.805566996335983276e-01 -1.268462985754013062e-01
1.305802166461944580e-01 -3.394972681999206543e-01 -1.992962956428527832e-01
3.556128218770027161e-02 1.653372645378112793e-01 -4.493221640586853027e-01
1.017123013734817505e-01 3.739559054374694824e-01 1.604722589254379272e-01
-7.005527615547180176e-02 3.918925225734710693e-01 -1.366494596004486084e-01
1.740652024745941162e-01 1.238431558012962341e-01 4.406193792819976807e-01
-2.236423343420028687e-01 -1.705059707164764404e-01 -3.504909276962280273e-01
-2.206624597311019897e-01 -3.105110824108123779e-01 -7.669940590858459473e-02
4.477493092417716980e-02 3.130921125411987305e-01 -2.840538024902343750e-01
-4.815910756587982178e-02 3.368749320507049561e-01 -2.812081277370452881e-01
-2.609518170356750488e-01 -2.024836093187332153e-01 -1.855222880840301514e-01
2.593215405941009521e-01 7.850724458694458008e-02 8.264596760272979736e-02
2.205070406198501587e-01 -2.440918982028961182e-01 1.212101653218269348e-01
1.902589499950408936e-01 -1.936772912740707397e-01 3.480691015720367432e-01
-2.933579981327056885e-01 -1.360162999480962753e-02 1.373974084854125977e-01
2.372221350669860840e-01 -2.066595703363418579e-01 3.949339315295219421e-02
-1.464289724826812744e-01 1.305615752935409546e-01 -4.528672993183135986e-01
-1.437176316976547241e-01 -3.854930400848388672e-01 -1.471091359853744507e-01
1.431400477886199951e-01 2.449509054422378540e-01 3.906418085098266602e-01
1.515771597623825073e-01 2.609789073467254639e-01 -1.948920190334320068e-01
2.526536583900451660e-01 -1.456461250782012939e-01 1.008846014738082886e-01
1.781892180442810059e-01 -3.273597955703735352e-01 1.312664430588483810e-02
-3.017482161521911621e-01 2.865701168775558472e-02 -9.643452614545822144e-02
1.256823539733886719e-01 -2.664881348609924316e-01 -3.255811929702758789e-01
1.479143276810646057e-02 3.083121180534362793e-01 -3.135590851306915283e-01
-8.330194652080535889e-02 1.739891991019248962e-02 -5.272068977355957031e-01
-1.542798131704330444e-01 3.745445609092712402e-01 6.341794133186340332e-02
2.578212022781372070e-01 4.890600591897964478e-02 -2.777112275362014771e-02
-1.636280715465545654e-01 3.575452864170074463e-01 -7.856722921133041382e-02
7.572049275040626526e-03 -3.924835324287414551e-01 -2.604485154151916504e-01
-1.436696946620941162e-01 -1.039438396692276001e-01 4.842227995395660400e-01
-1.140860021114349365e-01 2.249474972486495972e-01 4.632686376571655273e-01
5.781109258532524109e-02 2.754366695880889893e-01 4.530945718288421631e-01
-4.667326062917709351e-02 2.538402080535888672e-01 4.842830598354339600e-01
-1.269323006272315979e-02 -7.225567847490310669e-02 5.748627781867980957e-01
8.811813592910766602e-02 3.809339106082916260e-01 1.767519563436508179e-01
-8.096311986446380615e-02 1.238145008683204651e-01 -4.924344420433044434e-01
2.599620521068572998e-01 3.805520385503768921e-02 -1.638080924749374390e-02
1.362211406230926514e-01 7.924325764179229736e-02 -3.936485052108764648e-01
2.520693540573120117e-01 -1.488876938819885254e-01 2.255846932530403137e-02
-2.224879413843154907e-01 -1.992768347263336182e-01 2.778004109859466553e-01
2.159306406974792480e-01 -1.684166491031646729e-01 3.011462092399597168e-01
3.274247795343399048e-02 4.138038754463195801e-01 9.878160059452056885e-02
1.715175956487655640e-01 -1.528813242912292480e-01 4.221386015415191650e-01
-6.201712414622306824e-03 4.115283489227294922e-02 5.869673490524291992e-01
1.337719112634658813e-01 -2.271751016378402710e-01 4.167758524417877197e-01
1.816609352827072144e-01 1.725141257047653198e-01 3.904817104339599609e-01
4.771709069609642029e-02 4.088361263275146484e-01 5.171188712120056152e-02
-2.159188091754913330e-01 -3.745694831013679504e-02 3.936708569526672363e-01
-1.683209091424942017e-01 3.073880076408386230e-01 -2.256164848804473877e-01
9.793278574943542480e-02 2.055630534887313843e-01 4.886849224567413330e-01
-2.840329706668853760e-01 1.429853588342666626e-01 -1.015722453594207764e-01
1.797617226839065552e-01 -3.235686421394348145e-01 -1.115360110998153687e-02
-1.890367865562438965e-01 -3.257073462009429932e-01 1.478167474269866943e-01
-1.448416709899902344e-01 3.810407519340515137e-01 -2.260349690914154053e-03
-1.227862089872360229e-01 -4.005210995674133301e-01 9.260281175374984741e-02
-1.524932682514190674e-01 3.301003873348236084e-01 2.679463028907775879e-01
-3.002337515354156494e-01 7.778555899858474731e-02 -1.444559171795845032e-02
1.512759327888488770e-01 -1.427319943904876709e-01 -3.732599914073944092e-01
1.817131489515304565e-01 -2.572179734706878662e-01 -2.059373855590820312e-01
-1.260689944028854370e-01 -3.983928263187408447e-01 -1.435362249612808228e-01
3.070423007011413574e-02 3.800317347049713135e-01 -1.511723548173904419e-01
-1.105428487062454224e-01 -3.844524919986724854e-01 -2.316247820854187012e-01
2.548328638076782227e-01 -2.779758721590042114e-02 2.276677191257476807e-01
-1.937915980815887451e-01 1.538011431694030762e-01 4.021379649639129639e-01
-2.204542048275470734e-02 5.652248859405517578e-02 5.834835171699523926e-01
-1.348644196987152100e-01 -7.519592344760894775e-02 -5.037450194358825684e-01
2.615860402584075928e-01 2.448209747672080994e-02 -1.003573462367057800e-02
8.158637583255767822e-02 -3.214458525180816650e-01 -3.218749165534973145e-01
-2.446005940437316895e-01 -2.708591520786285400e-01 -3.438412025570869446e-02
-1.068003773689270020e-01 2.451146394014358521e-01 -3.883354961872100830e-01
2.552844956517219543e-02 7.175287604331970215e-02 -5.017125606536865234e-01
-7.096609473228454590e-02 2.979298830032348633e-01 -3.389644920825958252e-01
-2.591289281845092773e-01 1.941510140895843506e-01 -1.634533256292343140e-01
-2.775288224220275879e-01 1.687580645084381104e-01 8.735550940036773682e-02
2.278627902269363403e-01 1.894769519567489624e-01 -4.591187462210655212e-03
-4.153322428464889526e-02 -2.923492789268493652e-01 4.189946949481964111e-01
1.144694387912750244e-01 2.237211465835571289e-01 -3.194819092750549316e-01
1.886109262704849243e-02 4.151304960250854492e-01 3.137467429041862488e-03
2.509170472621917725e-01 -1.570497453212738037e-01 4.994206503033638000e-02
-2.764019966125488281e-01 1.784831136465072632e-01 6.613483279943466187e-02
7.600823044776916504e-02 2.905164957046508789e-01 -2.859316170215606689e-01
1.896736770868301392e-02 -3.030906319618225098e-01 4.131774008274078369e-01
-8.329276740550994873e-02 -3.488489687442779541e-01 3.079451024532318115e-01
-1.359598040580749512e-01 -3.395481705665588379e-01 2.538458406925201416e-01
-2.952771484851837158e-01 -7.077360153198242188e-02 9.046498686075210571e-02
-2.272996865212917328e-02 3.930242955684661865e-01 2.637731432914733887e-01
2.360252737998962402e-01 -4.256822913885116577e-02 3.150477707386016846e-01
7.698972523212432861e-02 -7.811533659696578979e-02 -4.833671450614929199e-01
-2.121673077344894409e-01 -3.135898709297180176e-01 -1.411939412355422974e-01
1.752608567476272583e-01 -3.213658034801483154e-01 -7.187239080667495728e-02
1.416139453649520874e-01 -1.919177174568176270e-01 -3.631845712661743164e-01
2.358277738094329834e-01 -3.611008636653423309e-03 -1.812603771686553955e-01
1.060920208692550659e-01 -2.177110910415649414e-01 4.568312466144561768e-01
-1.946317553520202637e-01 -1.294888854026794434e-01 3.973639309406280518e-01
-1.430553942918777466e-01 -3.812358677387237549e-01 1.154757887125015259e-01
-1.669135242700576782e-01 3.293793201446533203e-01 2.329839915037155151e-01
-1.082618236541748047e-01 -4.129604101181030273e-01 6.831908226013183594e-02
1.285663247108459473e-01 3.207359015941619873e-01 -1.266179680824279785e-01
-6.564790010452270508e-02 3.144052326679229736e-01 4.061926007270812988e-01
2.020814567804336548e-01 2.248784452676773071e-01 -8.515780419111251831e-02
1.278116852045059204e-01 3.082114160060882568e-01 -1.606868952512741089e-01
4.966816678643226624e-02 -3.859097659587860107e-01 2.521725296974182129e-01
1.827325224876403809e-01 2.902177274227142334e-01 1.125204786658287048e-01
-2.654483914375305176e-01 1.423861533403396606e-01 2.095280289649963379e-01
1.869439333677291870e-01 2.606087625026702881e-01 -6.702186912298202515e-02
1.414055228233337402e-01 -2.167610228061676025e-01 -3.454637825489044189e-01
2.425776124000549316e-01 1.236355379223823547e-01 -4.900925606489181519e-02
2.675786614418029785e-03 -3.777996301651000977e-01 -2.947475314140319824e-01
-2.099372260272502899e-02 4.143435060977935791e-01 1.725995838642120361e-01
-1.172529309988021851e-01 -3.820487856864929199e-01 1.822447925806045532e-01
1.010608822107315063e-01 -3.384263813495635986e-01 3.020533025264739990e-01
2.261023372411727905e-01 -3.965916112065315247e-02 -2.195994853973388672e-01
-1.184605211019515991e-01 3.938700854778289795e-01 1.232647150754928589e-01
-2.177105844020843506e-01 -3.000676333904266357e-01 9.694488346576690674e-02
1.524803042411804199e-01 -2.900721132755279541e-01 -2.384487390518188477e-01
1.720256656408309937e-01 2.878690063953399658e-01 -5.615995079278945923e-02
2.579396367073059082e-01 -8.567477762699127197e-02 1.681417226791381836e-01
9.641928970813751221e-02 -4.068668186664581299e-01 -3.680168837308883667e-02
2.306880354881286621e-01 -6.947238743305206299e-02 3.250939548015594482e-01
3.350061178207397461e-02 8.842629194259643555e-02 -4.913794994354248047e-01
1.758297681808471680e-01 3.651322051882743835e-02 4.659329056739807129e-01
2.398406565189361572e-01 -1.779784709215164185e-01 1.646690964698791504e-01
1.847069859504699707e-01 -2.448087185621261597e-02 4.505566656589508057e-01
2.285127341747283936e-01 -2.282420992851257324e-01 7.832814007997512817e-04
1.253814101219177246e-01 2.954578101634979248e-01 3.465516567230224609e-01
1.190897375345230103e-01 4.329670965671539307e-02 5.375242233276367188e-01
3.406868875026702881e-02 2.678596079349517822e-01 4.727839231491088867e-01
-2.691799104213714600e-01 2.030209600925445557e-01 5.267682671546936035e-02
2.582812011241912842e-01 1.473233941942453384e-02 2.007801532745361328e-01
1.104529947042465210e-01 -7.192402333021163940e-02 5.349992513656616211e-01
-2.905575633049011230e-01 -1.318324059247970581e-01 2.912018448114395142e-02
8.240196108818054199e-02 -3.843741118907928467e-01 -1.945166587829589844e-01
2.652257680892944336e-01 -4.209988191723823547e-02 1.097786277532577515e-01
-3.033290803432464600e-01 -5.262539163231849670e-02 -2.654200419783592224e-02
-2.526682317256927490e-01 -9.295204281806945801e-02 -3.235035836696624756e-01
1.247955560684204102e-01 -2.540326416492462158e-01 -3.401756882667541504e-01
-1.732847243547439575e-01 2.616667449474334717e-01 3.425518274307250977e-01
7.800447940826416016e-02 -2.635351419448852539e-01 -3.930659592151641846e-01
2.512811422348022461e-01 -1.027349829673767090e-01 2.048823237419128418e-01
1.941875815391540527e-01 6.018266081809997559e-02 -2.904723584651947021e-01
-2.584479153156280518e-01 5.304813385009765625e-02 -3.076683282852172852e-01
-2.772269845008850098e-01 4.455420002341270447e-02 2.195109575986862183e-01
4.767331108450889587e-02 5.018749088048934937e-02 5.799735784530639648e-01
2.548135817050933838e-01 -1.380797624588012695e-01 4.485309869050979614e-02
-3.024626672267913818e-01 -8.496056310832500458e-03 5.463499203324317932e-02
-1.660145372152328491e-01 2.382135242223739624e-01 -3.401355743408203125e-01
2.247162610292434692e-01 1.984075903892517090e-01 1.727679520845413208e-01
2.120110839605331421e-01 -2.613322138786315918e-01 -4.029095917940139771e-02
-2.609898149967193604e-01 1.087147817015647888e-01 2.555393874645233154e-01
9.702703356742858887e-02 -3.666321635246276855e-01 -2.128885537385940552e-01
-6.892457604408264160e-02 -4.348918497562408447e-01 -2.545727416872978210e-03
-8.569004014134407043e-03 -3.884887993335723877e-01 -2.758836150169372559e-01
9.376290440559387207e-02 9.819060564041137695e-02 5.472884178161621094e-01
6.639748811721801758e-02 -5.293933674693107605e-02 -4.942985177040100098e-01
-2.716079056262969971e-01 -1.073037683963775635e-01 2.007440626621246338e-01
-1.852869391441345215e-01 2.883653640747070312e-01 2.737247943878173828e-01
6.440195441246032715e-02 3.982363939285278320e-01 1.445262730121612549e-01
2.025316059589385986e-01 1.228006556630134583e-01 -2.288241088390350342e-01
4.288607835769653320e-02 -4.090208113193511963e-01 1.874841898679733276e-01
2.539786100387573242e-01 -1.122528407722711563e-02 2.349874973297119141e-01
2.061412632465362549e-01 2.228976637125015259e-01 2.354104369878768921e-01
-9.035737812519073486e-02 -3.839880526065826416e-01 2.221801877021789551e-01
2.321925759315490723e-01 -1.411611884832382202e-01 2.680821716785430908e-01
1.184627264738082886e-01 -1.966937184333801270e-01 -3.955980837345123291e-01
1.103896796703338623e-01 3.135587275028228760e-01 -1.894083172082901001e-01
1.839209347963333130e-01 1.793769299983978271e-01 3.786271512508392334e-01
-4.904753714799880981e-02 -1.808372139930725098e-01 -5.041963458061218262e-01
2.532694041728973389e-01 -3.150214999914169312e-02 2.367333024740219116e-01
-2.914602160453796387e-01 9.589446336030960083e-02 -1.263478994369506836e-01
3.809341415762901306e-02 -3.882617950439453125e-01 -2.478949427604675293e-01
1.872732192277908325e-01 -8.972706645727157593e-02 4.282644391059875488e-01
-1.222925037145614624e-01 1.575277149677276611e-01 4.986076951026916504e-01
-1.965328752994537354e-01 -1.457768976688385010e-01 -4.160472154617309570e-01
2.555337548255920410e-01 2.186075970530509949e-02 -6.877835094928741455e-02
2.461465001106262207e-01 -2.544422447681427002e-02 -1.366602778434753418e-01
-1.609571650624275208e-02 4.171364903450012207e-01 -2.824608236551284790e-02
2.450006008148193359e-01 1.364210695028305054e-01 1.601237058639526367e-01
1.092706806957721710e-02 3.032374382019042969e-01 4.378453493118286133e-01
1.429056748747825623e-03 3.055028244853019714e-02 -5.227453112602233887e-01
1.018917709589004517e-01 3.423893451690673828e-01 2.897742390632629395e-01
4.738486185669898987e-02 2.691495418548583984e-01 4.658267796039581299e-01
-1.443888545036315918e-01 -2.401837408542633057e-01 3.873473405838012695e-01
2.453869581222534180e-01 4.524534568190574646e-02 -1.189998537302017212e-01
1.464525759220123291e-01 -2.058193087577819824e-01 -3.449460864067077637e-01
1.601564735174179077e-01 -3.801776468753814697e-02 4.879899621009826660e-01
2.615619301795959473e-01 -6.707165390253067017e-02 -1.035437360405921936e-02
-1.943758428096771240e-01 -1.506585031747817993e-01 3.843329846858978271e-01
-1.343094557523727417e-01 -3.384112715721130371e-01 -3.030008673667907715e-01
1.249953508377075195e-01 -2.666602432727813721e-01 3.836149275302886963e-01
1.379901468753814697e-01 -8.516845107078552246e-02 5.038284659385681152e-01
-2.170168906450271606e-01 6.975400447845458984e-02 3.910099565982818604e-01
2.333175837993621826e-01 1.785238087177276611e-02 -1.861722320318222046e-01
2.378018796443939209e-01 -1.744496077299118042e-01 -7.764896005392074585e-02
-1.296095550060272217e-02 2.885274887084960938e-01 -3.527558743953704834e-01
-2.032345980405807495e-01 1.419333089143037796e-02 -4.313932657241821289e-01
8.127413690090179443e-02 2.725057601928710938e-01 4.388030171394348145e-01
-2.038386613130569458e-01 3.226425349712371826e-01 7.805190980434417725e-02
6.722652912139892578e-02 2.966710329055786133e-01 4.198116362094879150e-01
-2.619340419769287109e-01 1.325722634792327881e-01 2.340483367443084717e-01
1.538883596658706665e-01 1.832468062639236450e-01 -2.925744354724884033e-01
-2.530559301376342773e-01 1.210144534707069397e-01 -2.820306122303009033e-01
1.995638012886047363e-01 -2.694198787212371826e-01 1.878491640090942383e-01
-4.631922394037246704e-02 -3.939374685287475586e-01 -2.627473175525665283e-01
-2.271210029721260071e-02 -3.662628233432769775e-01 3.123105168342590332e-01
-1.620234698057174683e-01 3.472421765327453613e-01 1.936421096324920654e-01
-2.925684675574302673e-03 -2.950981259346008301e-01 4.243555963039398193e-01
-2.722972929477691650e-01 1.919695138931274414e-01 -6.494840234518051147e-02
9.347760677337646484e-02 3.552122116088867188e-01 -1.189081668853759766e-01
-2.579690515995025635e-01 2.274138778448104858e-01 -6.994734704494476318e-02
-3.371949121356010437e-02 -4.375426471233367920e-01 -9.287072718143463135e-02
2.360072359442710876e-02 3.484504520893096924e-01 -2.367319464683532715e-01
-5.060186982154846191e-02 -3.728547990322113037e-01 -3.077341020107269287e-01
-1.472449600696563721e-01 2.206368595361709595e-01 4.282662868499755859e-01
1.997158229351043701e-01 5.199921876192092896e-02 -2.799735963344573975e-01
-1.085942387580871582e-01 8.486597985029220581e-02 -4.994274377822875977e-01
-2.632398307323455811e-01 -1.174337491393089294e-01 -2.774451375007629395e-01
-1.006305366754531860e-01 -4.218649864196777344e-01 -6.242566555738449097e-02
-1.043792068958282471e-01 4.311757534742355347e-02 5.455642938613891602e-01
1.591402739286422729e-01 -2.439404278993606567e-01 3.569807708263397217e-01
-2.988816797733306885e-01 3.785649687051773071e-02 -1.229474097490310669e-01
1.527331471443176270e-01 -1.277908533811569214e-01 -3.766754865646362305e-01
-2.996919751167297363e-01 -3.862860053777694702e-02 -1.241442561149597168e-01
-1.305010616779327393e-01 -2.686837315559387207e-01 -4.044728279113769531e-01
2.358573377132415771e-01 1.203898712992668152e-01 2.591462135314941406e-01
2.614975571632385254e-01 6.206239759922027588e-02 6.887760013341903687e-02
