2.953532636165618896e-01 9.931474924087524414e-04 -6.468283385038375854e-02
1.125544756650924683e-01 -9.276052564382553101e-02 6.451043486595153809e-02
-1.863111406564712524e-01 1.166275665163993835e-01 7.633870840072631836e-02
-2.808975577354431152e-01 1.235001534223556519e-01 -5.685289204120635986e-02
-1.033163368701934814e-01 -1.684916615486145020e-01 -4.733320325613021851e-03
1.637318730354309082e-01 1.903661787509918213e-01 8.504068106412887573e-02
-2.054751068353652954e-01 -1.431087255477905273e-01 -3.064636513590812683e-02
2.474134266376495361e-01 -1.031188145279884338e-01 -6.801685784012079239e-03
-2.963746339082717896e-02 2.672521770000457764e-01 4.344997555017471313e-02
1.504206955432891846e-01 -1.107011511921882629e-01 4.734285920858383179e-02
7.472884654998779297e-02 2.006860375404357910e-01 8.286871761083602905e-02
-1.821493506431579590e-01 1.467470452189445496e-02 8.338212221860885620e-02
-1.799194514751434326e-02 -6.492368131875991821e-02 -8.024071156978607178e-02
-3.043527901172637939e-02 2.735750377178192139e-01 -4.213319718837738037e-02
4.008668661117553711e-01 2.110414206981658936e-01 -4.577508941292762756e-02
1.368918418884277344e-01 3.164090812206268311e-01 -3.173374338075518608e-03
3.870913386344909668e-01 1.201609820127487183e-01 -6.097769364714622498e-02
-3.475980758666992188e-01 3.496253862977027893e-02 4.503674060106277466e-02
1.790064424276351929e-01 -7.989803701639175415e-02 -5.678497627377510071e-02
1.554529368877410889e-01 8.059678971767425537e-02 -9.464512020349502563e-02
-2.286987304687500000e-01 -1.444117724895477295e-01 2.208190783858299255e-02
3.174876049160957336e-02 1.820948123931884766e-01 8.595376461744308472e-02
2.942797839641571045e-01 1.110422313213348389e-01 -8.016777038574218750e-02
-3.293736875057220459e-01 5.615033209323883057e-02 4.994016140699386597e-02
2.803968191146850586e-01 2.784248888492584229e-01 -4.326388984918594360e-02
9.082150459289550781e-02 -1.201779916882514954e-01 5.124196037650108337e-02
3.134799301624298096e-01 2.515705525875091553e-01 -5.235437676310539246e-02
4.052921384572982788e-02 5.337992310523986816e-02 -9.808585047721862793e-02
2.739039659500122070e-01 4.584680497646331787e-02 -7.853968441486358643e-02
-2.709434926509857178e-02 1.625138074159622192e-01 -8.920393139123916626e-02
-3.474737107753753662e-01 -4.590609669685363770e-02 -4.184958711266517639e-02
4.046277329325675964e-02 3.045440912246704102e-01 1.379078999161720276e-02
1.356984674930572510e-01 3.152656555175781250e-01 8.191886357963085175e-03
2.064398676156997681e-01 3.139485716819763184e-01 -1.232500281184911728e-02
2.871186733245849609e-01 3.609139472246170044e-02 -7.463539391756057739e-02
4.888850823044776917e-02 -7.345404475927352905e-02 -7.511855661869049072e-02
-3.451030552387237549e-01 1.033218279480934143e-01 2.990701235830783844e-02
-2.609781920909881592e-01 9.191796928644180298e-02 6.509058922529220581e-02
3.580262064933776855e-01 -3.167305141687393188e-02 3.122382424771785736e-02
-4.000683128833770752e-01 -2.269124239683151245e-02 -1.352305873297154903e-03
2.309975214302539825e-02 2.508643865585327148e-01 6.124388054013252258e-02
-6.804172694683074951e-02 2.843085825443267822e-01 -3.866762388497591019e-03
-1.237497180700302124e-01 1.130084246397018433e-01 -8.890762180089950562e-02
-2.940427064895629883e-01 1.080373823642730713e-01 5.181022360920906067e-02
-1.208661347627639771e-01 1.829876601696014404e-01 -7.458556443452835083e-02
4.284925758838653564e-01 7.957752794027328491e-02 4.739769175648689270e-02
-1.766156256198883057e-01 -9.234266728162765503e-02 -6.489513069391250610e-02
-2.488676607608795166e-01 -1.456707417964935303e-01 -6.925895810127258301e-03
-8.970871567726135254e-02 -1.692465841770172119e-01 1.294177956879138947e-03
-3.124039620161056519e-02 -7.163204997777938843e-02 -7.833439111709594727e-02
-1.602980643510818481e-01 1.855698525905609131e-01 -6.676361709833145142e-02
4.543336480855941772e-02 -6.641522794961929321e-02 -7.769647985696792603e-02
2.996625602245330811e-01 -7.982289046049118042e-02 7.513987366110086441e-03
1.670666635036468506e-01 8.291511237621307373e-02 -9.389372915029525757e-02
2.926791608333587646e-01 2.709635198116302490e-01 4.590009152889251709e-02
-3.116726577281951904e-01 1.501025110483169556e-01 -2.921361662447452545e-02
-2.426464259624481201e-01 -6.660931557416915894e-02 6.268950551748275757e-02
3.538259565830230713e-01 1.276984363794326782e-01 7.222518324851989746e-02
6.942455470561981201e-02 -7.197169214487075806e-02 7.685578614473342896e-02
3.831912577152252197e-01 1.757401674985885620e-01 -5.862957611680030823e-02
4.885467514395713806e-02 -8.378284424543380737e-02 -7.126722484827041626e-02
4.251527041196823120e-02 -9.708078950643539429e-02 -6.605692207813262939e-02
-2.292384803295135498e-01 2.192074060440063477e-01 -8.415508083999156952e-03
1.988637447357177734e-01 2.052412927150726318e-01 -8.033847808837890625e-02
3.450402915477752686e-01 2.862574160099029541e-01 -1.592018269002437592e-02
-1.039968281984329224e-01 8.693061769008636475e-03 9.075760096311569214e-02
3.760986924171447754e-01 2.452620267868041992e-01 -3.984091803431510925e-02
-1.135956943035125732e-01 -9.771741926670074463e-03 -8.912499994039535522e-02
-6.258582323789596558e-02 4.763107746839523315e-02 9.511870890855789185e-02
-3.137758374214172363e-02 -1.572152972221374512e-01 3.064994886517524719e-02
-1.153580993413925171e-01 6.269721686840057373e-02 9.101635962724685669e-02
1.023952364921569824e-01 2.959644198417663574e-01 3.681715205311775208e-02
3.096106946468353271e-01 -4.935888200998306274e-02 4.251015931367874146e-02
-3.493914902210235596e-01 -7.876472920179367065e-02 2.378072217106819153e-02
-4.999244213104248047e-02 -1.666280329227447510e-01 -1.209796033799648285e-02
3.133519887924194336e-01 -6.347461789846420288e-02 2.745468169450759888e-02
-5.966671556234359741e-02 -7.196801155805587769e-02 7.902179658412933350e-02
2.392132282257080078e-01 2.433687746524810791e-01 -6.589999049901962280e-02
3.446966111660003662e-01 2.280136942863464355e-01 5.668231099843978882e-02
4.833227396011352539e-01 1.306545734405517578e-01 1.867260225117206573e-02
-2.226266264915466309e-02 8.563216775655746460e-02 -9.765972942113876343e-02
2.482423186302185059e-01 1.093083620071411133e-02 -7.647008448839187622e-02
3.075940012931823730e-01 3.011955022811889648e-01 7.959451759234070778e-04
1.503248810768127441e-01 2.706823647022247314e-01 5.679952353239059448e-02
-5.737330764532089233e-03 -1.377944946289062500e-01 -4.545557871460914612e-02
-2.621611207723617554e-02 1.194034367799758911e-01 9.360598772764205933e-02
4.455051720142364502e-01 8.204995095729827881e-02 -3.448265045881271362e-02
-8.641260862350463867e-02 1.505080759525299072e-01 -8.684166520833969116e-02
2.909275293350219727e-01 -7.865693420171737671e-02 -1.720111258327960968e-02
-2.948378622531890869e-01 9.127986431121826172e-02 -6.050702184438705444e-02
3.326740562915802002e-01 1.339434832334518433e-01 7.599154114723205566e-02
4.778653383255004883e-02 2.189870774745941162e-01 7.632350921630859375e-02
-2.609044909477233887e-01 1.024417579174041748e-03 6.985181570053100586e-02
-1.352770626544952393e-01 2.412648200988769531e-01 3.650785237550735474e-02
-9.464840590953826904e-02 1.741268634796142578e-01 7.708433270454406738e-02
3.952907323837280273e-01 5.237017571926116943e-02 5.461958050727844238e-02
-1.194578111171722412e-01 2.153642177581787109e-01 -6.215921789407730103e-02
-6.660138815641403198e-02 2.117410302162170410e-03 9.243738651275634766e-02
3.987976312637329102e-01 1.148791909217834473e-01 6.133976951241493225e-02
2.028855681419372559e-02 1.580319553613662720e-01 -9.215052425861358643e-02
-2.222331762313842773e-01 2.203742265701293945e-01 -1.723403297364711761e-02
-1.638901531696319580e-01 1.482478529214859009e-01 7.340019941329956055e-02
-1.371046602725982666e-01 -1.269824206829071045e-01 5.283507704734802246e-02
-1.280514001846313477e-01 1.728835701942443848e-01 7.257974892854690552e-02
-3.827015161514282227e-01 -5.800770968198776245e-02 5.753923207521438599e-03
-9.746614098548889160e-02 2.730221673846244812e-02 -9.353032708168029785e-02
-4.015711247920989990e-01 2.180678769946098328e-02 6.447358522564172745e-03
-6.794073432683944702e-02 2.157774865627288818e-01 -7.034435868263244629e-02
2.800630927085876465e-01 -5.694193392992019653e-02 -4.347859323024749756e-02
7.893658429384231567e-02 -1.282396018505096436e-01 -4.325791820883750916e-02
-7.539760321378707886e-03 2.421604692935943604e-01 -6.590544432401657104e-02
3.167495876550674438e-02 -9.109631925821304321e-02 -6.938229501247406006e-02
-2.892609238624572754e-01 8.065759390592575073e-02 5.937366932630538940e-02
2.651060931384563446e-02 2.635100781917572021e-01 5.448965728282928467e-02
1.672260761260986328e-01 -4.881833493709564209e-02 -7.202055305242538452e-02
-1.272860318422317505e-01 -1.284799277782440186e-01 -5.182089656591415405e-02
-8.637085556983947754e-04 2.167329490184783936e-01 -7.678286731243133545e-02
1.140301749110221863e-01 1.197812035679817200e-01 -9.608875960111618042e-02
-6.734331697225570679e-02 1.472062766551971436e-01 8.636372536420822144e-02
2.973029017448425293e-01 2.908145487308502197e-01 2.882389537990093231e-02
9.021356701850891113e-03 2.062342315912246704e-02 -9.599127620458602905e-02
7.335051894187927246e-02 6.493809074163436890e-02 -9.793714433908462524e-02
2.282940596342086792e-01 1.049766391515731812e-01 -8.872917294502258301e-02
-3.667102009057998657e-02 2.285669147968292236e-01 6.520725786685943604e-02
-2.934476435184478760e-01 1.744676381349563599e-01 1.203486789017915726e-02
-2.340576648712158203e-01 -7.266782969236373901e-02 -6.393320858478546143e-02
-2.690632641315460205e-01 6.996688246726989746e-02 -7.043021917343139648e-02
5.096181482076644897e-02 -9.102498739957809448e-02 7.080160826444625854e-02
-6.625428795814514160e-03 -6.627836078405380249e-02 -7.966094464063644409e-02
3.476530611515045166e-01 1.174038648605346680e-01 -7.046397775411605835e-02
-2.525541484355926514e-01 1.247866451740264893e-01 -6.482236087322235107e-02
9.129373729228973389e-02 -1.295526027679443359e-01 4.375251382589340210e-02
4.593192934989929199e-01 9.367105364799499512e-02 3.375552222132682800e-02
5.492690205574035645e-02 -1.438676714897155762e-01 -3.246190398931503296e-02
3.095373511314392090e-01 2.817704975605010986e-01 -3.462333977222442627e-02
1.117852404713630676e-01 -5.598827451467514038e-02 -7.608793675899505615e-02
-2.872553467750549316e-01 1.345415413379669189e-01 -5.072837695479393005e-02
-1.763299405574798584e-01 1.522175222635269165e-01 -7.432433217763900757e-02
4.304463565349578857e-01 1.643001735210418701e-01 4.870212078094482422e-02
3.830872178077697754e-01 2.432332634925842285e-01 4.015429690480232239e-02
-2.451302409172058105e-01 2.106115818023681641e-01 -2.147502265870571136e-03
1.420525312423706055e-01 -1.206474825739860535e-01 -3.647734597325325012e-02
3.136623799800872803e-01 2.155147790908813477e-01 6.614209711551666260e-02
-2.871077656745910645e-01 1.291981637477874756e-01 4.743192717432975769e-02
-1.721083223819732666e-01 1.900917589664459229e-01 5.753032118082046509e-02
1.663603484630584717e-01 9.972327202558517456e-02 -9.410025924444198608e-02
1.436442732810974121e-01 8.474288135766983032e-02 9.650167822837829590e-02
1.946020275354385376e-01 3.150502741336822510e-01 -1.063880883157253265e-02
-5.258187651634216309e-02 2.615403234958648682e-01 4.314330220222473145e-02
-2.716025114059448242e-01 -6.394308060407638550e-02 5.746338516473770142e-02
-3.969968110322952271e-02 8.397287875413894653e-02 9.570860862731933594e-02
1.153351813554763794e-01 2.779581770300865173e-02 9.506198763847351074e-02
-8.152000606060028076e-02 2.594195306301116943e-01 3.755958750844001770e-02
-2.314590662717819214e-02 -2.287384122610092163e-02 -9.003181010484695435e-02
3.473523259162902832e-01 1.561156213283538818e-01 -6.907949596643447876e-02
-1.705183833837509155e-01 -3.731910139322280884e-02 -8.037091046571731567e-02
2.968253791332244873e-01 2.130575478076934814e-01 -6.829003989696502686e-02
-1.406638026237487793e-01 -1.184275075793266296e-01 5.716407671570777893e-02
-6.481702625751495361e-02 -1.627806127071380615e-01 2.379277721047401428e-02
-3.229787051677703857e-01 9.719346463680267334e-02 -4.908110946416854858e-02
-4.997088760137557983e-02 -1.187034472823143005e-01 -5.929750576615333557e-02
-1.974780857563018799e-01 1.881312578916549683e-01 -5.679434165358543396e-02
1.156099140644073486e-02 1.359751373529434204e-01 -9.496854245662689209e-02
-8.989323675632476807e-02 -1.102909669280052185e-01 6.423994898796081543e-02
3.403843343257904053e-01 2.165602147579193115e-01 -5.979293957352638245e-02
-3.877938538789749146e-02 2.324397563934326172e-01 -6.692297011613845825e-02
3.613725006580352783e-01 6.118360906839370728e-02 6.658522784709930420e-02
4.524357914924621582e-01 1.467038244009017944e-01 -3.698809444904327393e-02
1.044857054948806763e-01 2.011877596378326416e-01 -8.461622893810272217e-02
4.853405058383941650e-01 1.652019917964935303e-01 1.016129832714796066e-02
-1.974473595619201660e-01 2.311123609542846680e-01 1.540100388228893280e-02
-6.015840917825698853e-03 -8.573994785547256470e-02 -7.312240451574325562e-02
1.860901713371276855e-03 1.320326030254364014e-01 -9.513012319803237915e-02
-7.816973328590393066e-02 1.358199268579483032e-01 -9.008316695690155029e-02
2.321997433900833130e-01 -9.094444662332534790e-02 -3.490817919373512268e-02
-1.924680918455123901e-01 -1.236119195818901062e-01 -4.816009476780891418e-02
-3.398727476596832275e-01 -9.941607713699340820e-04 4.833824560046195984e-02
-1.989291906356811523e-01 -1.176021918654441833e-01 -5.071311444044113159e-02
4.723640680313110352e-01 1.865127682685852051e-01 -1.550982240587472916e-02
2.874803543090820312e-01 1.635406613349914551e-01 8.010091632604598999e-02
-3.359953165054321289e-01 -2.716363221406936646e-02 -5.042114108800888062e-02
-9.706136584281921387e-02 -2.903236448764801025e-02 -8.708905428647994995e-02
2.579573094844818115e-01 2.055421769618988037e-01 -7.508669048547744751e-02
1.442782580852508545e-01 -1.356510221958160400e-01 -1.488208118826150894e-02
3.412188887596130371e-01 4.322561994194984436e-02 -6.419781595468521118e-02
2.646136283874511719e-01 3.087047040462493896e-01 7.295797578990459442e-03
1.123499125242233276e-03 -1.422858238220214844e-02 9.224166721105575562e-02
1.031439527869224548e-01 2.599133849143981934e-01 -6.414805352687835693e-02
4.494916200637817383e-01 3.648462891578674316e-02 5.128821823745965958e-03
2.544057369232177734e-01 2.610552310943603516e-01 -5.683565139770507812e-02
-2.236256003379821777e-01 -1.386113166809082031e-01 -3.071475028991699219e-02
-2.956490516662597656e-01 6.840147078037261963e-02 5.936640128493309021e-02
-1.752313524484634399e-01 1.368562281131744385e-01 7.414583861827850342e-02
2.252329438924789429e-01 2.729853987693786621e-02 8.603152632713317871e-02
1.355334818363189697e-01 7.335691899061203003e-02 -9.566120803356170654e-02
-1.943330317735671997e-01 3.410650789737701416e-02 8.220840245485305786e-02
-1.460662856698036194e-02 2.559076547622680664e-01 5.391850695013999939e-02
1.322232782840728760e-01 2.571084499359130859e-01 -6.568379700183868408e-02
5.186849832534790039e-02 -9.862139075994491577e-02 6.743029505014419556e-02
-1.583597362041473389e-01 2.145793735980987549e-01 4.851632937788963318e-02
1.050005108118057251e-01 -1.409728825092315674e-02 -8.756508678197860718e-02
1.504584550857543945e-01 -3.247468918561935425e-02 8.218859136104583740e-02
-1.227584481239318848e-01 -3.265321254730224609e-02 -8.503183722496032715e-02
4.003875851631164551e-01 2.563507854938507080e-01 -2.141437307000160217e-02
3.299227058887481689e-01 3.798670694231987000e-02 7.014755904674530029e-02
-1.476758718490600586e-01 2.323600053787231445e-01 3.963494300842285156e-02
-3.287957310676574707e-01 -1.087328866124153137e-01 -1.076671108603477478e-02
7.052323967218399048e-02 -3.707949072122573853e-02 8.666063845157623291e-02
-1.993662118911743164e-02 1.299978792667388916e-01 -9.453058987855911255e-02
-2.581661343574523926e-01 -8.477300405502319336e-03 -7.243437319993972778e-02
-2.854310870170593262e-01 -1.240530982613563538e-01 2.183322235941886902e-02
4.184742271900177002e-01 1.930833458900451660e-01 4.747097939252853394e-02
8.134971559047698975e-02 3.810974955558776855e-02 -9.613618254661560059e-02
3.090507090091705322e-01 -1.119253039360046387e-02 6.187693774700164795e-02
3.334955573081970215e-01 2.689335346221923828e-01 -3.821488469839096069e-02
-3.041753768920898438e-01 8.037343621253967285e-02 5.481637641787528992e-02
3.220490813255310059e-01 2.554851472377777100e-01 4.938351735472679138e-02
2.890226617455482483e-02 8.689676225185394287e-02 9.803017228841781616e-02
3.442382812500000000e-02 4.671981930732727051e-02 -9.781667590141296387e-02
2.667745947837829590e-01 -1.236606389284133911e-02 7.113239914178848267e-02
3.930132463574409485e-02 -1.556099951267242432e-01 -1.893584616482257843e-02
2.318220436573028564e-01 3.561472892761230469e-02 -8.338259160518646240e-02
6.867498159408569336e-02 6.492727249860763550e-02 9.841560572385787964e-02
9.020214527845382690e-02 -9.533770382404327393e-03 -8.938871324062347412e-02
-8.031316101551055908e-03 2.293649315834045410e-01 6.816500425338745117e-02
-2.771019637584686279e-01 1.007507592439651489e-01 -6.377692520618438721e-02
-1.437513828277587891e-01 -1.558747589588165283e-01 2.831158414483070374e-02
2.718209028244018555e-01 2.956962883472442627e-01 -2.996786497533321381e-02
6.306079030036926270e-02 8.035440742969512939e-02 9.844943881034851074e-02
1.033129692077636719e-01 1.967415511608123779e-01 8.434595912694931030e-02
-1.903889924287796021e-01 1.865951865911483765e-01 5.439583584666252136e-02
3.578138947486877441e-01 2.743936181068420410e-01 2.610074169933795929e-02
-1.617589592933654785e-01 2.315879464149475098e-01 3.509790450334548950e-02
-3.873903155326843262e-01 7.287823408842086792e-02 -8.339119143784046173e-03
1.015526503324508667e-01 -1.280838549137115479e-01 4.313140362501144409e-02
1.145854741334915161e-01 4.885519295930862427e-02 -9.549415856599807739e-02
-2.667663097381591797e-01 -1.200285330414772034e-01 -3.443294018507003784e-02
2.400708794593811035e-01 2.842347323894500732e-01 4.402857273817062378e-02
2.381027191877365112e-01 -8.356762677431106567e-02 -3.905824944376945496e-02
2.909536361694335938e-01 -8.235522359609603882e-02 -9.398362599313259125e-03
-1.697823852300643921e-01 1.552583277225494385e-01 7.044322788715362549e-02
-3.334540426731109619e-01 3.141120076179504395e-02 5.072638019919395447e-02
3.641471639275550842e-02 2.025222182273864746e-01 8.088219165802001953e-02
-1.799343153834342957e-02 9.833142161369323730e-02 9.594575315713882446e-02
2.448656260967254639e-01 -9.725786000490188599e-02 -2.165422774851322174e-02
-1.598729938268661499e-01 -1.458422541618347168e-01 -3.600654751062393188e-02
-2.474386990070343018e-01 -3.498025983572006226e-02 6.848404556512832642e-02
4.852090030908584595e-03 -6.696914881467819214e-02 -7.918102294206619263e-02
-2.628409564495086670e-01 1.689981967210769653e-01 3.833007439970970154e-02
3.706564307212829590e-01 2.175726294517517090e-01 -5.256706476211547852e-02
-3.402639031410217285e-01 1.255331784486770630e-01 1.967416144907474518e-02
4.857558384537696838e-02 3.056849837303161621e-01 1.391810178756713867e-02
-8.422194421291351318e-02 5.641562491655349731e-02 9.372439980506896973e-02
-1.217847913503646851e-01 9.310296922922134399e-02 -9.107344597578048706e-02
-6.734316051006317139e-02 4.976837337017059326e-02 -9.603461623191833496e-02
-6.780003756284713745e-02 2.277336120605468750e-01 6.109075248241424561e-02
1.421842873096466064e-01 2.049938738346099854e-01 -8.305664360523223877e-02
3.352390527725219727e-01 -2.251058816909790039e-02 -4.340632259845733643e-02
-1.512143760919570923e-01 -1.591902971267700195e-01 -2.113338559865951538e-02
3.219658434391021729e-01 6.038592010736465454e-02 -7.158786803483963013e-02
-1.372873336076736450e-01 2.615387737751007080e-01 8.181054727174341679e-05
4.143680036067962646e-01 1.641876101493835449e-01 5.427875742316246033e-02
-2.127604484558105469e-01 -4.969359189271926880e-02 7.155468314886093140e-02
6.490518152713775635e-02 1.181767135858535767e-02 9.510843455791473389e-02
-7.138536870479583740e-02 -1.465713083744049072e-01 4.260840266942977905e-02
4.016468301415443420e-02 2.901385724544525146e-01 3.540812060236930847e-02
-3.861416280269622803e-01 5.270988866686820984e-02 1.866614818572998047e-02
-2.866040766239166260e-01 -2.005822211503982544e-02 6.232601404190063477e-02
-3.082670867443084717e-01 -1.194042041897773743e-01 -1.353990379720926285e-02
1.252997070550918579e-01 2.873723581433296204e-02 -9.296330064535140991e-02
-3.899445831775665283e-01 -3.569078445434570312e-02 -1.726779155433177948e-02
-1.179111152887344360e-01 -1.141717806458473206e-01 -6.014913320541381836e-02
-1.672195941209793091e-01 2.147752344608306885e-01 -5.094276368618011475e-02
3.463083803653717041e-01 2.891385853290557861e-01 7.969556376338005066e-03
9.188109636306762695e-02 4.936337471008300781e-02 9.750026464462280273e-02
1.211552470922470093e-01 1.651522219181060791e-01 -9.129002690315246582e-02
1.643867492675781250e-01 3.055484890937805176e-01 2.856796979904174805e-02
1.629363298416137695e-01 3.168286979198455811e-01 -3.575082868337631226e-03
-1.218988299369812012e-01 -6.278044730424880981e-02 -7.847543805837631226e-02
3.067784905433654785e-01 2.717018425464630127e-01 4.286561161279678345e-02
4.778169095516204834e-04 -2.908560633659362793e-02 -8.876498043537139893e-02
2.925897240638732910e-01 2.609676122665405273e-02 7.557740807533264160e-02
1.225419864058494568e-01 1.039104908704757690e-01 -9.642879664897918701e-02
-3.535934984683990479e-01 2.620283886790275574e-02 4.303071647882461548e-02
3.181297183036804199e-01 1.041948124766349792e-01 -7.600222527980804443e-02
-2.860321998596191406e-01 6.643086671829223633e-03 6.458972394466400146e-02
-2.826363742351531982e-01 6.291719526052474976e-02 -6.785292923450469971e-02
-2.326378524303436279e-01 1.819307506084442139e-01 -4.872930794954299927e-02
-2.128926515579223633e-01 -9.148988872766494751e-02 -6.073087453842163086e-02
-2.620665431022644043e-01 1.551421433687210083e-01 4.602685943245887756e-02
3.561139702796936035e-01 1.921458542346954346e-01 -6.227645650506019592e-02
-7.723762840032577515e-02 -1.512422263622283936e-01 3.824381902813911438e-02
-4.116111248731613159e-02 4.535873979330062866e-02 9.617028385400772095e-02
-1.836683452129364014e-01 2.424110174179077148e-01 -3.096485743299126625e-03
4.494711756706237793e-04 1.729060411453247070e-01 -8.865299820899963379e-02
1.057424396276473999e-01 2.158778905868530273e-01 7.913634181022644043e-02
-3.233644664287567139e-01 1.450588405132293701e-01 -2.369545958936214447e-02
-5.969776213169097900e-02 -1.154490187764167786e-01 6.264646351337432861e-02
4.649849236011505127e-01 6.126806139945983887e-02 -5.176665261387825012e-03
-2.268741130828857422e-01 -1.478638350963592529e-01 -1.738029904663562775e-02
1.045836657285690308e-01 1.437722891569137573e-01 -9.438779205083847046e-02
3.203739821910858154e-01 6.837815046310424805e-03 -6.023096293210983276e-02
9.928360581398010254e-03 -2.489954233169555664e-03 9.390672296285629272e-02
-3.154374361038208008e-01 -7.026761025190353394e-02 -4.583910480141639709e-02
-2.750423550605773926e-02 -1.446789503097534180e-01 -4.110565036535263062e-02
-1.525495499372482300e-01 -2.902651578187942505e-02 -8.346135914325714111e-02
-9.983783960342407227e-02 -1.270106434822082520e-01 -5.404074490070343018e-02
-2.481276094913482666e-01 -1.276564896106719971e-01 3.328929468989372253e-02
-2.555683255195617676e-01 1.138104945421218872e-01 6.199155002832412720e-02
-7.471127063035964966e-02 5.289199575781822205e-02 9.440109133720397949e-02
3.860272467136383057e-01 3.761151805520057678e-02 -4.905803129076957703e-02
2.787823677062988281e-01 2.517934516072273254e-02 -7.411362230777740479e-02
3.445688486099243164e-01 -2.102817595005035400e-02 -4.039709642529487610e-02
2.918830141425132751e-02 2.408995330333709717e-01 -6.958813220262527466e-02
2.419534176588058472e-01 -7.389574497938156128e-02 -4.486748576164245605e-02
4.332642853260040283e-01 8.896669000387191772e-02 4.693774506449699402e-02
3.258124887943267822e-01 2.683368921279907227e-01 -4.060099646449089050e-02
4.412631690502166748e-01 1.894201338291168213e-01 3.919475898146629333e-02
-7.161284983158111572e-02 -1.321726739406585693e-01 5.315604805946350098e-02
3.162162005901336670e-01 2.518296241760253906e-01 5.229295417666435242e-02
2.606866508722305298e-02 -7.349168509244918823e-02 -7.630948722362518311e-02
1.683770120143890381e-01 4.418496042490005493e-02 -9.137866646051406860e-02
2.852048277854919434e-01 2.948426008224487305e-01 -2.776801027357578278e-02
-9.142968058586120605e-02 1.890345811843872070e-01 7.301174104213714600e-02
4.004418849945068359e-01 -1.258727908134460449e-02 1.184946484863758087e-02
-1.652697026729583740e-01 -1.387197077274322510e-01 -4.139643907546997070e-02
-4.272020608186721802e-02 -1.120116338133811951e-01 -6.264977157115936279e-02
3.193888664245605469e-01 -5.065868794918060303e-02 -3.140195459127426147e-02
-1.857961863279342651e-01 9.941290318965911865e-02 -8.270808309316635132e-02
8.364253491163253784e-02 4.770538210868835449e-02 9.761890769004821777e-02
9.987686574459075928e-02 -5.511537939310073853e-02 8.019568026065826416e-02
5.848179385066032410e-02 3.092055618762969971e-01 -1.024808455258607864e-02
-3.274163603782653809e-01 -5.221114307641983032e-02 4.476416856050491333e-02
4.049324095249176025e-01 2.322686910629272461e-01 3.801145777106285095e-02
-1.569021642208099365e-01 -1.383355259895324707e-01 -4.265926778316497803e-02
7.871054112911224365e-02 1.549247950315475464e-01 9.240175038576126099e-02
5.880869179964065552e-02 -1.209164783358573914e-01 -5.146693438291549683e-02
1.606858372688293457e-01 9.064707159996032715e-02 -9.447183459997177124e-02
-9.703026711940765381e-02 -1.608905941247940063e-02 -8.917342126369476318e-02
-7.356971502304077148e-02 2.238743007183074951e-02 -9.444682300090789795e-02
-6.110172718763351440e-02 1.347177028656005859e-01 8.908165991306304932e-02
-1.561902463436126709e-01 1.041070744395256042e-01 -8.622378855943679810e-02
-2.290412187576293945e-01 2.920396625995635986e-03 -7.839675247669219971e-02
4.378860890865325928e-01 1.179265081882476807e-01 -4.351527616381645203e-02
1.498312056064605713e-01 1.084337458014488220e-01 9.570329636335372925e-02
-1.004058718681335449e-01 1.349009275436401367e-01 8.521283417940139771e-02
1.171971485018730164e-01 1.111255586147308350e-01 -9.640093147754669189e-02
-2.855266034603118896e-01 -1.106475070118904114e-01 -3.507497534155845642e-02
-2.151423096656799316e-01 2.184979319572448730e-01 -2.687417156994342804e-02
-3.425205051898956299e-01 -7.121888548135757446e-02 3.184606507420539856e-02
2.199914455413818359e-01 -8.112046867609024048e-02 5.122990906238555908e-02
7.400044798851013184e-02 1.943172812461853027e-01 -8.616312593221664429e-02
-8.952838182449340820e-02 -1.720728725194931030e-02 8.898364752531051636e-02
1.809040606021881104e-01 8.895980566740036011e-02 -9.296787530183792114e-02
-1.332819908857345581e-01 1.027569174766540527e-03 -8.901852369308471680e-02
2.938177585601806641e-01 1.816395074129104614e-01 7.656104117631912231e-02
2.747737243771553040e-02 1.231132820248603821e-02 -9.493661671876907349e-02
8.869449794292449951e-02 3.116171061992645264e-02 -9.520454704761505127e-02
2.114447951316833496e-01 1.194553226232528687e-01 9.150786697864532471e-02
5.284680426120758057e-02 2.989114522933959961e-01 -3.086758777499198914e-02
-2.604931890964508057e-01 -1.081010177731513977e-01 4.295256361365318298e-02
1.296608448028564453e-01 2.808421850204467773e-01 5.033858492970466614e-02
4.105694591999053955e-01 1.146630197763442993e-02 3.008976951241493225e-02
1.657466590404510498e-01 2.401028573513031006e-02 -8.918363600969314575e-02
4.983082041144371033e-02 -1.580549776554107666e-01 -8.187688887119293213e-03
4.579856693744659424e-01 4.862522333860397339e-02 -1.442332053557038307e-03
8.750496804714202881e-02 -1.463620066642761230e-01 2.458195015788078308e-02
2.484956979751586914e-01 1.215100437402725220e-01 -8.626472204923629761e-02
2.594466209411621094e-01 2.544148266315460205e-02 8.108016848564147949e-02
-1.644281446933746338e-01 1.715132445096969604e-01 -7.088524103164672852e-02
-2.177851498126983643e-01 3.800786286592483521e-02 -8.153795450925827026e-02
4.078220129013061523e-01 1.655334830284118652e-01 -5.293805524706840515e-02
-7.398536056280136108e-02 2.440960705280303955e-01 5.091815814375877380e-02
-2.293542772531509399e-02 2.950233817100524902e-01 5.224055144935846329e-03
-1.846371144056320190e-01 1.461450159549713135e-01 -7.436890900135040283e-02
-1.098216772079467773e-01 1.328906714916229248e-01 -8.757906407117843628e-02
1.554947197437286377e-01 9.698530286550521851e-02 9.580902755260467529e-02
6.495257467031478882e-02 -3.604307770729064941e-03 9.310099482536315918e-02
7.521142065525054932e-02 2.592477202415466309e-01 -6.359498947858810425e-02
9.268756210803985596e-02 2.905170917510986328e-01 4.115988314151763916e-02
6.950788199901580811e-02 -8.654455095529556274e-02 -6.855492293834686279e-02
6.234192103147506714e-02 1.647496521472930908e-01 -9.186746925115585327e-02
-2.854632735252380371e-01 -6.211370974779129028e-02 -5.686555057764053345e-02
-1.621331721544265747e-01 -1.431577205657958984e-01 3.885224461555480957e-02
-2.391293346881866455e-01 4.723941907286643982e-02 7.451347261667251587e-02
-1.991767436265945435e-01 5.631978437304496765e-02 -8.401349931955337524e-02
2.034067809581756592e-01 -3.785612434148788452e-02 7.414695620536804199e-02
-2.933115661144256592e-01 -1.078455075621604919e-01 -3.420810401439666748e-02
4.200076460838317871e-01 9.982660412788391113e-02 -4.918289929628372192e-02
-9.420023858547210693e-02 2.369208931922912598e-01 5.109852924942970276e-02
4.425980746746063232e-01 2.253151834011077881e-01 2.159971371293067932e-02
1.794911324977874756e-01 3.396553173661231995e-02 9.153744578361511230e-02
4.806706309318542480e-02 5.107256397604942322e-02 9.819872677326202393e-02
2.989244163036346436e-01 -5.612590163946151733e-02 4.208994284272193909e-02
2.153818011283874512e-01 1.128375083208084106e-01 9.147153049707412720e-02
-3.231432437896728516e-01 8.222709596157073975e-02 4.764099791646003723e-02
-1.760561466217041016e-01 4.757730662822723389e-02 -8.717112243175506592e-02
4.657395780086517334e-01 1.880130469799041748e-01 2.484247833490371704e-02
-2.887785732746124268e-01 -5.539206415414810181e-02 -5.790748447179794312e-02
4.432581365108489990e-01 2.339235246181488037e-01 1.085533387959003448e-02
3.998787701129913330e-01 2.322664856910705566e-01 -3.794126957654953003e-02
4.070585668087005615e-01 8.167807012796401978e-02 -5.151112750172615051e-02
-6.988066434860229492e-02 1.310876607894897461e-01 -9.142123907804489136e-02
2.293176352977752686e-01 5.284249410033226013e-02 -8.587315678596496582e-02
-1.841219663619995117e-01 -6.411103159189224243e-02 7.215724885463714600e-02
2.630740404129028320e-01 -2.075623720884323120e-02 6.925257295370101929e-02
3.052868321537971497e-02 7.212214171886444092e-03 9.505990147590637207e-02
1.114870682358741760e-01 3.205068409442901611e-03 9.223013371229171753e-02
7.620510458946228027e-02 1.756396889686584473e-02 9.545813500881195068e-02
2.630911469459533691e-01 -2.382852137088775635e-03 7.458371669054031372e-02
2.021902650594711304e-01 2.995680570602416992e-01 -3.572923317551612854e-02
3.417659699916839600e-01 3.952751681208610535e-02 6.764437258243560791e-02
2.184802852571010590e-02 7.514659315347671509e-02 9.820788353681564331e-02
4.453654587268829346e-01 3.742917254567146301e-02 1.771868765354156494e-02
6.306082010269165039e-03 8.728925138711929321e-02 9.748245030641555786e-02
1.742383390665054321e-01 2.904821634292602539e-01 -4.528855904936790466e-02
-1.647607982158660889e-01 1.698388159275054932e-02 8.560243993997573853e-02
-1.811996251344680786e-01 3.942748531699180603e-02 8.401854336261749268e-02
1.277348399162292480e-01 -1.176809594035148621e-01 4.670286551117897034e-02
4.364193677902221680e-01 2.483537048101425171e-02 -9.814522229135036469e-03
2.901906073093414307e-01 2.339135408401489258e-01 -6.311718374490737915e-02
-2.401227056980133057e-01 2.440435066819190979e-02 -7.773395627737045288e-02
-7.100873440504074097e-02 -1.231806203722953796e-01 5.844818800687789917e-02
1.399539858102798462e-01 8.618357777595520020e-02 -9.570238739252090454e-02
-1.437839716672897339e-01 2.082628905773162842e-01 -6.050201505422592163e-02
2.730089426040649414e-01 7.423012703657150269e-02 8.474294096231460571e-02
2.100741267204284668e-01 6.744975596666336060e-02 -8.935741335153579712e-02
-1.118263304233551025e-01 1.884335875511169434e-01 7.015103101730346680e-02
2.324376255273818970e-02 -7.374968379735946655e-02 7.837356626987457275e-02
3.733621239662170410e-01 1.988789439201354980e-01 5.904467031359672546e-02
-6.031321734189987183e-02 1.383232474327087402e-01 -9.109351783990859985e-02
-7.277512550354003906e-02 7.226368784904479980e-02 9.416187554597854614e-02
-1.490852087736129761e-01 8.301777392625808716e-02 -8.899504691362380981e-02
3.515158295631408691e-01 7.613607496023178101e-02 7.087901234626770020e-02
9.538126736879348755e-02 -1.352915465831756592e-01 -3.337141871452331543e-02
3.546442985534667969e-01 5.078182369470596313e-02 -6.220751628279685974e-02
-3.524383604526519775e-01 1.037006676197052002e-01 -3.027211874723434448e-02
2.179304882884025574e-02 -8.775230497121810913e-02 -7.127714902162551880e-02
-2.774744331836700439e-01 5.166817083954811096e-02 -6.992140412330627441e-02
2.440427243709564209e-01 2.602493762969970703e-01 -5.836467072367668152e-02
2.690437138080596924e-01 3.022503256797790527e-01 -2.199509367346763611e-02
3.975624963641166687e-02 -5.066720396280288696e-02 8.451700210571289062e-02
-2.628696262836456299e-01 -1.080104708671569824e-02 6.853938102722167969e-02
-2.214806973934173584e-01 1.226677596569061279e-01 -7.258671522140502930e-02
-2.290316522121429443e-01 4.192724823951721191e-03 7.593501359224319458e-02
1.473525464534759521e-01 2.955925464630126953e-01 3.914267197251319885e-02
2.148143500089645386e-01 1.773809194564819336e-01 8.498493582010269165e-02
-1.715395897626876831e-01 -1.497201323509216309e-01 -3.034148737788200378e-02
6.288626790046691895e-02 2.772174477577209473e-01 -5.227366462349891663e-02
9.855342656373977661e-02 -2.730183303356170654e-02 8.741280436515808105e-02
-3.715430796146392822e-01 8.591097593307495117e-02 -2.347792312502861023e-02
1.804490834474563599e-01 3.003289401531219482e-01 -3.627724945545196533e-02
-2.195329070091247559e-01 -1.418497860431671143e-01 2.834692969918251038e-02
2.911312580108642578e-01 1.644553840160369873e-01 -7.784444838762283325e-02
7.823422551155090332e-02 2.084015905857086182e-01 8.081950247287750244e-02
1.897864490747451782e-01 3.151251971721649170e-01 9.024281986057758331e-03
-1.195409595966339111e-01 1.985375285148620605e-01 -6.937007606029510498e-02
3.879716694355010986e-01 2.305304631590843201e-02 4.843608662486076355e-02
3.412516415119171143e-02 -2.008242905139923096e-02 -8.983958512544631958e-02
1.445479393005371094e-01 1.669031381607055664e-01 -9.027911722660064697e-02
8.033435046672821045e-02 1.284755468368530273e-01 9.572807699441909790e-02
6.596735864877700806e-02 -8.309822529554367065e-02 7.301931828260421753e-02
5.646996572613716125e-02 -1.017757877707481384e-01 -6.269464641809463501e-02
1.574136018753051758e-01 -1.305186748504638672e-01 2.262579649686813354e-02
-2.433091998100280762e-01 7.950627058744430542e-02 -7.498735934495925903e-02
3.710970282554626465e-01 2.556376755237579346e-01 -3.547712042927742004e-02
2.057952433824539185e-01 1.405547708272933960e-01 9.043133258819580078e-02
2.074674367904663086e-01 4.790211468935012817e-02 9.039124846458435059e-02
-3.421454131603240967e-02 -1.096640303730964661e-01 -6.366278231143951416e-02
6.071776151657104492e-03 2.725291252136230469e-01 -4.948446154594421387e-02
-6.822519749402999878e-02 5.791990458965301514e-02 9.479325264692306519e-02
-6.489375233650207520e-02 -8.492231369018554688e-03 9.135683625936508179e-02
-7.886156439781188965e-02 -1.266824305057525635e-01 -5.474935099482536316e-02
-3.339219093322753906e-02 -1.973329484462738037e-02 9.090572595596313477e-02
3.721033632755279541e-01 2.725920677185058594e-01 -2.011503465473651886e-02
1.318851709365844727e-01 8.137053996324539185e-02 9.700169414281845093e-02
3.094753324985504150e-01 2.223868072032928467e-01 -6.376995146274566650e-02
-8.737106621265411377e-02 -5.453225225210189819e-02 -8.217196911573410034e-02
-7.570303976535797119e-02 1.192362755537033081e-01 9.005171060562133789e-02
1.514391005039215088e-01 3.014567196369171143e-01 3.334528952836990356e-02
-3.383790850639343262e-01 1.184010431170463562e-01 -3.221927955746650696e-02
1.075016707181930542e-01 -7.530035823583602905e-02 -6.949903815984725952e-02
4.107104837894439697e-01 2.534464001655578613e-02 -3.291808068752288818e-02
-2.820211648941040039e-01 6.997048854827880859e-02 6.296303123235702515e-02
-6.707800924777984619e-02 1.956471949815750122e-01 -7.760916650295257568e-02
-1.527336239814758301e-01 2.427330911159515381e-01 2.782029286026954651e-02
-8.052989095449447632e-02 -4.700921475887298584e-03 9.101055562496185303e-02
-2.626220583915710449e-01 8.073636144399642944e-02 6.644501537084579468e-02
4.580576717853546143e-01 9.265333414077758789e-02 -2.932969294488430023e-02
1.184689626097679138e-01 -1.604805886745452881e-02 -8.616517484188079834e-02
2.118154466152191162e-01 2.587065696716308594e-01 6.101364642381668091e-02
2.551325261592864990e-01 3.487645089626312256e-02 8.319901674985885620e-02
8.581802248954772949e-02 2.792679965496063232e-01 4.946152865886688232e-02
5.055055394768714905e-02 -1.489000320434570312e-01 3.066599927842617035e-02
4.450471401214599609e-01 1.407465636730194092e-01 4.485628381371498108e-02
-3.358296155929565430e-01 -5.372520536184310913e-02 -4.422197118401527405e-02
-2.993087172508239746e-01 1.674736440181732178e-01 1.576569676399230957e-02
-1.270624995231628418e-02 2.567809820175170898e-01 -5.748670920729637146e-02
-1.953069567680358887e-01 8.987200260162353516e-02 7.882723212242126465e-02
4.616869390010833740e-01 1.182283535599708557e-01 -3.126491233706474304e-02
3.056974112987518311e-01 1.685446128249168396e-02 -6.667856872081756592e-02
-2.375929653644561768e-01 3.398793190717697144e-02 7.515789568424224854e-02
-3.850648999214172363e-01 -5.154471844434738159e-02 9.009496308863162994e-03
-1.712690144777297974e-01 1.125617623329162598e-01 7.952264696359634399e-02
1.164836660027503967e-01 1.781884878873825073e-01 -8.927411586046218872e-02
4.439587295055389404e-01 1.360624134540557861e-01 -4.133944585919380188e-02
-3.180639147758483887e-01 7.468414306640625000e-02 -5.598959326744079590e-02
3.190817683935165405e-02 -1.537928283214569092e-01 2.737551368772983551e-02
-3.625643253326416016e-01 -4.275567829608917236e-02 3.207145258784294128e-02
-3.216289877891540527e-01 3.321290016174316406e-03 5.471755564212799072e-02
-7.057528197765350342e-02 2.403116822242736816e-01 -5.822052061557769775e-02
-4.194676876068115234e-04 6.420103460550308228e-02 -9.833640605211257935e-02
2.205882221460342407e-01 2.982989251613616943e-01 3.387603163719177246e-02
-3.472770750522613525e-01 1.291272491216659546e-01 -1.144711207598447800e-02
7.461281120777130127e-02 -3.398687392473220825e-02 -8.512166887521743774e-02
1.904368251562118530e-01 1.041053608059883118e-01 -9.227190166711807251e-02
2.010279297828674316e-01 6.710842251777648926e-02 9.233326464891433716e-02
-3.688969612121582031e-01 1.036623865365982056e-01 2.323628403246402740e-03
-3.487749993801116943e-01 -9.651898592710494995e-02 -1.641604583710432053e-03
3.854742944240570068e-01 1.724580526351928711e-01 6.127685680985450745e-02
7.220184057950973511e-02 2.367772459983825684e-01 -7.335469126701354980e-02
-4.701576381921768188e-02 2.038977444171905518e-01 -7.708270847797393799e-02
-3.246496319770812988e-01 1.133029907941818237e-02 -5.795520171523094177e-02
-2.442698180675506592e-01 -1.020766869187355042e-01 4.983498156070709229e-02
7.562324404716491699e-03 4.291188344359397888e-02 -9.767755120992660522e-02
-2.651619911193847656e-01 1.801369935274124146e-01 -3.509736061096191406e-02
3.268691599369049072e-01 2.753252685070037842e-01 3.564038872718811035e-02
-3.096674978733062744e-01 4.580187052488327026e-02 -6.191870197653770447e-02
-1.413857787847518921e-01 -1.209332123398780823e-01 -5.517492443323135376e-02
-2.511541843414306641e-01 -9.551993757486343384e-02 -5.247209593653678894e-02
3.191483020782470703e-01 1.633600443601608276e-01 -7.361135631799697876e-02
3.327183723449707031e-01 1.281960755586624146e-01 -7.342071831226348877e-02
-2.272085100412368774e-02 7.428284734487533569e-02 9.689044952392578125e-02
3.011659085750579834e-01 9.776759892702102661e-02 -7.874689251184463501e-02
2.639894485473632812e-01 2.101988196372985840e-01 7.388049364089965820e-02
-2.589838206768035889e-02 2.430953383445739746e-01 5.959101021289825439e-02
-1.064558699727058411e-02 -1.650142967700958252e-01 -9.501702152192592621e-03
3.749076277017593384e-03 2.736790180206298828e-01 4.437666758894920349e-02
2.126449346542358398e-01 -1.164883598685264587e-01 -7.653479464352130890e-03
8.724562823772430420e-02 2.040850743651390076e-02 9.542571753263473511e-02
9.159170836210250854e-02 3.100549876689910889e-01 -1.881974004209041595e-02
-3.201582729816436768e-01 -5.318839102983474731e-02 -4.982402175664901733e-02
-1.960746645927429199e-01 8.173238486051559448e-02 -8.299596607685089111e-02
7.510188221931457520e-02 -2.414447069168090820e-02 -8.732444047927856445e-02
-1.323402225971221924e-01 -4.969900846481323242e-02 -8.098510652780532837e-02
-1.800987124443054199e-01 -1.310931444168090820e-01 4.534408077597618103e-02
-3.128014802932739258e-01 1.295153945684432983e-01 3.590225055813789368e-02
4.040506854653358459e-02 9.418725222349166870e-02 9.791126847267150879e-02
2.198418080806732178e-01 2.259003520011901855e-01 7.312544435262680054e-02
1.631869971752166748e-01 3.360705822706222534e-02 9.278485178947448730e-02
4.539685547351837158e-01 5.185463279485702515e-02 1.996803097426891327e-02
-2.764481902122497559e-01 8.637830615043640137e-04 6.652066856622695923e-02
1.287533044815063477e-01 3.152405619621276855e-01 -9.963579475879669189e-03
-1.699073314666748047e-01 1.840345561504364014e-01 -6.533998250961303711e-02
2.480598539113998413e-01 3.092300593852996826e-01 1.320727169513702393e-02
2.316796779632568359e-01 1.682052612304687500e-01 -8.436210453510284424e-02
4.688944518566131592e-01 1.996797025203704834e-01 1.481580641120672226e-02
-2.726438343524932861e-01 -2.420665323734283447e-02 -6.766785681247711182e-02
-3.979205787181854248e-01 4.540210217237472534e-02 3.288424573838710785e-03
1.806244254112243652e-01 -9.139416366815567017e-02 -4.975146055221557617e-02
5.980561673641204834e-02 -6.844355911016464233e-02 -7.615876197814941406e-02
2.346246987581253052e-01 1.806787848472595215e-01 8.292921632528305054e-02
3.829395398497581482e-02 2.124965935945510864e-02 9.642712026834487915e-02
-1.500108242034912109e-01 2.971197292208671570e-02 8.768435567617416382e-02
-3.729618340730667114e-02 -4.147022962570190430e-02 8.695991337299346924e-02
-1.564542353153228760e-01 -1.559067368507385254e-01 2.621514536440372467e-02
-2.706506550312042236e-01 -1.380880177021026611e-01 7.266176398843526840e-03
2.158886380493640900e-02 1.967215538024902344e-02 -9.582002460956573486e-02
4.769619703292846680e-01 8.350239694118499756e-02 8.292027749121189117e-03
-1.444901823997497559e-01 2.468054890632629395e-01 -3.243771195411682129e-02
-3.156386315822601318e-01 -4.344541579484939575e-02 -5.366190895438194275e-02
-1.921647340059280396e-01 1.457972973585128784e-01 -7.303427159786224365e-02
6.561098247766494751e-02 1.574078649282455444e-01 -9.302009642124176025e-02
-2.675703167915344238e-02 -1.455949842929840088e-01 4.279026761651039124e-02
3.313419818878173828e-01 -6.131976097822189331e-02 -6.365407258272171021e-03
4.560140967369079590e-01 2.149440050125122070e-01 1.761960238218307495e-02
1.883752048015594482e-01 1.674914360046386719e-01 -8.791188895702362061e-02
-8.211923390626907349e-02 -1.627844572067260742e-01 -2.161996811628341675e-02
-2.235339879989624023e-01 1.767896860837936401e-01 -5.448739603161811829e-02
-4.102519154548645020e-02 2.132532894611358643e-01 7.097502797842025757e-02
-7.031791657209396362e-02 -1.117841079831123352e-01 -6.277592480182647705e-02
-2.998910248279571533e-01 -7.387570291757583618e-02 4.706973582506179810e-02
-1.713557690382003784e-01 -1.421334147453308105e-01 3.837194666266441345e-02
-2.102394998073577881e-01 2.287287712097167969e-01 4.987558815628290176e-03
-1.775927841663360596e-03 7.545813173055648804e-02 -9.835600852966308594e-02
-1.601892709732055664e-01 1.598806977272033691e-01 7.090561091899871826e-02
-4.523624479770660400e-02 1.049017608165740967e-01 -9.570959955453872681e-02
-2.574726194143295288e-02 9.665293991565704346e-02 9.568883478641510010e-02
2.790290713310241699e-01 2.831116616725921631e-01 3.967714309692382812e-02
1.029943823814392090e-01 -8.908378332853317261e-02 -6.400191783905029297e-02
2.767558693885803223e-01 9.986812621355056763e-02 -8.262095600366592407e-02
9.240560233592987061e-02 2.223965525627136230e-01 7.684815675020217896e-02
3.258171975612640381e-01 1.114562302827835083e-01 7.774414122104644775e-02
-2.029085904359817505e-01 -1.239082589745521545e-01 4.626297578215599060e-02
2.664250731468200684e-01 2.525333464145660400e-01 5.915785208344459534e-02
-3.592532873153686523e-01 5.682688951492309570e-02 -4.181632399559020996e-02
-4.962383955717086792e-02 2.879577577114105225e-01 7.954223081469535828e-03
3.534999191761016846e-01 -4.228084534406661987e-02 2.266623824834823608e-02
3.298861384391784668e-01 1.690106391906738281e-01 7.318902760744094849e-02
-7.542795687913894653e-02 -3.996081650257110596e-02 8.602395653724670410e-02
-1.944794207811355591e-01 2.354013323783874512e-01 8.854490704834461212e-03
1.522065699100494385e-01 2.816299200057983398e-01 -5.212723091244697571e-02
-1.519687622785568237e-01 2.386946082115173340e-01 -3.782598674297332764e-02
-2.245748341083526611e-01 8.922770619392395020e-03 -7.951524108648300171e-02
4.667123556137084961e-01 9.071341902017593384e-02 2.732575498521327972e-02
1.929622441530227661e-01 -5.534862726926803589e-02 6.955851614475250244e-02
1.257309317588806152e-01 -7.959970086812973022e-02 -6.550355255603790283e-02
7.530602812767028809e-02 -1.022634133696556091e-01 -6.059873104095458984e-02
1.415669322013854980e-01 1.821386814117431641e-01 8.731459081172943115e-02
-2.284076213836669922e-01 -1.357795000076293945e-01 3.192775696516036987e-02
3.503551483154296875e-01 -4.695079475641250610e-02 -1.253826729953289032e-02
4.034736454486846924e-01 6.856027245521545410e-02 5.515827983617782593e-02
7.207717001438140869e-02 2.902180850505828857e-01 3.954694792628288269e-02
1.049182564020156860e-02 -4.408648610115051270e-02 -8.529125899076461792e-02
2.641282677650451660e-01 1.922079324722290039e-01 -7.715200632810592651e-02
-3.126961588859558105e-01 -1.192120686173439026e-01 6.413982715457677841e-03
5.654465779662132263e-02 4.848071187734603882e-02 -9.758444875478744507e-02
1.584293693304061890e-01 2.859389185905456543e-01 -4.908616840839385986e-02
6.368368864059448242e-02 1.392847448587417603e-01 -9.531563520431518555e-02
1.664839684963226318e-01 -1.324979066848754883e-01 9.101240895688533783e-03
-7.745469361543655396e-02 1.627698838710784912e-01 8.205213397741317749e-02
-1.283327043056488037e-01 2.177193462848663330e-01 5.443160980939865112e-02
1.341452002525329590e-01 -3.781899809837341309e-02 8.230208605527877808e-02
2.265279293060302734e-01 3.139802813529968262e-01 2.673113020136952400e-03
-1.474182158708572388e-01 1.860353052616119385e-01 6.464791297912597656e-02
1.104065254330635071e-01 2.971265017986297607e-01 3.622065111994743347e-02
3.257431983947753906e-01 5.426464602351188660e-02 7.378783077001571655e-02
2.304908782243728638e-01 -1.110769733786582947e-01 5.284292623400688171e-03
4.204008579254150391e-01 1.773866713047027588e-01 -4.706479981541633606e-02
