-1.487363874912261963e-02 3.527798652648925781e-01 -1.036540791392326355e-01
1.180494576692581177e-02 3.427096009254455566e-01 -1.916114240884780884e-02
2.735443413257598877e-03 3.929075002670288086e-01 -2.059918642044067383e-01
1.267944872379302979e-01 5.019096136093139648e-01 -4.858964681625366211e-02
1.954136043787002563e-01 3.989359140396118164e-01 3.047541528940200806e-02
1.913352757692337036e-01 4.247768223285675049e-01 -3.077511191368103027e-01
9.544986486434936523e-02 4.813386499881744385e-01 1.301434934139251709e-01
1.506080627441406250e-01 3.952905237674713135e-01 1.403061598539352417e-01
1.040858626365661621e-01 3.626075387001037598e-01 5.146598070859909058e-02
1.672834753990173340e-01 5.106180906295776367e-01 -1.325183920562267303e-02
2.830015867948532104e-02 4.543728530406951904e-01 1.539223492145538330e-01
1.188514456152915955e-01 3.785354495048522949e-01 -2.217691093683242798e-01
9.182763844728469849e-02 4.043841660022735596e-01 2.372676879167556763e-01
6.607277691364288330e-02 3.735327720642089844e-01 1.891235709190368652e-01
1.325633227825164795e-01 3.829518556594848633e-01 1.237898468971252441e-01
1.086286604404449463e-01 3.760262429714202881e-01 1.382842063903808594e-01
1.578537970781326294e-01 3.768701851367950439e-01 -9.815153479576110840e-02
1.018147915601730347e-02 3.433691263198852539e-01 5.555674433708190918e-02
8.328935503959655762e-02 4.821716547012329102e-01 9.891645610332489014e-02
-4.892252385616302490e-02 3.469357490539550781e-01 4.097300767898559570e-02
8.941684663295745850e-02 4.903503358364105225e-01 -7.334781810641288757e-03
8.505538851022720337e-02 4.876129031181335449e-01 3.745923191308975220e-02
2.744856476783752441e-01 4.968847036361694336e-01 -2.477475702762603760e-01
3.791642189025878906e-02 4.539810419082641602e-01 -1.637268364429473877e-01
1.924360692501068115e-01 3.914919495582580566e-01 -4.571881145238876343e-02
2.210713326930999756e-01 5.004008412361145020e-01 8.264934271574020386e-02
1.788617074489593506e-01 3.917510509490966797e-01 4.206588119268417358e-02
-1.900228857994079590e-02 4.237718284130096436e-01 -1.109408140182495117e-01
-6.555289030075073242e-02 3.810053467750549316e-01 -3.324765712022781372e-02
4.595413058996200562e-02 3.461909890174865723e-01 -9.179672226309776306e-03
-1.925091445446014404e-02 3.469634950160980225e-01 -6.130258738994598389e-02
1.436048150062561035e-01 4.150420725345611572e-01 -3.128994107246398926e-01
9.123416990041732788e-02 3.585166931152343750e-01 4.883241653442382812e-02
1.652899086475372314e-01 4.319834411144256592e-01 1.987755596637725830e-01
1.638137698173522949e-01 4.888966381549835205e-01 -2.581999301910400391e-01
2.993160486221313477e-02 3.701035976409912109e-01 2.057241946458816528e-01
2.281774282455444336e-01 4.936529994010925293e-01 9.697541594505310059e-02
6.301447749137878418e-02 3.514834642410278320e-01 -8.866184204816818237e-02
-4.184305667877197266e-03 3.970713913440704346e-01 -1.945296674966812134e-01
-1.717333495616912842e-02 3.450250923633575439e-01 -4.582075029611587524e-02
4.808349907398223877e-02 3.669097423553466797e-01 -1.997406631708145142e-01
1.778024137020111084e-01 3.863998949527740479e-01 -1.118495874106884003e-02
-2.403266727924346924e-02 4.278922677040100098e-01 1.425137221813201904e-01
1.579283177852630615e-01 5.095897316932678223e-01 -5.501826107501983643e-02
4.228201508522033691e-02 4.540642201900482178e-01 -1.753784269094467163e-01
1.966342329978942871e-02 4.544915258884429932e-01 1.273560076951980591e-01
2.188629209995269775e-01 4.052754938602447510e-01 -1.500668227672576904e-01
5.673135071992874146e-02 4.088846743106842041e-01 -2.735773324966430664e-01
-1.186427474021911621e-02 4.391536712646484375e-01 1.165621280670166016e-01
-3.807070851325988770e-02 4.234709143638610840e-01 -8.878685534000396729e-03
1.139055490493774414e-01 4.981513321399688721e-01 -1.271387189626693726e-02
8.942312002182006836e-02 3.606486916542053223e-01 7.840932160615921021e-02
1.284350454807281494e-01 3.668079972267150879e-01 -1.308464631438255310e-02
1.583920717239379883e-01 3.935403823852539062e-01 1.156768053770065308e-01
2.209671437740325928e-01 5.178861618041992188e-01 -5.002300068736076355e-02
1.890023350715637207e-01 4.123212993144989014e-01 -2.783975601196289062e-01
5.574731901288032532e-02 3.535764515399932861e-01 -1.232392191886901855e-01
3.353626281023025513e-02 4.644082784652709961e-01 -7.358168810606002808e-02
1.937110722064971924e-02 4.596781134605407715e-01 6.771025806665420532e-02
1.351673454046249390e-01 4.685436785221099854e-01 1.994172185659408569e-01
-5.248057842254638672e-02 3.561220467090606689e-01 -4.300116747617721558e-02
1.740374565124511719e-01 3.829171061515808105e-01 -6.031480059027671814e-02
9.317868202924728394e-02 4.523130357265472412e-01 -2.749611735343933105e-01
2.127229124307632446e-01 4.944401383399963379e-01 1.083701997995376587e-01
-3.325596451759338379e-02 4.263655543327331543e-01 -2.140508405864238739e-02
1.939992457628250122e-01 4.729585647583007812e-01 -3.169989585876464844e-01
1.930068433284759521e-01 4.485360085964202881e-01 -3.314574956893920898e-01
1.460835337638854980e-02 3.453349471092224121e-01 -6.604062765836715698e-02
5.825560912489891052e-02 4.740973412990570068e-01 9.534031152725219727e-02
1.605544388294219971e-01 3.777927756309509277e-01 -4.066451266407966614e-02
5.763371288776397705e-02 3.573127090930938721e-01 1.207707524299621582e-01
2.655311226844787598e-01 4.674329161643981934e-01 -2.834666967391967773e-01
-1.465007662773132324e-04 4.385294914245605469e-01 -1.142486780881881714e-01
2.353899180889129639e-01 4.130771160125732422e-01 -8.921000361442565918e-02
2.199968695640563965e-01 4.067411422729492188e-01 -1.635807305574417114e-01
7.035248726606369019e-02 4.543075263500213623e-01 2.130584567785263062e-01
9.514129161834716797e-02 4.546913802623748779e-01 2.236185520887374878e-01
1.839365065097808838e-02 3.502840101718902588e-01 1.224481165409088135e-01
1.093667745590209961e-01 3.726088404655456543e-01 -2.003424614667892456e-01
5.135259032249450684e-02 4.754484593868255615e-01 -2.605572342872619629e-02
1.695672571659088135e-01 4.115205109119415283e-01 -2.951146960258483887e-01
2.463594079017639160e-02 4.367403686046600342e-01 2.158664315938949585e-01
2.943522930145263672e-01 4.600912034511566162e-01 -1.372130513191223145e-01
2.151177823543548584e-01 5.117554664611816406e-01 -1.909948587417602539e-01
1.165770664811134338e-01 4.341874420642852783e-01 -3.166021108627319336e-01
9.459060430526733398e-02 4.880284368991851807e-01 7.458646595478057861e-02
2.350538969039916992e-02 4.619408547878265381e-01 -3.246556222438812256e-02
-9.233817458152770996e-03 3.463321030139923096e-01 1.069647669792175293e-01
1.891933679580688477e-01 4.762098491191864014e-01 1.649031937122344971e-01
1.193260774016380310e-01 4.072228074073791504e-01 -3.029889464378356934e-01
2.446191608905792236e-01 5.028609037399291992e-01 5.038268119096755981e-02
1.169930547475814819e-01 4.894646406173706055e-01 -1.757959276437759399e-01
1.581603139638900757e-01 3.861062526702880859e-01 7.441617548465728760e-02
1.342219114303588867e-02 4.081293940544128418e-01 -2.190837115049362183e-01
6.876328587532043457e-02 3.537532687187194824e-01 6.427025794982910156e-02
1.354314088821411133e-01 4.370087385177612305e-01 2.290434092283248901e-01
3.236639499664306641e-02 4.651424884796142578e-01 -5.598853901028633118e-02
1.558505147695541382e-01 3.882521688938140869e-01 -2.235266864299774170e-01
1.194097548723220825e-01 3.879868090152740479e-01 1.695784777402877808e-01
1.556707918643951416e-02 3.736146986484527588e-01 -2.006525993347167969e-01
4.485654085874557495e-02 3.532805144786834717e-01 -1.288145035505294800e-01
1.437066793441772461e-01 3.745116293430328369e-01 2.503903210163116455e-02
8.239338546991348267e-02 3.538435101509094238e-01 -6.196178495883941650e-02
1.965800821781158447e-01 5.027195215225219727e-01 8.366187661886215210e-02
2.810569405555725098e-01 5.104202032089233398e-01 -6.338562816381454468e-02
9.487250447273254395e-02 3.564422130584716797e-01 -4.285493865609169006e-02
2.666291892528533936e-01 4.414614737033843994e-01 -2.166665643453598022e-01
2.405999302864074707e-01 4.228374660015106201e-01 -2.023458480834960938e-03
1.231589764356613159e-01 4.900051355361938477e-01 1.156500279903411865e-01
1.192078888416290283e-01 4.473688304424285889e-01 -3.092908859252929688e-01
-1.631319522857666016e-02 4.406813979148864746e-01 5.021051317453384399e-02
7.888585329055786133e-02 3.827885687351226807e-01 2.051112800836563110e-01
7.510556280612945557e-02 4.843501448631286621e-01 -5.517637729644775391e-02
2.776307165622711182e-01 4.433019161224365234e-01 -9.736303240060806274e-02
2.860665321350097656e-01 5.014199018478393555e-01 -3.050589561462402344e-02
6.351165473461151123e-02 4.614790678024291992e-01 1.831702739000320435e-01
1.181801706552505493e-01 4.796921908855438232e-01 -2.305581569671630859e-01
2.088979035615921021e-01 3.999805152416229248e-01 -1.429872661828994751e-01
4.878462105989456177e-02 4.411909580230712891e-01 -2.307087630033493042e-01
1.406348198652267456e-01 4.846304357051849365e-01 1.541630625724792480e-01
6.428091228008270264e-02 4.799827635288238525e-01 -5.426000803709030151e-02
5.980723723769187927e-02 4.646957814693450928e-01 -1.724307537078857422e-01
2.199993580579757690e-01 5.160514116287231445e-01 -1.760686933994293213e-02
1.381417065858840942e-01 3.914166390895843506e-01 -2.587778568267822266e-01
2.559128403663635254e-02 3.498575687408447266e-01 1.113850325345993042e-01
3.561518341302871704e-02 3.457306027412414551e-01 -5.040235817432403564e-02
4.426275193691253662e-02 4.690322577953338623e-01 -8.271373063325881958e-02
1.776231378316879272e-01 3.884136080741882324e-01 1.628703251481056213e-02
2.153373509645462036e-02 3.472282588481903076e-01 -8.550871908664703369e-02
-3.838239610195159912e-02 3.854836225509643555e-01 -1.254258155822753906e-01
2.224397361278533936e-01 4.488191306591033936e-01 1.303924769163131714e-01
2.077050209045410156e-01 4.090674221515655518e-01 5.109800398349761963e-02
-3.769889473915100098e-02 4.029733836650848389e-01 -1.083221063017845154e-01
1.471106559038162231e-01 4.712585806846618652e-01 1.923712044954299927e-01
2.268724441528320312e-01 4.165826141834259033e-01 2.079837024211883545e-02
1.124422773718833923e-01 3.613852262496948242e-01 -6.210987269878387451e-02
1.088734790682792664e-01 4.964745044708251953e-01 -2.183955162763595581e-03
1.312248259782791138e-01 3.673091828823089600e-01 -7.803305238485336304e-02
1.805838197469711304e-02 4.560049772262573242e-01 -7.335523515939712524e-02
1.567731499671936035e-01 4.877378344535827637e-01 1.464526504278182983e-01
2.691515088081359863e-01 4.356726706027984619e-01 -1.198471784591674805e-01
-2.681694924831390381e-02 3.514195680618286133e-01 -7.968436181545257568e-02
1.722849905490875244e-03 4.499453008174896240e-01 -2.969770133495330811e-02
1.615340709686279297e-01 4.836304485797882080e-01 -2.739733755588531494e-01
2.388115227222442627e-01 4.202761352062225342e-01 -1.988102495670318604e-01
1.748875975608825684e-01 4.904402196407318115e-01 -2.638428211212158203e-01
2.396941184997558594e-01 4.883018434047698975e-01 9.433670341968536377e-02
1.452985256910324097e-01 5.048782229423522949e-01 -1.100270077586174011e-01
1.878928393125534058e-02 4.600884318351745605e-01 5.219053477048873901e-02
2.747580111026763916e-01 4.458526074886322021e-01 -4.158236086368560791e-02
9.636377543210983276e-02 4.790409803390502930e-01 1.445346474647521973e-01
2.260974198579788208e-01 4.848491549491882324e-01 1.172658503055572510e-01
2.303557991981506348e-01 4.134447872638702393e-01 -1.790284961462020874e-01
1.844561845064163208e-01 3.895253241062164307e-01 -1.485898494720458984e-01
2.066364586353302002e-01 3.976413905620574951e-01 -7.470383495092391968e-02
3.023820370435714722e-02 4.188560545444488525e-01 -2.366921901702880859e-01
9.737798571586608887e-02 4.842444062232971191e-01 1.143448352813720703e-01
6.243139505386352539e-02 3.507139980792999268e-01 4.115608334541320801e-02
9.051048755645751953e-02 4.697642922401428223e-01 -2.204282581806182861e-01
6.179338321089744568e-02 4.799188971519470215e-01 -2.381829172372817993e-02
2.900249361991882324e-01 4.913236498832702637e-01 -2.301754057407379150e-01
7.163709402084350586e-02 3.849554061889648438e-01 2.172837406396865845e-01
8.884950727224349976e-02 4.786462783813476562e-01 -1.727707535028457642e-01
2.254575490951538086e-01 5.089052915573120117e-01 4.054263234138488770e-02
2.949118018150329590e-01 4.610283672809600830e-01 -1.170772239565849304e-01
9.572467952966690063e-02 3.571888804435729980e-01 -1.462064683437347412e-04
5.361172184348106384e-02 4.766370952129364014e-01 1.586917787790298462e-02
5.373052880167961121e-02 3.650216162204742432e-01 1.686700433492660522e-01
1.111584752798080444e-01 3.798133432865142822e-01 -2.338960021734237671e-01
2.807504534721374512e-01 4.457105100154876709e-01 -1.104816198348999023e-01
4.245415329933166504e-04 3.420290946960449219e-01 3.485009819269180298e-02
1.455930173397064209e-01 3.808139860630035400e-01 -1.961742192506790161e-01
2.833989262580871582e-01 4.722331762313842773e-01 3.459751605987548828e-03
8.724375069141387939e-02 3.654375374317169189e-01 -1.803487986326217651e-01
1.109258830547332764e-02 3.547957837581634521e-01 1.555744111537933350e-01
-4.453295469284057617e-02 3.551976680755615234e-01 1.411975175142288208e-01
1.198100075125694275e-01 3.738007843494415283e-01 1.009862571954727173e-01
2.459513247013092041e-01 4.351240992546081543e-01 4.039291292428970337e-02
2.035099267959594727e-01 3.979128897190093994e-01 -2.716823667287826538e-02
-3.634032607078552246e-02 3.518725931644439697e-01 -6.430430710315704346e-02
1.326279938220977783e-01 4.950433969497680664e-01 -1.745949685573577881e-01
9.846840798854827881e-02 4.769977331161499023e-01 1.571462899446487427e-01
2.830957770347595215e-01 5.125062465667724609e-01 -1.163692101836204529e-01
-5.879110097885131836e-02 3.718542158603668213e-01 -6.125756353139877319e-02
-1.693327724933624268e-02 4.389035701751708984e-01 8.395999670028686523e-02
2.354998290538787842e-01 4.739797115325927734e-01 1.159544736146926880e-01
7.065998017787933350e-02 4.443527460098266602e-01 2.347873002290725708e-01
-4.928149282932281494e-02 4.023498296737670898e-01 1.602551341056823730e-01
2.103078961372375488e-01 5.110877752304077148e-01 3.110546618700027466e-02
2.273645251989364624e-01 4.136719405651092529e-01 -3.596391528844833374e-03
1.667571961879730225e-01 3.857492804527282715e-01 -1.813788115978240967e-01
1.344308555126190186e-01 4.982279837131500244e-01 -1.528485715389251709e-01
1.763494163751602173e-01 3.976632058620452881e-01 8.902089297771453857e-02
-8.009061217308044434e-03 3.425413370132446289e-01 -1.917433924973011017e-02
1.802312433719635010e-01 4.779937863349914551e-01 -3.027588129043579102e-01
1.225110217928886414e-01 4.591416716575622559e-01 2.177401930093765259e-01
-7.154911756515502930e-02 3.852319419384002686e-01 1.961918175220489502e-02
7.390774786472320557e-02 3.525866270065307617e-01 -7.459916174411773682e-02
7.667779177427291870e-02 3.914056122303009033e-01 2.272996753454208374e-01
4.650052636861801147e-02 3.946478962898254395e-01 2.474479824304580688e-01
2.619197368621826172e-01 4.672789275646209717e-01 6.323413550853729248e-02
6.723101437091827393e-02 3.985051810741424561e-01 -2.755829691886901855e-01
5.507475882768630981e-02 3.517120480537414551e-01 7.724894583225250244e-02
1.362712830305099487e-01 4.801634252071380615e-01 1.686438322067260742e-01
1.142749488353729248e-01 4.969578981399536133e-01 -8.694054931402206421e-02
3.293394297361373901e-02 3.760249018669128418e-01 -2.193668186664581299e-01
1.142139732837677002e-01 3.623081445693969727e-01 -9.569453075528144836e-03
2.472191751003265381e-01 4.528354406356811523e-01 -2.957680821418762207e-01
-9.342104196548461914e-03 3.690113723278045654e-01 -1.636821478605270386e-01
2.496021240949630737e-01 5.150606632232666016e-01 -2.623626589775085449e-02
4.702123999595642090e-02 4.036795794963836670e-01 2.547593712806701660e-01
2.863700687885284424e-01 4.634453356266021729e-01 -2.677180990576744080e-02
-5.871766805648803711e-02 3.933239877223968506e-01 1.493121683597564697e-01
6.920327246189117432e-02 4.703465402126312256e-01 -1.678621023893356323e-01
1.321815252304077148e-01 5.005948543548583984e-01 3.987473994493484497e-02
2.173107266426086426e-01 4.351478815078735352e-01 1.188928484916687012e-01
2.791441082954406738e-01 5.127335190773010254e-01 -8.147049695253372192e-02
8.455033600330352783e-02 4.842059612274169922e-01 8.311027288436889648e-02
2.607804536819458008e-01 5.174376368522644043e-01 -1.234530061483383179e-01
-3.141373395919799805e-03 3.417222201824188232e-01 1.624955981969833374e-02
1.707215607166290283e-01 4.541510641574859619e-01 1.997670084238052368e-01
2.497966438531875610e-01 4.795709252357482910e-01 8.882287144660949707e-02
-3.403851389884948730e-02 4.043073356151580811e-01 1.963092088699340820e-01
2.551910281181335449e-01 5.083451867103576660e-01 -2.215042561292648315e-01
1.776270568370819092e-01 4.215630292892456055e-01 -3.110982775688171387e-01
2.142754495143890381e-01 5.068777203559875488e-01 -2.231835722923278809e-01
1.110929474234580994e-01 3.873778879642486572e-01 -2.608793377876281738e-01
1.992451548576354980e-01 5.160108804702758789e-01 -3.963120654225349426e-02
1.129343807697296143e-01 4.914674162864685059e-01 8.880542218685150146e-02
-7.297150790691375732e-02 3.839600682258605957e-01 3.415058553218841553e-02
1.747697591781616211e-01 5.052242279052734375e-01 -1.867235749959945679e-01
1.105541065335273743e-01 3.984437882900238037e-01 -2.881280779838562012e-01
3.027858138084411621e-01 4.877046644687652588e-01 -1.822222918272018433e-01
2.134390771389007568e-01 4.011285006999969482e-01 -1.137525588274002075e-01
3.881105035543441772e-02 3.802863061428070068e-01 2.272102385759353638e-01
1.699268370866775513e-01 3.944302797317504883e-01 -2.325523793697357178e-01
2.630587816238403320e-01 5.170354843139648438e-01 -8.773311972618103027e-02
1.540567427873611450e-01 3.801536262035369873e-01 4.074049741029739380e-02
8.435313403606414795e-02 4.442597031593322754e-01 2.386415153741836548e-01
6.900943070650100708e-02 3.568623065948486328e-01 9.539221227169036865e-02
2.385408282279968262e-01 5.071854591369628906e-01 3.899875283241271973e-02
-5.840946733951568604e-02 3.520088195800781250e-01 8.224550634622573853e-02
1.892645210027694702e-01 4.518661797046661377e-01 1.814226806163787842e-01
1.731081604957580566e-01 4.941956102848052979e-01 -2.471599131822586060e-01
2.515711784362792969e-01 5.033954381942749023e-01 -2.455620318651199341e-01
1.309461295604705811e-01 5.028349757194519043e-01 -1.402911171317100525e-02
8.194991946220397949e-02 4.614804387092590332e-01 2.009760737419128418e-01
2.987019419670104980e-01 5.028718709945678711e-01 -1.456105858087539673e-01
2.922669649124145508e-01 4.959051907062530518e-01 -2.146935611963272095e-01
4.568596184253692627e-02 3.494089245796203613e-01 -9.141084551811218262e-02
2.535728216171264648e-01 4.264903068542480469e-01 -5.572250857949256897e-02
1.886199414730072021e-01 5.010176897048950195e-01 -2.320433557033538818e-01
4.083022475242614746e-02 4.148854911327362061e-01 -2.548625469207763672e-01
1.465404778718948364e-01 4.553191065788269043e-01 2.153256088495254517e-01
-5.638040602207183838e-02 3.982712924480438232e-01 -4.365455359220504761e-02
-2.149702608585357666e-02 4.369000792503356934e-01 6.623569130897521973e-02
-5.346326529979705811e-02 4.106612503528594971e-01 9.102952480316162109e-02
-2.438418567180633545e-02 4.247804284095764160e-01 1.578799486160278320e-01
1.556264013051986694e-01 3.952048718929290771e-01 1.293741166591644287e-01
-4.355154931545257568e-02 4.206640422344207764e-01 7.105012983083724976e-02
3.854317218065261841e-02 4.253864586353302002e-01 -2.419581115245819092e-01
2.022701501846313477e-01 4.856779575347900391e-01 1.380559951066970825e-01
1.940686702728271484e-01 4.208944141864776611e-01 -2.968698740005493164e-01
1.285015791654586792e-02 4.235378205776214600e-01 2.310569137334823608e-01
2.231113910675048828e-01 4.603967368602752686e-01 1.369903534650802612e-01
3.295481204986572266e-03 3.701226711273193359e-01 -1.811295151710510254e-01
2.011614888906478882e-01 3.955087065696716309e-01 -1.241362541913986206e-01
-4.884482920169830322e-02 4.144537150859832764e-01 -1.795552670955657959e-04
-3.383551537990570068e-02 4.180881381034851074e-01 -7.440294325351715088e-02
3.623031079769134521e-03 4.155419766902923584e-01 2.338411062955856323e-01
4.360178112983703613e-02 3.703180253505706787e-01 1.980697363615036011e-01
-5.626620352268218994e-02 4.056204259395599365e-01 1.111363470554351807e-01
1.829424351453781128e-01 4.981218576431274414e-01 1.063103079795837402e-01
3.322432190179824829e-02 3.447154760360717773e-01 2.265881374478340149e-02
5.664862692356109619e-02 3.741462826728820801e-01 -2.252232879400253296e-01
1.609096378087997437e-01 3.776219487190246582e-01 -5.972210317850112915e-02
2.062864601612091064e-03 3.465036749839782715e-01 -7.666726410388946533e-02
9.328194707632064819e-02 3.774746060371398926e-01 -2.339776456356048584e-01
-2.670305967330932617e-02 3.472867012023925781e-01 -5.229542031884193420e-02
2.106304466724395752e-01 4.339814782142639160e-01 1.304813325405120850e-01
-3.730148077011108398e-03 4.485031664371490479e-01 2.876416593790054321e-02
5.558917298913002014e-02 3.593521714210510254e-01 -1.643701344728469849e-01
2.652572095394134521e-01 4.919502437114715576e-01 4.529623687267303467e-02
2.684963941574096680e-01 5.049269795417785645e-01 3.351122140884399414e-03
2.757354974746704102e-01 5.095592737197875977e-01 -1.929771751165390015e-01
1.595668494701385498e-02 4.469783604145050049e-01 -1.288945078849792480e-01
5.286972597241401672e-02 3.704082071781158447e-01 -2.127973288297653198e-01
1.578295379877090454e-01 5.095313191413879395e-01 -4.270508512854576111e-02
-1.039437949657440186e-02 4.051325619220733643e-01 -1.770749390125274658e-01
2.521730065345764160e-01 5.060140490531921387e-01 2.761516720056533813e-02
7.029789686203002930e-02 4.514102339744567871e-01 -2.432518452405929565e-01
-5.341041088104248047e-02 3.540312945842742920e-01 -2.898703888058662415e-02
1.430891156196594238e-01 3.814924359321594238e-01 8.897638320922851562e-02
2.789808064699172974e-02 3.501338064670562744e-01 -1.102881431579589844e-01
1.295474022626876831e-01 4.978404343128204346e-01 6.506618857383728027e-02
1.108039468526840210e-01 4.623990952968597412e-01 2.110950797796249390e-01
3.053311258554458618e-02 4.530997872352600098e-01 1.658665239810943604e-01
1.114559471607208252e-01 4.951781630516052246e-01 4.385039955377578735e-02
7.962605357170104980e-02 4.652745425701141357e-01 -2.164064198732376099e-01
2.998174428939819336e-01 4.718345701694488525e-01 -8.837975561618804932e-02
1.579661369323730469e-01 5.075652003288269043e-01 1.416828483343124390e-02
1.217076703906059265e-01 3.694083392620086670e-01 -1.565552353858947754e-01
4.383614659309387207e-02 3.561797440052032471e-01 -1.490245759487152100e-01
2.605379372835159302e-02 3.461372554302215576e-01 -7.048711180686950684e-02
2.565799951553344727e-01 5.123611688613891602e-01 -1.435424573719501495e-02
2.958506941795349121e-01 4.627812802791595459e-01 -1.549779176712036133e-01
2.169836610555648804e-01 4.218263328075408936e-01 8.139862120151519775e-02
2.624248862266540527e-01 4.349085092544555664e-01 -1.937451362609863281e-01
1.572622358798980713e-02 4.418016672134399414e-01 -1.524719595909118652e-01
2.926328480243682861e-01 5.063214302062988281e-01 -1.616355776786804199e-01
1.990280896425247192e-01 4.186650514602661133e-01 -2.853875756263732910e-01
2.500796318054199219e-01 4.977958500385284424e-01 -2.651606202125549316e-01
5.190912634134292603e-02 4.534012973308563232e-01 1.986942142248153687e-01
3.509335219860076904e-03 3.571386337280273438e-01 1.698147505521774292e-01
1.154665648937225342e-02 3.634628951549530029e-01 -1.709944903850555420e-01
1.247532889246940613e-01 4.936669468879699707e-01 -1.649665087461471558e-01
2.221839427947998047e-01 4.188194870948791504e-01 5.193755030632019043e-02
2.244219183921813965e-01 4.915560483932495117e-01 -2.858462631702423096e-01
2.349590659141540527e-01 4.943667054176330566e-01 -2.783918380737304688e-01
4.652537405490875244e-03 4.437611699104309082e-01 -1.038612052798271179e-01
1.597052514553070068e-01 5.097312927246093750e-01 -7.616452127695083618e-02
5.109048634767532349e-02 4.678973257541656494e-01 -1.245671734213829041e-01
7.266901433467864990e-02 4.803135991096496582e-01 8.342712372541427612e-02
2.857399582862854004e-01 4.539541900157928467e-01 -1.859467029571533203e-01
1.099837496876716614e-01 4.563890993595123291e-01 2.225900739431381226e-01
2.389291226863861084e-01 4.150504469871520996e-01 -1.075775772333145142e-01
1.298119127750396729e-02 4.437132179737091064e-01 1.722318679094314575e-01
2.234124839305877686e-01 5.056768059730529785e-01 -2.346290349960327148e-01
2.268102616071701050e-01 4.087956249713897705e-01 -6.332303583621978760e-02
1.137779429554939270e-01 3.648052215576171875e-01 3.965104371309280396e-02
2.719031572341918945e-01 4.869494736194610596e-01 -2.693586945533752441e-01
1.875743865966796875e-01 3.901186585426330566e-01 -2.524463087320327759e-02
1.321450173854827881e-01 5.003806352615356445e-01 -1.214100867509841919e-01
4.617918282747268677e-02 4.509367346763610840e-01 -1.972334533929824829e-01
1.534691303968429565e-01 4.949615597724914551e-01 -2.167533487081527710e-01
-2.475173771381378174e-02 4.001213610172271729e-01 -1.496447920799255371e-01
2.254766821861267090e-01 4.836155474185943604e-01 -3.027347326278686523e-01
1.216076612472534180e-01 4.195326268672943115e-01 -3.162257075309753418e-01
3.445625305175781250e-02 3.448016643524169922e-01 -2.678672596812248230e-02
1.585392057895660400e-01 5.091145634651184082e-01 -8.927533030509948730e-02
2.174217998981475830e-02 4.619913995265960693e-01 3.607875108718872070e-02
2.083484828472137451e-02 4.617412984371185303e-01 1.292975991964340210e-02
2.051027417182922363e-01 4.005644321441650391e-01 -1.754627525806427002e-01
1.109502986073493958e-01 4.881721138954162598e-01 1.104657799005508423e-01
-4.508990049362182617e-02 3.486021757125854492e-01 9.647816419601440430e-02
2.461623549461364746e-01 4.200884401798248291e-01 -1.400736868381500244e-01
1.706728041172027588e-01 3.817959725856781006e-01 -4.545856639742851257e-02
3.552107512950897217e-02 4.677429199218750000e-01 -3.755775839090347290e-02
1.004864349961280823e-01 3.668010234832763672e-01 -1.743514239788055420e-01
-5.750575661659240723e-02 3.504672050476074219e-01 6.187610328197479248e-02
2.218349128961563110e-01 5.154326558113098145e-01 -1.621018201112747192e-01
8.328628540039062500e-02 3.996936976909637451e-01 -2.849146127700805664e-01
1.060975492000579834e-01 3.595381379127502441e-01 -2.515670098364353180e-02
2.012157738208770752e-01 5.149880647659301758e-01 -1.446970552206039429e-02
1.435601115226745605e-01 3.724094629287719727e-01 -1.110984832048416138e-01
1.408438682556152344e-01 4.762054979801177979e-01 -2.745729088783264160e-01
2.518634796142578125e-01 4.878142476081848145e-01 -2.868078947067260742e-01
1.933259665966033936e-01 5.155471563339233398e-01 -9.466640651226043701e-02
2.353991270065307617e-01 4.137282073497772217e-01 -1.412837654352188110e-01
5.996031686663627625e-02 4.726049602031707764e-01 1.145104467868804932e-01
2.856683731079101562e-01 4.564866423606872559e-01 -2.022581547498703003e-01
1.737525314092636108e-01 4.696815311908721924e-01 1.845245510339736938e-01
1.997352391481399536e-01 4.665120244026184082e-01 -3.251285552978515625e-01
7.670672982931137085e-02 4.334708452224731445e-01 -2.833523750305175781e-01
1.646561622619628906e-01 4.967492222785949707e-01 -2.243031561374664307e-01
1.038084030151367188e-01 3.714737892150878906e-01 1.233409196138381958e-01
2.383093833923339844e-01 4.163130819797515869e-01 -5.276861414313316345e-02
1.823417395353317261e-01 3.863754570484161377e-01 -6.828512996435165405e-02
2.599287629127502441e-01 4.289233088493347168e-01 -1.308978497982025146e-01
4.242515563964843750e-02 3.556771278381347656e-01 1.323385387659072876e-01
1.338303536176681519e-01 5.029259920120239258e-01 -8.586002886295318604e-02
2.162029147148132324e-01 4.297778606414794922e-01 1.086664646863937378e-01
1.822603493928909302e-01 3.919892609119415283e-01 2.951628714799880981e-02
2.515557408332824707e-01 4.497765004634857178e-01 6.588590890169143677e-02
1.071592569351196289e-01 4.302292168140411377e-01 2.446895688772201538e-01
2.147394716739654541e-01 4.026047885417938232e-01 -5.040518939495086670e-02
2.102073132991790771e-01 4.105428159236907959e-01 -2.328990548849105835e-01
-2.590784430503845215e-02 3.743970394134521484e-01 2.102029025554656982e-01
-9.754426777362823486e-03 3.576819002628326416e-01 -1.309097409248352051e-01
-3.714942932128906250e-02 4.249867498874664307e-01 8.522287756204605103e-02
7.426634430885314941e-03 3.696676790714263916e-01 2.111479192972183228e-01
1.496511846780776978e-01 3.742853403091430664e-01 -1.784349605441093445e-02
1.999524235725402832e-01 4.297530949115753174e-01 1.429768949747085571e-01
7.009384036064147949e-02 3.738589882850646973e-01 -2.256637513637542725e-01
1.185772344470024109e-01 3.680055737495422363e-01 5.753640085458755493e-02
1.044018939137458801e-01 4.884320199489593506e-01 -1.479418873786926270e-01
2.760721445083618164e-01 4.750728309154510498e-01 2.964001893997192383e-02
2.977707386016845703e-01 4.714509844779968262e-01 -7.107672840356826782e-02
1.327017247676849365e-01 3.766060173511505127e-01 8.532724529504776001e-02
1.318629831075668335e-02 3.814677298069000244e-01 2.344149202108383179e-01
-2.960704267024993896e-02 4.168954789638519287e-01 -9.732948243618011475e-02
2.497525066137313843e-01 5.184480547904968262e-01 -8.290036022663116455e-02
-1.075194776058197021e-02 4.122954010963439941e-01 2.217545956373214722e-01
-2.053609490394592285e-02 4.381026029586791992e-01 3.385194391012191772e-02
9.421643614768981934e-02 4.023080766201019287e-01 -2.920114994049072266e-01
2.628140449523925781e-01 4.822566211223602295e-01 6.166814267635345459e-02
1.586740463972091675e-01 4.993897378444671631e-01 -1.992321461439132690e-01
-6.455758213996887207e-02 3.829768598079681396e-01 1.434098929166793823e-01
9.197257459163665771e-03 4.553979337215423584e-01 4.649717360734939575e-02
8.946222066879272461e-02 4.393121302127838135e-01 -2.908521890640258789e-01
2.192354798316955566e-01 4.080774784088134766e-01 -9.151108562946319580e-03
-3.167949616909027100e-03 3.656693696975708008e-01 2.007389068603515625e-01
8.514704555273056030e-02 4.764369726181030273e-01 1.426782757043838501e-01
1.192170903086662292e-01 4.873880445957183838e-01 1.265589296817779541e-01
2.552926540374755859e-01 4.256464540958404541e-01 -1.004885733127593994e-01
1.734061986207962036e-01 3.867501020431518555e-01 -1.676951050758361816e-01
1.491753906011581421e-01 5.047385692596435547e-01 -1.278200149536132812e-01
-4.866543412208557129e-02 3.491616845130920410e-01 -9.602118283510208130e-03
-5.209293961524963379e-02 4.134304225444793701e-01 3.831087052822113037e-02
2.438323050737380981e-01 5.189092159271240234e-01 -9.958963096141815186e-02
2.992297410964965820e-01 5.020704865455627441e-01 -1.081886887550354004e-01
9.499649703502655029e-02 4.897454977035522461e-01 -9.576788544654846191e-02
3.048183619976043701e-01 4.799398481845855713e-01 -1.220807805657386780e-01
2.272980213165283203e-01 5.175874233245849609e-01 -1.364745497703552246e-01
3.054608106613159180e-01 4.913812875747680664e-01 -1.355455815792083740e-01
9.273318946361541748e-02 3.619780540466308594e-01 -1.481110453605651855e-01
1.634545028209686279e-01 4.483824670314788818e-01 2.073060125112533569e-01
1.727091521024703979e-01 3.824702501296997070e-01 -9.465475380420684814e-02
2.099833786487579346e-01 5.175046324729919434e-01 -5.859262496232986450e-02
-2.228096127510070801e-04 3.626767396926879883e-01 -1.580872535705566406e-01
7.911594212055206299e-02 3.526062965393066406e-01 -3.296516463160514832e-02
-1.956187188625335693e-03 4.449997842311859131e-01 -6.158515438437461853e-02
1.029448732733726501e-01 4.930749535560607910e-01 -8.828026056289672852e-02
2.462990283966064453e-01 4.909716546535491943e-01 8.010148257017135620e-02
1.813180893659591675e-01 5.126233100891113281e-01 -1.010587252676486969e-02
-7.327441871166229248e-02 3.800216913223266602e-01 9.381181001663208008e-02
2.095056325197219849e-02 3.454464972019195557e-01 7.170031219720840454e-02
8.578689396381378174e-02 3.729272484779357910e-01 -2.189717590808868408e-01
6.144506856799125671e-02 4.699012041091918945e-01 -1.470816135406494141e-01
1.575156152248382568e-01 3.842168450355529785e-01 -1.942652761936187744e-01
1.444974839687347412e-01 3.868201076984405518e-01 1.160517036914825439e-01
4.890790581703186035e-02 3.774862289428710938e-01 2.153557986021041870e-01
1.337095350027084351e-01 3.696977496147155762e-01 -1.185840666294097900e-01
6.246860697865486145e-02 4.769836068153381348e-01 -8.943510800600051880e-02
1.539738327264785767e-01 3.848492503166198730e-01 -2.064941376447677612e-01
3.008860945701599121e-01 4.706014990806579590e-01 -1.135542169213294983e-01
2.936545610427856445e-01 4.801333248615264893e-01 -3.099074587225914001e-02
9.963724017143249512e-02 3.749572336673736572e-01 -2.205890268087387085e-01
2.093499600887298584e-01 4.134355783462524414e-01 -2.494387030601501465e-01
1.816961765289306641e-01 3.940654695034027100e-01 -2.042361944913864136e-01
2.817298769950866699e-01 5.095641613006591797e-01 -1.789288520812988281e-01
7.822819054126739502e-02 3.543628454208374023e-01 3.952027112245559692e-02
2.302442938089370728e-01 5.100423097610473633e-01 -2.127950638532638550e-01
1.892876625061035156e-01 5.100491046905517578e-01 3.324172645807266235e-02
2.349401116371154785e-01 4.599156081676483154e-01 1.164852529764175415e-01
-2.338777482509613037e-02 3.489329814910888672e-01 1.253909766674041748e-01
6.477147340774536133e-03 4.040522575378417969e-01 -2.100321501493453979e-01
-2.012200653553009033e-03 3.584355413913726807e-01 -1.418535858392715454e-01
2.138374745845794678e-01 4.286593198776245117e-01 -2.935588955879211426e-01
1.881909668445587158e-01 5.063598155975341797e-01 -1.996040493249893188e-01
1.953710913658142090e-01 4.431156814098358154e-01 1.692262142896652222e-01
-2.893783152103424072e-02 3.431521058082580566e-01 4.876866191625595093e-02
1.234601289033889771e-01 4.665565490722656250e-01 2.035936266183853149e-01
1.557333022356033325e-02 4.242625832557678223e-01 -2.025888413190841675e-01
5.737151578068733215e-02 4.501972198486328125e-01 -2.232295870780944824e-01
1.156904101371765137e-01 3.698997199535369873e-01 -1.733721941709518433e-01
-6.124842166900634766e-02 3.953851163387298584e-01 1.317089349031448364e-01
2.496106922626495361e-01 5.178203582763671875e-01 -6.416454911231994629e-02
-1.608160138130187988e-02 4.238691031932830811e-01 1.848001033067703247e-01
-5.804549157619476318e-02 4.069992303848266602e-01 2.981754392385482788e-02
9.076926112174987793e-02 3.642980754375457764e-01 1.051287949085235596e-01
2.863273918628692627e-01 4.856171607971191406e-01 -2.305742353200912476e-03
1.423612684011459351e-01 3.710195422172546387e-01 -8.138367533683776855e-02
1.242401972413063049e-01 4.859720766544342041e-01 -2.123726308345794678e-01
-5.690561234951019287e-02 3.833149969577789307e-01 1.683974266052246094e-01
2.378786802291870117e-01 4.154049158096313477e-01 -6.429473310708999634e-02
1.054823696613311768e-01 4.498069882392883301e-01 2.324336618185043335e-01
1.674089878797531128e-01 3.809657990932464600e-01 -1.139246299862861633e-01
2.522417306900024414e-01 4.575154483318328857e-01 7.722904533147811890e-02
1.197803765535354614e-01 4.951362609863281250e-01 -1.366243660449981689e-01
9.602790325880050659e-02 3.988441228866577148e-01 2.254236191511154175e-01
2.232033610343933105e-01 4.359518587589263916e-01 -2.982392311096191406e-01
6.049178540706634521e-03 3.431360125541687012e-01 -3.460054099559783936e-02
-1.485559344291687012e-02 4.316128492355346680e-01 -9.103972464799880981e-02
4.251256585121154785e-03 3.419542908668518066e-01 4.114393144845962524e-03
2.254607677459716797e-01 4.765436351299285889e-01 1.284540146589279175e-01
8.079648017883300781e-02 4.872210919857025146e-01 -3.004504181444644928e-02
1.522544324398040771e-01 5.082232356071472168e-01 -3.279037401080131531e-02
1.003137975931167603e-01 4.939868450164794922e-01 -3.444895148277282715e-02
1.131334155797958374e-02 4.478435218334197998e-01 1.456335484981536865e-01
1.753445267677307129e-01 4.006465971469879150e-01 1.062999963760375977e-01
2.652751803398132324e-01 5.138612985610961914e-01 -1.744766086339950562e-01
1.266835182905197144e-01 3.904541134834289551e-01 -2.633384466171264648e-01
1.218667626380920410e-02 3.463658988475799561e-01 9.447294473648071289e-02
-2.399738132953643799e-02 4.083333313465118408e-01 -1.390687972307205200e-01
1.461181938648223877e-01 4.737969040870666504e-01 -2.866207361221313477e-01
3.106391429901123047e-02 4.652416408061981201e-01 6.572398543357849121e-02
3.020823001861572266e-01 4.721624255180358887e-01 -1.305526643991470337e-01
2.430184930562973022e-01 4.188992381095886230e-01 -1.553688347339630127e-01
9.514592587947845459e-03 3.525411784648895264e-01 -1.231266632676124573e-01
2.012580633163452148e-03 3.482834696769714355e-01 -9.140618890523910522e-02
9.783867746591567993e-02 3.687926828861236572e-01 -1.903632283210754395e-01
2.125796675682067871e-01 5.167747735977172852e-01 -1.285733878612518311e-01
3.022232651710510254e-02 4.329940378665924072e-01 2.302341312170028687e-01
1.319528967142105103e-01 3.745584189891815186e-01 -1.779618561267852783e-01
1.685258597135543823e-01 4.050918817520141602e-01 -2.779822349548339844e-01
1.794561147689819336e-01 5.107303857803344727e-01 1.532451435923576355e-02
2.611826658248901367e-01 4.997214376926422119e-01 -2.531530261039733887e-01
6.732206046581268311e-02 3.588469028472900391e-01 -1.544544100761413574e-01
2.461692541837692261e-01 5.119720101356506348e-01 -2.021541148424148560e-01
1.064647510647773743e-01 4.918597936630249023e-01 6.904094666242599487e-02
9.952940791845321655e-02 4.660741090774536133e-01 -2.492860555648803711e-01
1.832508742809295654e-01 3.869810104370117188e-01 -1.029559373855590820e-01
1.244924813508987427e-01 3.869497179985046387e-01 1.573178023099899292e-01
-1.265324652194976807e-02 4.421736001968383789e-01 -8.162731304764747620e-03
1.273454278707504272e-01 3.698698282241821289e-01 4.372954368591308594e-02
1.154629364609718323e-01 4.766798615455627441e-01 1.721134036779403687e-01
2.737730741500854492e-02 4.440352618694305420e-01 1.977474242448806763e-01
1.765217185020446777e-01 5.019822716712951660e-01 -2.116962969303131104e-01
2.286423444747924805e-01 4.108528494834899902e-01 -4.445973411202430725e-02
3.036519140005111694e-02 4.663232564926147461e-01 -1.385807991027832031e-06
2.312313914299011230e-01 5.177267193794250488e-01 -4.391662776470184326e-02
-3.818118572235107422e-02 3.739161193370819092e-01 -1.210383996367454529e-01
2.836228609085083008e-01 4.483358860015869141e-01 -1.369494050741195679e-01
1.515198051929473877e-01 5.070045590400695801e-01 -1.000966876745223999e-01
1.188167035579681396e-01 3.731025755405426025e-01 -1.910802274942398071e-01
-6.294175982475280762e-02 3.943067491054534912e-01 -1.832296326756477356e-02
2.156139910221099854e-02 4.397447705268859863e-01 -1.762477904558181763e-01
2.420870661735534668e-01 4.438381791114807129e-01 -2.879865169525146484e-01
-1.382881402969360352e-02 4.422167241573333740e-01 1.468737050890922546e-02
1.065294444561004639e-02 4.537261426448822021e-01 9.256316721439361572e-02
4.398569464683532715e-02 4.717638492584228516e-01 4.714954644441604614e-02
2.003398239612579346e-01 3.944739699363708496e-01 -9.073957055807113647e-02
6.332087516784667969e-02 3.496147990226745605e-01 -4.700383171439170837e-02
1.376893371343612671e-01 5.008538961410522461e-01 5.131914466619491577e-02
5.526195093989372253e-02 3.991223871707916260e-01 -2.679187953472137451e-01
-8.338540792465209961e-04 4.231411814689636230e-01 2.150470763444900513e-01
-5.756400525569915771e-02 4.063602685928344727e-01 1.238868758082389832e-02
2.642826735973358154e-02 3.453821837902069092e-01 6.007754802703857422e-02
1.773319095373153687e-01 4.079118371009826660e-01 1.302677541971206665e-01
1.931158006191253662e-01 3.941797614097595215e-01 -1.626852154731750488e-01
9.065408259630203247e-02 4.908071756362915039e-01 -2.392437867820262909e-02
-3.168283402919769287e-02 3.940377533435821533e-01 -1.382001042366027832e-01
-1.336950063705444336e-02 3.864047229290008545e-01 2.308472543954849243e-01
2.545436024665832520e-01 5.155838131904602051e-01 -1.674546748399734497e-01
6.981194764375686646e-02 4.824371337890625000e-01 3.440281003713607788e-02
1.467906832695007324e-01 5.045987367630004883e-01 2.717574685811996460e-02
-6.207883358001708984e-02 4.024680852890014648e-01 7.498259097337722778e-02
1.406915187835693359e-01 5.046513080596923828e-01 2.747982740402221680e-03
1.990280002355575562e-01 4.964931905269622803e-01 -2.609508931636810303e-01
-7.595419883728027344e-04 3.528618812561035156e-01 -1.181553751230239868e-01
2.357783019542694092e-01 5.084258317947387695e-01 -2.238320261240005493e-01
2.068352699279785156e-02 3.568335771560668945e-01 -1.504113376140594482e-01
2.771151661872863770e-01 4.592208564281463623e-01 3.037720918655395508e-03
1.912092566490173340e-01 3.902703523635864258e-01 -7.495048642158508301e-02
2.234300374984741211e-01 5.185061097145080566e-01 -6.860364973545074463e-02
1.544028371572494507e-01 3.762243688106536865e-01 -1.141113266348838806e-01
2.430200278759002686e-01 4.861075878143310547e-01 -2.941402792930603027e-01
7.400023937225341797e-02 4.815267026424407959e-01 -9.490542113780975342e-02
2.037622034549713135e-01 4.046228229999542236e-01 3.789482265710830688e-02
2.314731180667877197e-01 5.167465209960937500e-01 -2.846014872193336487e-02
8.644918352365493774e-02 3.564480543136596680e-01 -9.931233525276184082e-02
2.325802445411682129e-01 4.127526879310607910e-01 -1.534502208232879639e-01
5.840823799371719360e-02 4.681455492973327637e-01 1.420665681362152100e-01
-2.440637350082397461e-02 3.696359992027282715e-01 -1.421579122543334961e-01
1.120417192578315735e-01 4.671137034893035889e-01 2.001743316650390625e-01
-6.940741837024688721e-02 3.780740201473236084e-01 -1.351066865026950836e-02
1.092740297317504883e-01 3.615529537200927734e-01 1.029197871685028076e-02
2.315247505903244019e-01 4.209476709365844727e-01 -2.307809740304946899e-01
1.533998548984527588e-01 3.927138149738311768e-01 -2.487121671438217163e-01
2.115069329738616943e-02 4.560073018074035645e-01 -8.986250311136245728e-02
1.878505200147628784e-01 4.404565393924713135e-01 1.775467097759246826e-01
1.272701025009155273e-01 4.891324639320373535e-01 -2.012359946966171265e-01
1.087854281067848206e-01 3.911414444446563721e-01 1.944962143898010254e-01
1.306474953889846802e-01 4.656251668930053711e-01 -2.903555035591125488e-01
4.407262057065963745e-02 4.627603292465209961e-01 -1.348875910043716431e-01
-2.716226875782012939e-02 4.293673634529113770e-01 -3.972513973712921143e-02
-2.429941296577453613e-02 3.572258353233337402e-01 -1.097784936428070068e-01
7.464851438999176025e-02 3.680934906005859375e-01 -2.021823525428771973e-01
2.364367246627807617e-02 4.473230242729187012e-01 1.786601692438125610e-01
2.606023550033569336e-01 4.322344362735748291e-01 -1.810114085674285889e-01
2.683927416801452637e-01 5.056970715522766113e-01 -2.244808077812194824e-01
2.046533674001693726e-02 4.344422817230224609e-01 -1.897321045398712158e-01
1.329311579465866089e-01 4.293402135372161865e-01 -3.238924145698547363e-01
1.038099303841590881e-01 4.707851707935333252e-01 1.858199238777160645e-01
3.039523959159851074e-01 4.955592751502990723e-01 -1.198339089751243591e-01
1.433457285165786743e-01 4.855886101722717285e-01 -2.454895675182342529e-01
5.773909762501716614e-02 4.249201416969299316e-01 -2.691347599029541016e-01
-4.741999506950378418e-02 3.991580903530120850e-01 -8.186577260494232178e-02
-5.757753551006317139e-02 3.526153266429901123e-01 -2.845302224159240723e-04
-4.021406173706054688e-02 3.447470068931579590e-01 2.981983870267868042e-02
1.321959048509597778e-01 4.842562675476074219e-01 -2.343567162752151489e-01
-7.011164724826812744e-02 3.907550275325775146e-01 7.774546742439270020e-02
1.702651977539062500e-01 4.822046458721160889e-01 -2.859099507331848145e-01
1.743336617946624756e-01 5.061264634132385254e-01 5.575651675462722778e-02
6.741022318601608276e-02 4.823192059993743896e-01 -8.660610765218734741e-03
8.343407511711120605e-02 4.880475103855133057e-01 9.032275527715682983e-03
7.501634955406188965e-02 4.130393862724304199e-01 -2.897658944129943848e-01
5.766636505722999573e-02 3.637973964214324951e-01 -1.868864744901657104e-01
1.973496526479721069e-01 4.206122159957885742e-01 1.263939738273620605e-01
2.717348933219909668e-01 4.989136755466461182e-01 1.641139388084411621e-02
2.466259598731994629e-01 4.686182439327239990e-01 9.752014279365539551e-02
9.687830507755279541e-02 4.922208189964294434e-01 -6.097894534468650818e-02
8.620450645685195923e-02 3.555040955543518066e-01 -8.332726359367370605e-02
2.527781128883361816e-01 4.339965581893920898e-01 -2.310533821582794189e-01
-6.243671476840972900e-02 3.716038465499877930e-01 -4.706987366080284119e-02
2.894803881645202637e-01 5.066035985946655273e-01 -7.100549340248107910e-02
2.816402912139892578e-01 4.995062649250030518e-01 -2.292854487895965576e-01
4.957047104835510254e-02 4.222114384174346924e-01 -2.611116766929626465e-01
2.541065961122512817e-02 3.517777025699615479e-01 -1.227004602551460266e-01
1.578197628259658813e-01 4.731115102767944336e-01 1.860927790403366089e-01
2.251066565513610840e-01 4.433828294277191162e-01 -3.089488148689270020e-01
-9.927600622177124023e-04 4.291239678859710693e-01 1.990088969469070435e-01
2.098794877529144287e-01 5.133244991302490234e-01 1.157930865883827209e-02
1.592650711536407471e-01 4.001602828502655029e-01 -2.707813382148742676e-01
7.244482636451721191e-02 3.516217470169067383e-01 9.807251393795013428e-03
8.412519097328186035e-02 3.798508346080780029e-01 1.905730366706848145e-01
2.631338238716125488e-01 4.953992962837219238e-01 -2.635270357131958008e-01
1.564773917198181152e-01 5.000174641609191895e-01 8.582949638366699219e-02
4.754456877708435059e-02 4.718613326549530029e-01 -6.644128262996673584e-02
-5.100402235984802246e-02 3.481540679931640625e-01 1.795873045921325684e-02
-5.025592446327209473e-02 3.995298445224761963e-01 -6.928487122058868408e-02
4.913076758384704590e-03 3.813735544681549072e-01 -2.013987600803375244e-01
2.197757363319396973e-01 4.045399129390716553e-01 -7.274527847766876221e-02
2.318530976772308350e-01 4.132926464080810547e-01 -1.674816906452178955e-01
1.460406780242919922e-01 3.789856135845184326e-01 6.106194853782653809e-02
1.200272887945175171e-02 4.302619993686676025e-01 2.161735445261001587e-01
1.345894485712051392e-01 3.723296821117401123e-01 -1.504169106483459473e-01
1.435231119394302368e-01 3.755967020988464355e-01 3.864971548318862915e-02
2.037343382835388184e-01 5.079858899116516113e-01 5.323153734207153320e-02
9.970181435346603394e-02 3.601448237895965576e-01 3.675776720046997070e-02
2.762003540992736816e-01 4.415093660354614258e-01 -1.306761801242828369e-01
1.030349209904670715e-01 4.911113381385803223e-01 -1.164313629269599915e-01
1.626761704683303833e-01 5.059300661087036133e-01 -1.546833962202072144e-01
1.765632331371307373e-01 5.124433040618896484e-01 -1.027403324842453003e-01
1.847950816154479980e-01 4.333575367927551270e-01 -3.243439793586730957e-01
1.339348256587982178e-01 3.811960518360137939e-01 1.112205833196640015e-01
1.762070655822753906e-01 4.905531406402587891e-01 1.363493353128433228e-01
4.768411815166473389e-02 3.671643137931823730e-01 1.835545152425765991e-01
7.636146247386932373e-02 4.777685105800628662e-01 -1.409327685832977295e-01
1.076730638742446899e-01 3.658127188682556152e-01 -1.545549035072326660e-01
1.817860901355743408e-01 5.006719231605529785e-01 9.400844573974609375e-02
2.786205410957336426e-01 4.480727314949035645e-01 -1.940525174140930176e-01
