4.451376795768737793e-01 6.191411241888999939e-02 1.873783767223358154e-01
3.844445347785949707e-01 4.290951788425445557e-02 3.239507079124450684e-01
2.948901653289794922e-01 1.630806624889373779e-01 -1.009607464075088501e-01
4.004860222339630127e-01 1.076419353485107422e-01 2.546409666538238525e-01
3.109559416770935059e-01 5.782309174537658691e-02 2.846289053559303284e-02
4.192592501640319824e-01 2.593693882226943970e-02 1.692579090595245361e-01
3.976876139640808105e-01 1.020905971527099609e-01 -1.634577810764312744e-01
2.566121816635131836e-01 1.072424799203872681e-01 8.826491981744766235e-02
2.899609208106994629e-01 1.204328760504722595e-01 3.019983172416687012e-01
4.394326508045196533e-01 4.020211473107337952e-02 2.357532382011413574e-01
3.854213953018188477e-01 1.281024664640426636e-01 9.136565029621124268e-02
3.483818173408508301e-01 1.171847879886627197e-01 3.527787327766418457e-01
3.921235501766204834e-01 2.646416425704956055e-02 1.364451348781585693e-01
3.028417229652404785e-01 1.628654301166534424e-01 4.776976630091667175e-02
4.412623643875122070e-01 7.180736958980560303e-02 4.317615926265716553e-02
2.996757626533508301e-01 6.594345718622207642e-02 -2.587539702653884888e-02
3.401302993297576904e-01 1.511079668998718262e-01 8.596430718898773193e-02
2.659904360771179199e-01 1.016603633761405945e-01 -1.511074155569076538e-01
2.794290781021118164e-01 1.617625653743743896e-01 -1.441374421119689941e-01
3.952557742595672607e-01 1.217424869537353516e-01 5.862287431955337524e-02
2.399223893880844116e-01 1.397632658481597900e-01 -4.526574909687042236e-02
3.475226759910583496e-01 1.400188952684402466e-01 -1.660478711128234863e-01
2.965865433216094971e-01 1.126300692558288574e-01 3.212952613830566406e-01
2.810684442520141602e-01 1.539788842201232910e-01 -2.100506871938705444e-01
3.280510306358337402e-01 4.840268939733505249e-02 8.828037977218627930e-02
3.543066084384918213e-01 1.389725506305694580e-01 -1.398008018732070923e-01
2.795313894748687744e-01 9.437137097120285034e-02 2.147713750600814819e-01
3.090430498123168945e-01 1.601556837558746338e-01 8.904173970222473145e-02
4.262074530124664307e-01 2.858268469572067261e-02 4.600461572408676147e-02
3.777321279048919678e-01 1.127003505825996399e-01 3.189073204994201660e-01
3.169256150722503662e-01 5.933689698576927185e-02 -9.491030871868133545e-02
4.107315242290496826e-01 2.489160746335983276e-02 9.073362499475479126e-02
3.588114976882934570e-01 3.795178979635238647e-02 -3.130155801773071289e-02
2.897948026657104492e-01 7.387197017669677734e-02 -5.609548091888427734e-02
3.725303411483764648e-01 1.362371891736984253e-01 1.659690402448177338e-02
4.212454855442047119e-01 9.078156203031539917e-02 -6.490597128868103027e-02
4.482735097408294678e-01 5.230484530329704285e-02 1.605691313743591309e-01
2.738639116287231445e-01 8.547346293926239014e-02 -2.182903140783309937e-02
4.207780063152313232e-01 3.591699153184890747e-02 -4.893108457326889038e-02
3.922691643238067627e-01 3.630109131336212158e-02 2.898644804954528809e-01
4.414151906967163086e-01 7.321633398532867432e-02 1.533409357070922852e-01
2.992427945137023926e-01 1.521468013525009155e-01 2.005382031202316284e-01
2.965890765190124512e-01 1.644148230552673340e-01 2.522049471735954285e-02
3.860310912132263184e-01 8.929015696048736572e-02 3.828385472297668457e-01
3.093578219413757324e-01 1.562719345092773438e-01 1.503889858722686768e-01
2.960869073867797852e-01 1.425790786743164062e-01 2.566456198692321777e-01
3.113188743591308594e-01 7.009036839008331299e-02 -1.746765673160552979e-01
4.167669415473937988e-01 3.029558062553405762e-02 2.436386197805404663e-01
3.977892398834228516e-01 4.348811507225036621e-02 -1.351442039012908936e-01
3.438511490821838379e-01 1.077185422182083130e-01 3.800771236419677734e-01
4.260376393795013428e-01 4.768820479512214661e-02 3.153314590454101562e-01
3.264400660991668701e-01 6.182823330163955688e-02 2.747008800506591797e-01
2.806287407875061035e-01 8.331015706062316895e-02 1.346029937267303467e-01
3.471433520317077637e-01 1.358642280101776123e-01 2.556505203247070312e-01
3.349247276782989502e-01 6.617514789104461670e-02 -2.197856456041336060e-01
2.752050459384918213e-01 1.486724764108657837e-01 1.968563795089721680e-01
3.365381658077239990e-01 1.217145472764968872e-01 -2.872062325477600098e-01
2.741134166717529297e-01 1.474222242832183838e-01 -2.351940125226974487e-01
3.836645483970642090e-01 3.531088307499885559e-02 2.658594846725463867e-01
4.019538462162017822e-01 3.560572862625122070e-02 -7.918255031108856201e-02
4.275255501270294189e-01 3.473502025008201599e-02 -1.700640469789505005e-02
3.917174339294433594e-01 8.148529380559921265e-02 -2.299375683069229126e-01
3.651321232318878174e-01 1.374152749776840210e-01 -7.711803913116455078e-02
3.590931892395019531e-01 4.630493000149726868e-02 -1.338684111833572388e-01
3.797500729560852051e-01 8.738622814416885376e-02 -2.560390830039978027e-01
3.578602671623229980e-01 3.872163593769073486e-02 2.025595009326934814e-01
4.356513321399688721e-01 5.239003151655197144e-02 -5.138970911502838135e-02
2.667993903160095215e-01 9.196311235427856445e-02 2.382471412420272827e-02
3.028545975685119629e-01 8.131331205368041992e-02 2.782803177833557129e-01
3.162235319614410400e-01 7.282689958810806274e-02 2.955139875411987305e-01
3.796711564064025879e-01 1.200566068291664124e-01 2.637379467487335205e-01
2.655476331710815430e-01 1.644174307584762573e-01 1.967207528650760651e-02
3.452309966087341309e-01 1.483894884586334229e-01 -6.546264141798019409e-02
3.874296247959136963e-01 3.058032691478729248e-02 2.186557948589324951e-01
2.782110571861267090e-01 8.323536813259124756e-02 9.763956069946289062e-02
3.018365502357482910e-01 7.787076383829116821e-02 2.549047768115997314e-01
2.723215222358703613e-01 8.753406256437301636e-02 6.793130189180374146e-02
4.044033288955688477e-01 8.121062815189361572e-02 3.616803884506225586e-01
4.284130930900573730e-01 9.079407900571823120e-02 1.547340899705886841e-01
3.276699483394622803e-01 4.843425750732421875e-02 5.270659551024436951e-02
3.269050717353820801e-01 1.441095173358917236e-01 -2.111309915781021118e-01
3.698608577251434326e-01 1.146072968840599060e-01 -2.292081564664840698e-01
3.611837327480316162e-01 1.391780376434326172e-01 1.529274880886077881e-01
3.019942939281463623e-01 9.273458272218704224e-02 -2.653359770774841309e-01
2.567150592803955078e-01 1.038455441594123840e-01 -4.848333448171615601e-02
3.581661283969879150e-01 1.350866109132766724e-01 2.241216748952865601e-01
3.058891594409942627e-01 6.972340494394302368e-02 2.203450947999954224e-01
3.128653764724731445e-01 1.612295508384704590e-01 -2.724976837635040283e-02
4.118974804878234863e-01 9.281272441148757935e-02 2.917500734329223633e-01
3.106793165206909180e-01 1.346341371536254883e-01 2.990204691886901855e-01
3.267958760261535645e-01 9.339448064565658569e-02 -3.007059097290039062e-01
4.139033555984497070e-01 1.018768623471260071e-01 -4.335329681634902954e-02
2.880341708660125732e-01 1.076410710811614990e-01 -2.741094231605529785e-01
3.525004982948303223e-01 1.278743743896484375e-01 -2.285113483667373657e-01
3.010451495647430420e-01 6.944971531629562378e-02 -1.080318093299865723e-01
3.069161176681518555e-01 1.143360957503318787e-01 3.416604995727539062e-01
2.749755680561065674e-01 8.724437654018402100e-02 -8.735920488834381104e-02
3.187872469425201416e-01 1.568935513496398926e-01 1.105383709073066711e-01
2.616551518440246582e-01 1.249539032578468323e-01 -2.229671925306320190e-01
3.337207734584808350e-01 8.101002871990203857e-02 -2.777140736579895020e-01
4.086540937423706055e-01 2.667559683322906494e-02 1.966156959533691406e-01
4.209154844284057617e-01 6.720132380723953247e-02 3.371011018753051758e-01
4.263989329338073730e-01 6.336128711700439453e-02 -1.092398315668106079e-01
2.459701299667358398e-01 1.293372511863708496e-01 8.163671940565109253e-02
3.138329982757568359e-01 1.611055433750152588e-01 7.707029581069946289e-04
4.423013329505920410e-01 7.146832346916198730e-02 6.534807384014129639e-02
2.809564173221588135e-01 1.662501543760299683e-01 -1.030602678656578064e-02
3.478644490242004395e-01 5.296708643436431885e-02 3.004125356674194336e-01
3.650360107421875000e-01 1.352153122425079346e-01 -1.105275601148605347e-01
3.682343065738677979e-01 3.415551409125328064e-02 -9.975299239158630371e-03
2.445329725742340088e-01 1.543557643890380859e-01 -2.485890686511993408e-02
3.173016905784606934e-01 5.759693682193756104e-02 1.717243492603302002e-01
3.839910924434661865e-01 2.793338149785995483e-02 7.227352261543273926e-02
3.331254422664642334e-01 1.281841546297073364e-01 3.220493793487548828e-01
2.722277045249938965e-01 8.801633119583129883e-02 -5.583193153142929077e-02
3.921202421188354492e-01 7.070407271385192871e-02 3.930056691169738770e-01
3.506207466125488281e-01 1.471081078052520752e-01 -2.617089450359344482e-02
2.924005389213562012e-01 8.418169617652893066e-02 -1.913177669048309326e-01
3.543708026409149170e-01 7.074604928493499756e-02 3.855258822441101074e-01
3.908629119396209717e-01 2.732070535421371460e-02 4.563623666763305664e-02
2.997387349605560303e-01 7.350900769233703613e-02 -1.444238722324371338e-01
3.126546144485473633e-01 1.602560877799987793e-01 -7.271239161491394043e-02
4.402915835380554199e-01 3.502173721790313721e-02 6.508757174015045166e-02
3.542959690093994141e-01 1.287516951560974121e-01 2.877674996852874756e-01
3.394346237182617188e-01 5.409141629934310913e-02 -1.482780277729034424e-01
2.786945700645446777e-01 1.002927795052528381e-01 2.357346415519714355e-01
3.618195652961730957e-01 4.359631612896919250e-02 2.775456905364990234e-01
2.692987918853759766e-01 1.224867701530456543e-01 -2.482348233461380005e-01
3.581709265708923340e-01 5.907477810978889465e-02 -2.147661298513412476e-01
2.573307454586029053e-01 1.037593111395835876e-01 5.400523543357849121e-02
3.643235862255096436e-01 4.150842875242233276e-02 -1.005640923976898193e-01
3.925432264804840088e-01 1.202834099531173706e-01 1.730999201536178589e-01
3.541389107704162598e-01 1.458737254142761230e-01 9.234994649887084961e-06
2.883383631706237793e-01 9.776072949171066284e-02 2.748985588550567627e-01
4.041664600372314453e-01 1.147678643465042114e-01 9.808497875928878784e-02
3.382443189620971680e-01 4.827236384153366089e-02 -7.894398272037506104e-02
4.230340719223022461e-01 9.696029871702194214e-02 3.163076192140579224e-02
2.524944841861724854e-01 1.265047192573547363e-01 1.389730572700500488e-01
2.809572815895080566e-01 8.971725404262542725e-02 -1.675482392311096191e-01
4.162120819091796875e-01 6.378274410963058472e-02 -1.528221219778060913e-01
2.792945504188537598e-01 1.653958559036254883e-01 -8.004313707351684570e-02
3.863650858402252197e-01 1.213218271732330322e-01 2.134152352809906006e-01
3.500276803970336914e-01 4.073371738195419312e-02 1.800168454647064209e-01
2.605128586292266846e-01 1.494174897670745850e-01 1.480277180671691895e-01
4.375778734683990479e-01 3.978419303894042969e-02 2.320215106010437012e-03
2.682629823684692383e-01 1.581800729036331177e-01 -1.693499088287353516e-01
3.619996905326843262e-01 1.416163444519042969e-01 7.974250614643096924e-02
3.660253286361694336e-01 1.383988559246063232e-01 1.191364526748657227e-01
3.512137532234191895e-01 1.007376089692115784e-01 -2.970051169395446777e-01
3.523588478565216064e-01 6.655514985322952271e-02 -2.429790049791336060e-01
4.221132695674896240e-01 9.186998009681701660e-02 2.277191281318664551e-01
3.397451043128967285e-01 5.104527249932289124e-02 -1.201285272836685181e-01
2.459040284156799316e-01 1.507997065782546997e-01 -1.160933524370193481e-01
4.144226014614105225e-01 8.914170414209365845e-02 -1.242377460002899170e-01
2.534200251102447510e-01 1.560013890266418457e-01 -1.364648789167404175e-01
3.172400891780853271e-01 1.446743458509445190e-01 -2.307333201169967651e-01
3.705574572086334229e-01 1.078817546367645264e-01 3.567147850990295410e-01
2.752827703952789307e-01 1.586668789386749268e-01 1.290983855724334717e-01
2.521424293518066406e-01 1.450385451316833496e-01 1.229598596692085266e-01
2.549388110637664795e-01 1.620526015758514404e-01 -5.252783745527267456e-02
4.388871192932128906e-01 3.218813985586166382e-02 1.601788103580474854e-01
3.151228725910186768e-01 7.660599052906036377e-02 -2.293607741594314575e-01
2.947776317596435547e-01 9.786804765462875366e-02 3.008743524551391602e-01
2.612051367759704590e-01 1.144165098667144775e-01 1.747872680425643921e-01
4.195883572101593018e-01 9.823311865329742432e-02 1.832631230354309082e-01
2.723829448223114014e-01 1.642935276031494141e-01 -1.024751663208007812e-01
2.944806814193725586e-01 7.253059744834899902e-02 1.521151959896087646e-01
4.175403118133544922e-01 3.383783623576164246e-02 2.734385728836059570e-01
3.937858641147613525e-01 3.279625624418258667e-02 -5.365407466888427734e-02
3.209232091903686523e-01 5.363225564360618591e-02 -2.919506281614303589e-02
2.934716641902923584e-01 7.010918110609054565e-02 8.719047158956527710e-02
6.068420410156250000e-01 -1.151354610919952393e-01 2.598828375339508057e-01
5.063104629516601562e-01 -5.664181709289550781e-02 -1.109169423580169678e-02
5.813723802566528320e-01 -1.944858133792877197e-01 -8.098014444112777710e-02
5.571052432060241699e-01 -1.524280309677124023e-01 1.980038881301879883e-01
4.125897884368896484e-01 -1.600391417741775513e-01 3.392715007066726685e-03
5.083677768707275391e-01 -5.515282601118087769e-02 1.094977930188179016e-01
4.003327488899230957e-01 -1.530603170394897461e-01 -9.729861468076705933e-02
5.569385886192321777e-01 -2.050352096557617188e-01 1.100061647593975067e-02
5.896443724632263184e-01 -4.079973697662353516e-02 6.585124880075454712e-03
7.062598466873168945e-01 -7.513092458248138428e-02 3.593785688281059265e-02
5.453469157218933105e-01 -1.987836062908172607e-01 -1.175618097186088562e-01
6.248513460159301758e-01 -1.603422164916992188e-01 1.844828128814697266e-01
5.004023313522338867e-01 -1.104764118790626526e-01 1.857501268386840820e-01
4.823623895645141602e-01 -7.434275746345520020e-02 1.162607446312904358e-01
5.708875060081481934e-01 -1.304989904165267944e-01 2.330276370048522949e-01
6.235121488571166992e-01 -1.736564338207244873e-01 -7.306974381208419800e-02
7.202892899513244629e-01 -1.169583275914192200e-01 1.765649020671844482e-01
4.301399588584899902e-01 -1.961826980113983154e-01 -6.306080520153045654e-02
4.260095953941345215e-01 -1.908270120620727539e-01 -4.079870134592056274e-02
4.784505963325500488e-01 -2.098323106765747070e-01 -8.734095841646194458e-02
6.778409481048583984e-01 -1.413525640964508057e-01 -2.234233915805816650e-02
6.524184942245483398e-01 -2.725622057914733887e-02 1.260842978954315186e-01
5.000619292259216309e-01 -1.518061012029647827e-01 1.593475788831710815e-01
6.307573914527893066e-01 -5.054961144924163818e-02 2.576653957366943359e-01
7.367283701896667480e-01 -8.987966179847717285e-02 1.610523015260696411e-01
6.562862992286682129e-01 -1.595975458621978760e-01 1.601158976554870605e-01
5.847149491310119629e-01 -7.834864407777786255e-02 2.582219243049621582e-01
4.689037799835205078e-01 -7.091453671455383301e-02 3.692650422453880310e-02
4.614120721817016602e-01 -1.955851912498474121e-01 1.913778856396675110e-02
6.538136005401611328e-01 -1.731396466493606567e-01 8.043095469474792480e-02
5.825067162513732910e-01 -1.649591326713562012e-01 1.801493465900421143e-01
6.316521763801574707e-01 -3.265482932329177856e-02 2.109540700912475586e-01
6.050576567649841309e-01 -3.734890371561050415e-02 2.107821404933929443e-01
5.727625489234924316e-01 -1.757603585720062256e-01 1.515614986419677734e-01
6.118980646133422852e-01 -1.916301995515823364e-01 -3.249015659093856812e-03
5.787238478660583496e-01 -1.991837620735168457e-01 -5.732838809490203857e-02
5.026401281356811523e-01 -6.488704681396484375e-02 1.373327970504760742e-01
4.718865752220153809e-01 -1.943197250366210938e-01 3.837545961141586304e-02
7.207532525062561035e-01 -9.679191559553146362e-02 5.687326192855834961e-02
5.972356796264648438e-01 -5.647575482726097107e-02 2.478648722171783447e-01
5.151181817054748535e-01 -4.963777959346771240e-02 8.858495950698852539e-02
4.910802245140075684e-01 -1.600796431303024292e-01 1.390118300914764404e-01
5.473015308380126953e-01 -3.893271088600158691e-02 5.881645530462265015e-02
4.407618045806884766e-01 -1.331111937761306763e-01 -1.665983498096466064e-01
4.459334611892700195e-01 -1.473807096481323242e-01 9.286409616470336914e-02
6.829067468643188477e-01 -1.374760717153549194e-01 1.983467936515808105e-01
4.826595187187194824e-01 -1.062869876623153687e-01 -1.542247235774993896e-01
4.572670161724090576e-01 -9.911830723285675049e-02 -1.183510497212409973e-01
5.917969346046447754e-01 -1.036547273397445679e-01 -1.324417293071746826e-01
5.753652453422546387e-01 -4.272901266813278198e-02 1.963957548141479492e-01
4.868573844432830811e-01 -6.549091637134552002e-02 -2.659469097852706909e-02
4.623498320579528809e-01 -1.686294376850128174e-01 9.131702035665512085e-02
5.897640585899353027e-01 -5.081566423177719116e-02 -3.254842013120651245e-02
5.454559922218322754e-01 -1.908722072839736938e-01 -1.412851512432098389e-01
6.375644207000732422e-01 -1.454272270202636719e-01 2.157507836818695068e-01
6.076558828353881836e-01 -8.417342603206634521e-02 2.719577252864837646e-01
6.632975339889526367e-01 -1.190988644957542419e-01 2.517993152141571045e-01
6.003897190093994141e-01 -1.815895587205886841e-01 -9.385130554437637329e-02
6.088951230049133301e-01 -8.340245485305786133e-02 -9.633041173219680786e-02
5.188539028167724609e-01 -1.264194548130035400e-01 -1.825424432754516602e-01
5.830826759338378906e-01 -2.005385607481002808e-01 -1.871138811111450195e-02
7.039805650711059570e-01 -1.254234910011291504e-01 1.967793703079223633e-01
6.507819294929504395e-01 -1.660420149564743042e-01 1.402681469917297363e-01
7.294055223464965820e-01 -8.043061196804046631e-02 2.163693308830261230e-01
7.175335288047790527e-01 -5.023662000894546509e-02 1.313922107219696045e-01
4.596061110496520996e-01 -1.333713680505752563e-01 -1.805024445056915283e-01
4.039288759231567383e-01 -1.373242735862731934e-01 -3.359726816415786743e-02
7.305070161819458008e-01 -9.325753152370452881e-02 9.525394439697265625e-02
6.984258890151977539e-01 -1.434918940067291260e-01 1.307520866394042969e-01
6.554167270660400391e-01 -4.614937305450439453e-02 2.282880432903766632e-02
4.000234603881835938e-01 -1.459838300943374634e-01 -6.687532365322113037e-02
6.291263699531555176e-01 -1.074034944176673889e-01 2.695515453815460205e-01
5.392138361930847168e-01 -1.220711097121238708e-01 2.205616235733032227e-01
6.068114042282104492e-01 -2.802827954292297363e-02 1.537365615367889404e-01
5.471733212471008301e-01 -1.074140518903732300e-01 -1.577900350093841553e-01
6.510604619979858398e-01 -5.882966145873069763e-02 -1.610808074474334717e-02
7.006387710571289062e-01 -4.728889465332031250e-02 9.012347459793090820e-02
6.042266488075256348e-01 -1.842259764671325684e-01 1.102798879146575928e-01
6.125944852828979492e-01 -1.124006658792495728e-01 -1.232683584094047546e-01
5.743096470832824707e-01 -1.126092299818992615e-01 2.489665746688842773e-01
4.124848544597625732e-01 -1.268410384654998779e-01 -1.011136248707771301e-01
5.157697200775146484e-01 -7.067872583866119385e-02 1.766831278800964355e-01
6.924111843109130859e-01 -1.496708840131759644e-01 6.741765886545181274e-02
6.907140612602233887e-01 -6.846953928470611572e-02 1.688853837549686432e-02
6.593213081359863281e-01 -2.719044685363769531e-02 1.592416316270828247e-01
6.686036586761474609e-01 -1.299158781766891479e-01 2.307736575603485107e-01
5.412895083427429199e-01 -6.085916608572006226e-02 -6.388724595308303833e-02
5.211684703826904297e-01 -7.694415748119354248e-02 -1.051811650395393372e-01
6.892932653427124023e-01 -1.524837315082550049e-01 9.519918262958526611e-02
4.585923850536346436e-01 -8.983471989631652832e-02 -9.016471356153488159e-02
4.898918271064758301e-01 -1.835694015026092529e-01 9.064937382936477661e-02
4.552875757217407227e-01 -2.062550783157348633e-01 -8.450863510370254517e-02
5.823173522949218750e-01 -1.545797884464263916e-01 2.020674943923950195e-01
6.756550669670104980e-01 -5.184031277894973755e-02 2.620681226253509521e-01
4.233740568161010742e-01 -1.234007179737091064e-01 -1.245284005999565125e-01
4.327008128166198730e-01 -1.479351520538330078e-01 6.680057942867279053e-02
6.194167733192443848e-01 -4.119419306516647339e-02 1.249557547271251678e-02
5.648541450500488281e-01 -3.451622277498245239e-02 7.209788262844085693e-02
7.038798332214355469e-01 -1.172970682382583618e-01 1.563092507421970367e-02
7.113131284713745117e-01 -9.108852595090866089e-02 2.456041574478149414e-01
4.999248683452606201e-01 -1.967541277408599854e-01 5.691168084740638733e-02
6.861798167228698730e-01 -5.569750070571899414e-02 3.635233640670776367e-02
6.127302050590515137e-01 -3.142964094877243042e-02 6.097312271595001221e-02
4.250980019569396973e-01 -1.098769083619117737e-01 -8.508905023336410522e-02
6.083152890205383301e-01 -4.728005826473236084e-02 -1.487894728779792786e-02
7.094535231590270996e-01 -1.354591101408004761e-01 9.541255235671997070e-02
4.538909792900085449e-01 -8.231945335865020752e-02 -3.627315908670425415e-02
5.359385609626770020e-01 -4.475015401840209961e-02 2.078408561646938324e-02
4.020485877990722656e-01 -1.603396981954574585e-01 -4.480491578578948975e-02
5.078297257423400879e-01 -2.106786817312240601e-01 -3.081422299146652222e-02
5.476951003074645996e-01 -2.047461867332458496e-01 -8.292663842439651489e-02
6.612354516983032227e-01 -1.431845426559448242e-01 -5.593735724687576294e-02
5.740096569061279297e-01 -1.938252151012420654e-01 8.253465592861175537e-02
5.681156516075134277e-01 -2.015422880649566650e-01 3.372606635093688965e-02
6.962579488754272461e-01 -3.682717680931091309e-02 1.393106430768966675e-01
4.073677062988281250e-01 -1.586730182170867920e-01 -1.342857182025909424e-01
4.550513625144958496e-01 -1.525421738624572754e-01 -1.909777820110321045e-01
4.668356776237487793e-01 -2.076483815908432007e-01 -4.858639091253280640e-02
4.838259518146514893e-01 -1.232634335756301880e-01 1.628766655921936035e-01
5.510765314102172852e-01 -6.749862432479858398e-02 2.199610471725463867e-01
7.144986391067504883e-01 -4.766021668910980225e-02 2.083024382591247559e-01
6.783422827720642090e-01 -6.763879954814910889e-02 -8.915476500988006592e-04
6.886373758316040039e-01 -8.487068116664886475e-02 -8.872006088495254517e-03
4.467050433158874512e-01 -8.508877456188201904e-02 -8.988112211227416992e-03
5.862138271331787109e-01 -1.365358084440231323e-01 -1.537661254405975342e-01
5.925208926200866699e-01 -3.108231723308563232e-02 6.941228359937667847e-02
5.046915411949157715e-01 -2.067962586879730225e-01 8.186392486095428467e-03
5.046306252479553223e-01 -5.340790003538131714e-02 3.063422627747058868e-02
5.265256166458129883e-01 -5.228815972805023193e-02 -1.729181408882141113e-02
6.406788229942321777e-01 -1.307554394006729126e-01 2.420615851879119873e-01
5.225644111633300781e-01 -7.890087366104125977e-02 1.982191503047943115e-01
7.035031318664550781e-01 -1.153076961636543274e-01 2.224626243114471436e-01
5.940909981727600098e-01 -1.769265979528427124e-01 1.453920304775238037e-01
4.587976634502410889e-01 -7.671824097633361816e-02 7.323086261749267578e-03
5.860369205474853516e-01 -4.819245636463165283e-02 2.237051129341125488e-01
5.452858209609985352e-01 -1.441011279821395874e-01 -1.813177466392517090e-01
4.969581663608551025e-01 -9.473422914743423462e-02 -1.381108164787292480e-01
7.077351808547973633e-01 -6.362450867891311646e-02 5.913565307855606079e-02
4.259244501590728760e-01 -1.126319542527198792e-01 3.464743122458457947e-02
4.824644625186920166e-01 -2.074556797742843628e-01 -1.715719327330589294e-02
7.295178174972534180e-01 -9.541679918766021729e-02 2.005273699760437012e-01
4.943216741085052490e-01 -1.421422958374023438e-01 -1.945604681968688965e-01
5.289834737777709961e-01 -1.953498572111129761e-01 7.809697091579437256e-02
4.604110121726989746e-01 -1.071904078125953674e-01 -1.413821876049041748e-01
4.334070682525634766e-01 -9.626063704490661621e-02 -3.471231460571289062e-02
4.186412692070007324e-01 -1.425342559814453125e-01 3.454108908772468567e-02
6.555356383323669434e-01 -7.038827985525131226e-02 -3.447518497705459595e-02
5.812488794326782227e-01 -7.437331229448318481e-02 -9.550959616899490356e-02
6.129326224327087402e-01 -1.914779543876647949e-01 2.764644473791122437e-02
5.387865900993347168e-01 -2.033648788928985596e-01 3.856112062931060791e-02
6.452511548995971680e-01 -3.009349852800369263e-02 8.750873059034347534e-02
6.414678096771240234e-01 -8.508630096912384033e-02 -7.105048745870590210e-02
4.201615750789642334e-01 -1.846521645784378052e-01 -1.380337774753570557e-01
6.179992556571960449e-01 -5.667650699615478516e-02 -3.761779516935348511e-02
6.793156862258911133e-01 -1.583980470895767212e-01 4.642513394355773926e-02
6.751729846000671387e-01 -9.183240681886672974e-02 -3.656879812479019165e-02
4.917375147342681885e-01 -5.892847850918769836e-02 5.695355683565139771e-02
4.991275668144226074e-01 -6.516379117965698242e-02 -4.866405576467514038e-02
5.378097295761108398e-01 -1.806544959545135498e-01 1.300767958164215088e-01
6.398932933807373047e-01 -3.457421809434890747e-02 5.516081675887107849e-02
6.784471869468688965e-01 -3.913182020187377930e-02 2.333493828773498535e-01
5.652136206626892090e-01 -8.434736728668212891e-02 -1.194949671626091003e-01
6.492559313774108887e-01 -3.517912328243255615e-02 2.264514267444610596e-01
4.510384202003479004e-01 -1.850119233131408691e-01 -1.753700971603393555e-01
5.184413790702819824e-01 -6.589269638061523438e-02 -7.054843008518218994e-02
4.344842135906219482e-01 -1.785790473222732544e-01 2.467081323266029358e-02
6.773453354835510254e-01 -1.562944799661636353e-01 1.919967867434024811e-02
6.749207377433776855e-01 -4.037270694971084595e-02 6.869415193796157837e-02
5.447139739990234375e-01 -4.773613065481185913e-02 1.656807363033294678e-01
5.422378182411193848e-01 -7.220765203237533569e-02 -9.698291867971420288e-02
5.686042904853820801e-01 -4.510468244552612305e-02 -1.038764417171478271e-02
6.196919679641723633e-01 -1.514749079942703247e-01 -1.141022220253944397e-01
4.597081542015075684e-01 -1.382797211408615112e-01 1.219350993633270264e-01
5.829004049301147461e-01 -3.028429299592971802e-02 1.092985868453979492e-01
6.042250394821166992e-01 -1.925114542245864868e-01 -3.299465030431747437e-02
6.554452180862426758e-01 -1.733892858028411865e-01 5.451329797506332397e-02
6.225300431251525879e-01 -1.827924549579620361e-01 9.457933902740478516e-02
4.471890330314636230e-01 -8.674202859401702881e-02 3.383243829011917114e-02
4.997456967830657959e-01 -1.767906546592712402e-01 1.159408316016197205e-01
4.114037156105041504e-01 -1.818538904190063477e-01 -1.142969205975532532e-01
6.553599834442138672e-01 -1.630569398403167725e-01 -2.966345846652984619e-02
6.404529809951782227e-01 -1.785403788089752197e-01 -2.317219972610473633e-03
6.338245272636413574e-01 -3.801812976598739624e-02 3.425808623433113098e-02
4.559432864189147949e-01 -1.054452061653137207e-01 1.111602261662483215e-01
6.446627974510192871e-01 -1.530658900737762451e-01 -7.418449968099594116e-02
6.036946773529052734e-01 -1.615377664566040039e-01 -1.250885725021362305e-01
5.166791677474975586e-01 -4.813967645168304443e-02 5.837455391883850098e-02
4.426436424255371094e-01 -1.011112108826637268e-01 -1.004319414496421814e-01
5.767329931259155273e-01 -1.608038097620010376e-01 -1.546267271041870117e-01
4.256467223167419434e-01 -1.048044934868812561e-01 -5.694815516471862793e-02
6.372166872024536133e-01 -1.810661554336547852e-01 6.557963043451309204e-02
6.431222558021545410e-01 -2.711591869592666626e-02 1.763439476490020752e-01
4.384896755218505859e-01 -2.000989764928817749e-01 -1.094326153397560120e-01
6.922541856765747070e-01 -1.112962439656257629e-01 -1.445048674941062927e-02
5.456296205520629883e-01 -3.911731392145156860e-02 1.045527160167694092e-01
6.968423724174499512e-01 -8.236791193485260010e-02 2.654903233051300049e-01
6.282960176467895508e-01 -1.740042716264724731e-01 1.342538595199584961e-01
4.972898364067077637e-01 -2.044514268636703491e-01 -1.315473020076751709e-01
4.969829618930816650e-01 -8.476883172988891602e-02 -1.150732710957527161e-01
4.801176786422729492e-01 -9.318782389163970947e-02 1.469375193119049072e-01
4.893442690372467041e-01 -7.688334584236145020e-02 -8.527419716119766235e-02
6.766718626022338867e-01 -3.235339373350143433e-02 1.186689808964729309e-01
6.759796738624572754e-01 -1.585563570261001587e-01 1.199620962142944336e-01
5.793343782424926758e-01 -3.624096512794494629e-02 1.740081310272216797e-01
5.537854433059692383e-01 -2.068923413753509521e-01 -2.169784903526306152e-02
4.219220280647277832e-01 -1.096012592315673828e-01 2.693027257919311523e-03
4.481978416442871094e-01 -9.304878860712051392e-02 6.807141005992889404e-02
5.608463287353515625e-01 -1.322689205408096313e-01 -1.702499687671661377e-01
6.004925370216369629e-01 -1.245580762624740601e-01 -1.394656002521514893e-01
5.590597987174987793e-01 -6.539054214954376221e-02 -7.959993928670883179e-02
5.375930666923522949e-01 -1.418250501155853271e-01 2.018854618072509766e-01
7.292920351028442383e-01 -6.961540877819061279e-02 1.127284839749336243e-01
4.768211245536804199e-01 -7.234156131744384766e-02 -4.526606947183609009e-02
5.283436775207519531e-01 -1.809613406658172607e-01 -1.717599928379058838e-01
5.627070069313049316e-01 -5.081931501626968384e-02 -3.313680738210678101e-02
4.071218073368072510e-01 -1.269918978214263916e-01 -5.352950841188430786e-02
4.543880820274353027e-01 -1.784334629774093628e-01 6.028834730386734009e-02
6.214624643325805664e-01 5.186367034912109375e-02 1.826539263129234314e-02
5.299576520919799805e-01 1.033654622733592987e-02 4.766867160797119141e-01
4.402907490730285645e-01 1.111845858395099640e-02 4.022592604160308838e-01
4.197464287281036377e-01 2.014908473938703537e-03 3.708897233009338379e-01
4.238600134849548340e-01 6.999535020440816879e-03 3.274292349815368652e-01
4.743399024009704590e-01 1.712730154395103455e-02 -3.074383139610290527e-01
6.271791458129882812e-01 2.822581119835376740e-02 -2.983069792389869690e-02
4.706613123416900635e-01 -7.352957874536514282e-02 5.176802724599838257e-02
6.229251027107238770e-01 1.565884426236152649e-02 -8.458536863327026367e-02
4.710879921913146973e-01 -5.762760713696479797e-02 -1.914484202861785889e-01
5.662989020347595215e-01 -1.533343270421028137e-02 2.912544310092926025e-01
4.638007283210754395e-01 3.485994786024093628e-02 8.669394999742507935e-02
4.939639568328857422e-01 -6.358518451452255249e-02 3.086987137794494629e-01
5.776030421257019043e-01 -1.942128874361515045e-02 -2.509121596813201904e-01
4.268618524074554443e-01 9.340520948171615601e-03 5.646031349897384644e-03
4.901104569435119629e-01 -4.033639281988143921e-02 5.319254398345947266e-01
4.265975952148437500e-01 -7.412252575159072876e-02 -3.705602139234542847e-03
5.232997536659240723e-01 -4.180265218019485474e-02 -2.616595625877380371e-01
5.653637647628784180e-01 -3.077616356313228607e-02 -1.619461029767990112e-01
5.670258402824401855e-01 -1.252801157534122467e-04 -4.533633887767791748e-01
5.179022550582885742e-01 -4.422378540039062500e-02 3.877308666706085205e-01
4.586238861083984375e-01 9.816070087254047394e-04 -3.003247678279876709e-01
4.286651015281677246e-01 -8.310535550117492676e-02 3.050144314765930176e-01
5.902791619300842285e-01 6.610350683331489563e-04 2.064996808767318726e-01
5.380405187606811523e-01 6.357375532388687134e-02 -1.154013872146606445e-01
4.963562190532684326e-01 4.804286360740661621e-02 -1.061444133520126343e-01
4.042954146862030029e-01 -7.004374172538518906e-03 3.390204310417175293e-01
4.279252290725708008e-01 -7.776023447513580322e-02 4.382501542568206787e-01
4.056619405746459961e-01 -6.368639320135116577e-02 -3.368712589144706726e-02
5.773748159408569336e-01 6.895436346530914307e-02 -9.837742894887924194e-03
5.467504858970642090e-01 -4.316258430480957031e-02 -7.338669896125793457e-02
5.071582198143005371e-01 -2.568875811994075775e-02 -3.910347819328308105e-01
4.947943091392517090e-01 4.918462038040161133e-02 1.045788452029228210e-02
4.436877369880676270e-01 -3.588792309165000916e-02 -2.618930637836456299e-01
4.761863946914672852e-01 2.426141686737537384e-02 -2.720629274845123291e-01
4.650633931159973145e-01 2.767715789377689362e-02 -1.578584462404251099e-01
4.539909064769744873e-01 -3.219256550073623657e-02 6.132109165191650391e-01
5.418568253517150879e-01 -4.014944657683372498e-02 2.507596611976623535e-01
6.326215267181396484e-01 3.423639014363288879e-02 -9.532454609870910645e-02
4.427109360694885254e-01 2.187770046293735504e-02 2.844087406992912292e-02
5.997689366340637207e-01 -4.442234057933092117e-03 -2.563425004482269287e-01
4.715312719345092773e-01 -7.185041904449462891e-02 3.263550102710723877e-01
5.899700522422790527e-01 -1.323163323104381561e-02 7.222443819046020508e-02
4.631194174289703369e-01 -5.432642996311187744e-02 -2.165929079055786133e-01
5.263990759849548340e-01 -2.674590982496738434e-02 -3.767474293708801270e-01
5.445692539215087891e-01 5.125807970762252808e-02 -3.779751360416412354e-01
4.337872564792633057e-01 -6.554473936557769775e-02 5.423927307128906250e-01
4.555751085281372070e-01 4.927060101181268692e-03 -2.707221508026123047e-01
4.756494164466857910e-01 -6.139878556132316589e-02 -1.494847089052200317e-01
5.805299878120422363e-01 -3.242067992687225342e-03 -3.992529511451721191e-01
5.408595204353332520e-01 4.543998837471008301e-02 3.021569848060607910e-01
5.010394454002380371e-01 5.160427466034889221e-02 -2.262378111481666565e-02
5.378579497337341309e-01 -4.532295837998390198e-02 -1.302219480276107788e-01
6.043769121170043945e-01 3.155625611543655396e-02 1.803890615701675415e-01
4.221254885196685791e-01 -7.250363472849130630e-03 -1.199213117361068726e-01
4.043606817722320557e-01 -8.054041862487792969e-02 4.217596054077148438e-01
4.152099490165710449e-01 -1.210200227797031403e-02 4.932033419609069824e-01
5.809884071350097656e-01 -1.947570592164993286e-02 -2.137655615806579590e-01
4.074589014053344727e-01 -8.296417072415351868e-03 4.009515941143035889e-01
4.918946623802185059e-01 -6.624245643615722656e-02 -7.677596062421798706e-03
5.903155207633972168e-01 4.358970001339912415e-02 2.180826365947723389e-01
5.838833451271057129e-01 7.170887291431427002e-02 -1.408510655164718628e-01
5.941027998924255371e-01 6.899045407772064209e-02 -2.895830199122428894e-02
5.015840530395507812e-01 4.149882122874259949e-02 2.929053902626037598e-01
5.077729821205139160e-01 -6.181881576776504517e-02 2.128814160823822021e-02
3.927705883979797363e-01 -7.297880947589874268e-02 4.914439618587493896e-01
5.916522741317749023e-01 -3.065085504204034805e-03 -3.454501330852508545e-01
6.332569718360900879e-01 3.245664015412330627e-02 -1.302707344293594360e-01
4.613897800445556641e-01 1.749997958540916443e-02 4.288924932479858398e-01
4.153499603271484375e-01 -9.560417383909225464e-03 -7.859571278095245361e-02
6.108330488204956055e-01 4.322735220193862915e-02 -4.463306963443756104e-01
5.245679020881652832e-01 -5.016412213444709778e-02 2.645222842693328857e-01
4.601592123508453369e-01 3.134271502494812012e-02 -2.467910572886466980e-02
4.176964759826660156e-01 -3.528426587581634521e-02 -1.636314690113067627e-01
4.538266062736511230e-01 1.715004257857799530e-02 -1.804776042699813843e-01
5.331559181213378906e-01 2.603483013808727264e-02 -4.704088866710662842e-01
5.669612288475036621e-01 4.099696502089500427e-02 2.985891997814178467e-01
4.566113650798797607e-01 3.098437748849391937e-02 1.183356866240501404e-01
5.732285380363464355e-01 6.717211008071899414e-02 -2.819805145263671875e-01
4.358115792274475098e-01 -5.729226395487785339e-02 -1.607721298933029175e-01
5.783870220184326172e-01 6.649882346391677856e-02 4.435445368289947510e-02
5.253038406372070312e-01 5.993800982832908630e-02 3.563303500413894653e-03
6.078733205795288086e-01 6.481629610061645508e-02 -1.023669168353080750e-02
4.652334153652191162e-01 -5.347316712141036987e-02 5.439834594726562500e-01
4.798314273357391357e-01 -5.846821144223213196e-02 4.601839482784271240e-01
5.358094573020935059e-01 6.322420388460159302e-02 -8.233621716499328613e-02
5.209091901779174805e-01 2.634341828525066376e-02 -4.419727921485900879e-01
4.758129119873046875e-01 -7.347186654806137085e-02 1.095971241593360901e-01
5.940631031990051270e-01 6.894320994615554810e-02 -2.918589711189270020e-01
5.723601579666137695e-01 2.777360565960407257e-02 3.301194608211517334e-01
3.716013729572296143e-01 -4.642926156520843506e-02 2.240365147590637207e-01
3.725679814815521240e-01 -6.759122014045715332e-02 4.088731706142425537e-01
4.366800189018249512e-01 1.870297640562057495e-02 6.503198295831680298e-02
4.912622570991516113e-01 -8.848414756357669830e-03 5.672642588615417480e-01
6.294896006584167480e-01 3.108878619968891144e-02 -5.182531848549842834e-02
4.355742931365966797e-01 -7.816241681575775146e-02 5.218895152211189270e-02
4.996833801269531250e-01 5.058956518769264221e-02 7.520725578069686890e-02
5.104914903640747070e-01 -6.123723462224006653e-02 5.139630660414695740e-02
4.318991303443908691e-01 -7.165598124265670776e-02 -3.912316635251045227e-02
5.466957092285156250e-01 4.219156876206398010e-02 3.233065605163574219e-01
5.029941797256469727e-01 -4.738486558198928833e-02 -2.534327208995819092e-01
4.039738178253173828e-01 -1.697341352701187134e-02 -2.303303405642509460e-02
4.783426821231842041e-01 -6.760913878679275513e-02 3.585265874862670898e-01
4.496273100376129150e-01 1.028691232204437256e-02 -2.054988741874694824e-01
4.534356594085693359e-01 2.268765680491924286e-02 -1.130153238773345947e-01
5.272338986396789551e-01 5.862293019890785217e-02 -1.761342287063598633e-01
4.876231849193572998e-01 -7.005360722541809082e-02 1.366308927536010742e-01
4.872406125068664551e-01 2.629737742245197296e-02 4.168833494186401367e-01
6.243894100189208984e-01 2.228640019893646240e-02 -3.004086017608642578e-01
4.804520606994628906e-01 -7.230591028928756714e-02 1.807401925325393677e-01
5.876397490501403809e-01 6.133120879530906677e-02 1.021285206079483032e-01
4.193398952484130859e-01 -7.666700333356857300e-02 4.685173630714416504e-01
4.182999134063720703e-01 4.842698108404874802e-03 6.339642405509948730e-02
6.029362678527832031e-01 4.559508990496397018e-03 1.142476648092269897e-01
6.348204612731933594e-01 5.516131594777107239e-02 -2.043161988258361816e-01
4.619626998901367188e-01 -5.016767978668212891e-02 -2.426291704177856445e-01
4.972353279590606689e-01 -2.715900912880897522e-02 5.502015352249145508e-01
5.538984537124633789e-01 6.697939336299896240e-02 -1.650134027004241943e-01
4.398811459541320801e-01 -7.600615173578262329e-02 1.553430408239364624e-02
3.908482789993286133e-01 -5.240762606263160706e-02 5.510929822921752930e-01
5.133083462715148926e-01 -3.756971284747123718e-02 -3.201128840446472168e-01
5.513417124748229980e-01 -4.208552651107311249e-03 4.134708046913146973e-01
4.588815569877624512e-01 -2.388214878737926483e-02 -3.240600526332855225e-01
3.927614986896514893e-01 -1.467373408377170563e-02 2.245637923479080200e-01
5.224452614784240723e-01 4.584722965955734253e-02 -3.369994461536407471e-01
4.258440434932708740e-01 9.507738053798675537e-03 2.986555993556976318e-01
5.514804124832153320e-01 -3.771727159619331360e-02 1.817035377025604248e-01
4.966351389884948730e-01 3.368133679032325745e-02 -3.129852414131164551e-01
5.029475688934326172e-01 -5.533856526017189026e-02 -1.624295264482498169e-01
6.363183259963989258e-01 4.440953955054283142e-02 -1.567412614822387695e-01
5.235073566436767578e-01 -2.938041836023330688e-02 4.539679884910583496e-01
6.137554049491882324e-01 1.506709493696689606e-02 6.783018261194229126e-02
3.984723389148712158e-01 -9.492191486060619354e-03 1.843956559896469116e-01
5.249198079109191895e-01 -4.440583661198616028e-02 -2.257177531719207764e-01
4.782523512840270996e-01 -6.401752680540084839e-02 -1.115502715110778809e-01
5.779766440391540527e-01 -1.182302366942167282e-03 -4.211061894893646240e-01
3.682733476161956787e-01 -5.312179774045944214e-02 3.149668872356414795e-01
4.132546186447143555e-01 -2.672324515879154205e-02 -1.330819875001907349e-01
3.852478563785552979e-01 -2.527489140629768372e-02 3.607102036476135254e-01
3.997712135314941406e-01 -5.201667919754981995e-02 -5.225655063986778259e-02
5.444959402084350586e-01 6.124513968825340271e-02 -2.541935145854949951e-01
4.009969234466552734e-01 -7.872232794761657715e-02 4.468138217926025391e-01
6.094641685485839844e-01 5.927016213536262512e-02 4.269937425851821899e-02
5.632039904594421387e-01 -1.314186863601207733e-02 3.241412043571472168e-01
4.961119592189788818e-01 4.966530948877334595e-02 3.578805550932884216e-02
5.758464932441711426e-01 -2.410516515374183655e-02 9.429726749658584595e-02
5.125772356986999512e-01 -1.569381169974803925e-02 5.274284482002258301e-01
5.377059578895568848e-01 6.291927397251129150e-02 -1.481081545352935791e-01
4.201315343379974365e-01 7.559460122138261795e-03 2.421227842569351196e-01
5.899353027343750000e-01 -7.473324425518512726e-03 1.492727845907211304e-01
4.526413977146148682e-01 6.870506331324577332e-04 5.298479199409484863e-01
5.326167345046997070e-01 -1.342242304235696793e-02 4.685078859329223633e-01
4.371110200881958008e-01 -1.557759195566177368e-02 5.781023502349853516e-01
6.149784922599792480e-01 6.472840439528226852e-03 -2.092628479003906250e-01
4.354963004589080811e-01 -4.240168258547782898e-02 -2.218839228153228760e-01
5.187063217163085938e-01 9.447146207094192505e-03 4.982925355434417725e-01
5.709662437438964844e-01 6.326495110988616943e-02 -3.370243310928344727e-01
6.107304096221923828e-01 6.667367368936538696e-02 -5.527405068278312683e-02
4.891666769981384277e-01 -4.798796959221363068e-03 -4.110533893108367920e-01
6.328849792480468750e-01 4.359093680977821350e-02 -3.171049058437347412e-01
6.347978115081787109e-01 5.393569171428680420e-02 -2.524509131908416748e-01
4.625146985054016113e-01 -7.213810086250305176e-02 -1.858409121632575989e-02
6.162661314010620117e-01 2.971920557320117950e-02 -4.113039076328277588e-01
4.228411614894866943e-01 -8.398871123790740967e-02 2.837114930152893066e-01
3.789033591747283936e-01 -4.377236217260360718e-02 1.110237762331962585e-01
5.854846835136413574e-01 7.108815759420394897e-02 -2.158975005149841309e-01
5.077751874923706055e-01 5.396915972232818604e-02 -5.676629021763801575e-02
3.928128480911254883e-01 -7.417564094066619873e-02 1.068414002656936646e-01
4.308328330516815186e-01 1.349665597081184387e-02 2.727184593677520752e-01
4.989856779575347900e-01 -6.326179206371307373e-02 -3.306643292307853699e-02
4.585088193416595459e-01 -7.430395483970642090e-02 3.674460947513580322e-01
5.762550234794616699e-01 -2.149030938744544983e-02 1.376236677169799805e-01
4.389620125293731689e-01 1.619840227067470551e-02 -4.466808214783668518e-02
4.961716532707214355e-01 4.635800793766975403e-02 -1.488755792379379272e-01
6.260333657264709473e-01 2.181901596486568451e-02 -2.673780918121337891e-01
6.279569864273071289e-01 2.127907238900661469e-02 -1.528245657682418823e-01
5.480750203132629395e-01 -4.342491924762725830e-02 5.715746805071830750e-02
5.227490067481994629e-01 -6.716299802064895630e-03 -4.570682346820831299e-01
5.064844489097595215e-01 2.729436941444873810e-02 4.303511381149291992e-01
4.773603975772857666e-01 -7.087682187557220459e-02 1.697629690170288086e-02
4.445529282093048096e-01 -8.115050941705703735e-02 2.582609951496124268e-01
5.636718869209289551e-01 -3.333031013607978821e-02 -1.126125454902648926e-01
5.982465744018554688e-01 7.164141535758972168e-02 -1.955963671207427979e-01
5.090563297271728516e-01 -5.656615272164344788e-02 -1.146891117095947266e-01
5.818369388580322266e-01 -1.090730540454387665e-03 2.604724764823913574e-01
3.737525343894958496e-01 -7.295323908329010010e-02 3.058520555496215820e-01
5.039004683494567871e-01 -3.586529940366744995e-02 5.039723515510559082e-01
5.919080376625061035e-01 6.641121953725814819e-02 2.507817372679710388e-02
6.274949908256530762e-01 4.542071372270584106e-02 -1.131129637360572815e-02
5.910993218421936035e-01 -6.701027974486351013e-03 -3.108240962028503418e-01
4.985879361629486084e-01 4.712395742535591125e-02 1.819421052932739258e-01
3.866370916366577148e-01 -2.108774520456790924e-02 2.513653039932250977e-01
4.590272903442382812e-01 3.163901716470718384e-02 1.387258619070053101e-02
5.221359729766845703e-01 -4.642893746495246887e-02 3.376516401767730713e-01
5.131070017814636230e-01 5.231615528464317322e-02 -1.914424449205398560e-01
6.079903244972229004e-01 6.122265383601188660e-02 -3.806095123291015625e-01
3.873277604579925537e-01 -2.439835853874683380e-02 3.836504817008972168e-01
4.778692126274108887e-01 -3.956697136163711548e-02 5.675787329673767090e-01
6.035599708557128906e-01 6.978837400674819946e-02 -8.472782373428344727e-02
5.368282198905944824e-01 5.479041486978530884e-02 1.987694352865219116e-01
4.095873236656188965e-01 -5.253877490758895874e-03 2.588927000761032104e-02
5.904993414878845215e-01 -1.232936233282089233e-02 -2.336623370647430420e-01
4.823401272296905518e-01 -6.703796982765197754e-02 -4.757166281342506409e-02
4.686060845851898193e-01 -6.834450364112854004e-02 4.065478146076202393e-01
4.933786392211914062e-01 4.282729700207710266e-02 -1.890923827886581421e-01
4.234472215175628662e-01 3.687359858304262161e-03 -3.622582182288169861e-02
5.333073735237121582e-01 6.255142390727996826e-02 -4.347725585103034973e-02
3.719868361949920654e-01 -5.114645510911941528e-02 1.923186182975769043e-01
5.245574712753295898e-01 -3.411094471812248230e-02 4.246026575565338135e-01
5.023605227470397949e-01 -6.411392986774444580e-02 1.822851449251174927e-01
5.232023596763610840e-01 -5.540601909160614014e-02 2.194002270698547363e-03
4.727014005184173584e-01 -2.097505517303943634e-02 5.970993638038635254e-01
5.701886415481567383e-01 5.971259251236915588e-02 -3.751543760299682617e-01
5.825659632682800293e-01 -2.223742194473743439e-02 -6.661842763423919678e-02
5.941426753997802734e-01 -1.338456757366657257e-02 -4.550509527325630188e-02
5.342077612876892090e-01 4.958676546812057495e-02 2.603685557842254639e-01
5.899365544319152832e-01 5.276835057884454727e-03 2.307796478271484375e-01
6.009784936904907227e-01 2.637714706361293793e-02 2.017372250556945801e-01
4.932078421115875244e-01 -6.799480319023132324e-02 9.786988794803619385e-02
3.829674422740936279e-01 -6.895128637552261353e-02 1.259888708591461182e-01
5.657559037208557129e-01 5.018705874681472778e-02 -4.381161630153656006e-01
6.120145320892333984e-01 1.640029810369014740e-02 -3.710218071937561035e-01
6.101775169372558594e-01 5.299299955368041992e-02 -4.247280359268188477e-01
6.325891017913818359e-01 4.019014909863471985e-02 -7.335926592350006104e-02
4.837640821933746338e-01 9.533319622278213501e-03 5.187917947769165039e-01
4.969196617603302002e-01 -3.270495310425758362e-02 -3.571227788925170898e-01
5.511020421981811523e-01 6.145932152867317200e-02 1.176333948969841003e-01
4.294021129608154297e-01 -8.351039141416549683e-02 2.328581064939498901e-01
4.328370690345764160e-01 -8.250880986452102661e-02 1.721905916929244995e-01
5.750657916069030762e-01 1.624091062694787979e-03 3.122155070304870605e-01
4.028292596340179443e-01 -6.028648931533098221e-03 2.760234773159027100e-01
6.008647084236145020e-01 2.311145141720771790e-02 -4.547303617000579834e-01
6.117656230926513672e-01 4.577842075377702713e-03 -1.536891236901283264e-02
4.567109346389770508e-01 2.650889568030834198e-02 2.833047509193420410e-01
4.649032652378082275e-01 1.728537306189537048e-02 -2.548725306987762451e-01
4.612057209014892578e-01 -4.958832636475563049e-03 5.664613246917724609e-01
6.136037111282348633e-01 6.501329597085714340e-03 -2.421916425228118896e-01
5.402919650077819824e-01 -4.389352351427078247e-02 2.037901729345321655e-01
4.692210555076599121e-01 -2.552946656942367554e-02 -3.470166027545928955e-01
4.935928881168365479e-01 3.842539340257644653e-02 -2.505037486553192139e-01
4.382770061492919922e-01 2.004827931523323059e-02 1.845652461051940918e-01
6.077067255973815918e-01 1.703739352524280548e-02 1.373255401849746704e-01
5.925310850143432617e-01 -1.466737873852252960e-02 -1.129688918590545654e-01
