-3.175802230834960938e-01 6.530928611755371094e-01 -1.820296794176101685e-01
-3.274661898612976074e-01 5.324519872665405273e-01 -1.054418608546257019e-01
-3.246804475784301758e-01 2.228566259145736694e-01 -3.834669888019561768e-01
-3.199605941772460938e-01 5.683097839355468750e-01 -3.775376677513122559e-01
-3.007340729236602783e-01 1.515440940856933594e-01 1.343565732240676880e-01
-2.915976941585540771e-01 3.028083741664886475e-01 -2.096122503280639648e-01
-3.232095837593078613e-01 3.400089442729949951e-01 -4.770794510841369629e-01
-3.293531239032745361e-01 4.366510510444641113e-01 -2.508264183998107910e-01
-2.957122921943664551e-01 5.332697629928588867e-01 3.566532433032989502e-01
-3.264554142951965332e-01 2.630537152290344238e-01 3.752531409263610840e-01
-3.014255464076995850e-01 4.938721060752868652e-01 4.640395045280456543e-01
-2.944989800453186035e-01 2.341607362031936646e-01 1.228875666856765747e-01
-3.290283083915710449e-01 2.972619533538818359e-01 3.153284490108489990e-01
-2.970360815525054932e-01 6.956459283828735352e-01 -8.299352228641510010e-02
-2.875391840934753418e-01 4.267700016498565674e-01 -7.320225238800048828e-02
-2.881649136543273926e-01 3.988536000251770020e-01 4.429052025079727173e-02
-2.882506847381591797e-01 5.196350812911987305e-01 8.145432919263839722e-02
-3.245516121387481689e-01 5.211195945739746094e-01 -3.257139027118682861e-01
-3.324060142040252686e-01 2.428404986858367920e-01 -5.524522066116333008e-02
-3.226062953472137451e-01 5.278009772300720215e-01 -3.772174119949340820e-01
-3.125319778919219971e-01 6.726883053779602051e-01 -2.637822628021240234e-01
-2.904322445392608643e-01 3.669555783271789551e-01 -2.694592475891113281e-01
-2.913310527801513672e-01 4.457648992538452148e-01 2.740743160247802734e-01
-3.286918103694915771e-01 3.176705539226531982e-01 3.284557461738586426e-01
-3.215176463127136230e-01 6.106544733047485352e-01 -1.941291689872741699e-01
-3.296675086021423340e-01 3.883868455886840820e-01 2.633689641952514648e-01
-2.949553728103637695e-01 2.330345213413238525e-01 1.519782096147537231e-01
-3.055094778537750244e-01 2.123337090015411377e-01 -4.399395883083343506e-01
-3.325463831424713135e-01 3.811640143394470215e-01 1.768740825355052948e-02
-2.924374043941497803e-01 6.418038010597229004e-01 5.853256583213806152e-02
-2.989159226417541504e-01 3.444825708866119385e-01 -4.975555241107940674e-01
-3.313743770122528076e-01 4.317428767681121826e-01 -7.753586769104003906e-02
-3.142729997634887695e-01 4.114842712879180908e-01 5.280031561851501465e-01
-3.303792476654052734e-01 2.744414806365966797e-01 -2.551308572292327881e-01
-3.003900051116943359e-01 4.825328886508941650e-01 -5.437265038490295410e-01
-2.972716987133026123e-01 3.584240078926086426e-01 4.107759594917297363e-01
-2.885894179344177246e-01 3.708907365798950195e-01 -1.099508181214332581e-01
-3.047329783439636230e-01 1.265801489353179932e-01 1.887484043836593628e-01
-3.330965042114257812e-01 3.253834247589111328e-01 -3.684913739562034607e-03
-2.928447127342224121e-01 6.579937934875488281e-01 -9.781935811042785645e-02
-2.900160253047943115e-01 6.035642623901367188e-01 -1.538956016302108765e-01
-2.964353561401367188e-01 4.796478152275085449e-01 4.015200734138488770e-01
-2.916816771030426025e-01 6.417034268379211426e-01 -2.544291317462921143e-02
-3.127888143062591553e-01 6.681834459304809570e-01 1.777796745300292969e-01
-2.988029420375823975e-01 3.551819920539855957e-01 -5.028271079063415527e-01
-2.917162179946899414e-01 3.266861140727996826e-01 2.020373493432998657e-01
-3.246407806873321533e-01 4.795372188091278076e-01 -3.841859102249145508e-01
-3.201849460601806641e-01 6.181831359863281250e-01 -2.317849695682525635e-01
-2.938379049301147461e-01 2.533831894397735596e-01 -2.041953802108764648e-01
-3.187792003154754639e-01 5.705474615097045898e-01 3.292796611785888672e-01
-2.969326674938201904e-01 2.079942375421524048e-01 1.779821515083312988e-01
-2.890248894691467285e-01 5.777928829193115234e-01 2.586072124540805817e-02
-3.192860782146453857e-01 4.745911657810211182e-01 -5.030698180198669434e-01
-2.940187156200408936e-01 4.612882137298583984e-01 -4.457355737686157227e-01
-2.902303636074066162e-01 4.951379597187042236e-01 -3.234386146068572998e-01
-2.948442995548248291e-01 5.940687656402587891e-01 2.683344781398773193e-01
-2.881428003311157227e-01 5.279080271720886230e-01 5.821084976196289062e-02
-3.288721740245819092e-01 5.017669796943664551e-01 6.255650520324707031e-02
-2.883610129356384277e-01 4.251889288425445557e-01 1.057860553264617920e-01
-2.936909794807434082e-01 2.985987067222595215e-01 -3.123369812965393066e-01
-3.269381821155548096e-01 1.432903259992599487e-01 1.903708279132843018e-01
-2.894175946712493896e-01 4.075191617012023926e-01 1.701910197734832764e-01
-3.194888830184936523e-01 3.976356685161590576e-01 -5.320457220077514648e-01
-2.892490625381469727e-01 5.905611515045166016e-01 -8.143892511725425720e-03
-3.315944671630859375e-01 4.186739921569824219e-01 -9.617885202169418335e-02
-3.200026750564575195e-01 6.069189310073852539e-01 2.048819214105606079e-01
-3.001527786254882812e-01 1.479986906051635742e-01 -8.016058802604675293e-02
-3.039651811122894287e-01 7.147113084793090820e-01 -4.329841583967208862e-03
-2.966565489768981934e-01 3.384892940521240234e-01 3.855303823947906494e-01
-2.978550195693969727e-01 2.802140116691589355e-01 3.590843081474304199e-01
-2.911841273307800293e-01 6.102228164672851562e-01 1.005781292915344238e-01
-2.993095517158508301e-01 6.698065400123596191e-01 -3.096277117729187012e-01
-3.057048022747039795e-01 1.353568434715270996e-01 2.504953145980834961e-01
-2.880129516124725342e-01 5.376214385032653809e-01 -1.338703185319900513e-01
-3.201160430908203125e-01 5.131068229675292969e-01 -4.547869861125946045e-01
-2.880579829216003418e-01 5.055937767028808594e-01 7.838921993970870972e-02
-2.956048548221588135e-01 4.347558915615081787e-01 -4.778356850147247314e-01
-2.910638451576232910e-01 3.273128569126129150e-01 1.640194952487945557e-01
-3.073851764202117920e-01 9.781941771507263184e-02 -1.235679090023040771e-01
-2.901975810527801514e-01 3.875041902065277100e-01 -2.826571762561798096e-01
-3.214271664619445801e-01 4.250712394714355469e-01 4.545081257820129395e-01
-2.964732646942138672e-01 6.562976837158203125e-01 -2.947011291980743408e-01
-2.990316450595855713e-01 3.671057820320129395e-01 -5.131912231445312500e-01
-3.330426216125488281e-01 3.109976649284362793e-01 -4.805951192975044250e-02
-3.266005814075469971e-01 1.292007863521575928e-01 -1.319474279880523682e-01
-3.316143751144409180e-01 2.878052294254302979e-01 -1.954053193330764771e-01
-3.155587613582611084e-01 6.572265625000000000e-01 -2.469665408134460449e-01
-3.268976509571075439e-01 5.397185087203979492e-01 -1.323894411325454712e-01
-3.309560120105743408e-01 2.675847113132476807e-01 -2.207534611225128174e-01
-3.311458528041839600e-01 4.427678883075714111e-01 -5.952649563550949097e-02
-3.269961178302764893e-01 5.103504657745361328e-01 1.890686452388763428e-01
-2.883935272693634033e-01 4.993436634540557861e-01 1.127848774194717407e-01
-2.906336486339569092e-01 3.860024809837341309e-01 2.200929820537567139e-01
-2.872941792011260986e-01 4.836367368698120117e-01 -7.021016627550125122e-02
-3.030351996421813965e-01 2.977653145790100098e-01 4.682507514953613281e-01
-2.969214618206024170e-01 3.233689069747924805e-01 -4.420641958713531494e-01
-3.195355236530303955e-01 5.327796339988708496e-01 -4.425897896289825439e-01
-3.216665983200073242e-01 2.987314164638519287e-01 -4.895007908344268799e-01
-3.213902413845062256e-01 6.109695434570312500e-01 1.255012601613998413e-01
-3.314260244369506836e-01 4.098473787307739258e-01 1.205567419528961182e-01
-3.301416039466857910e-01 2.904351353645324707e-01 -2.748963236808776855e-01
-3.185851573944091797e-01 4.069615900516510010e-01 4.987812042236328125e-01
-3.329111635684967041e-01 2.783663272857666016e-01 -4.616677016019821167e-02
-3.224975168704986572e-01 4.633701741695404053e-01 -4.532486498355865479e-01
-3.243850171566009521e-01 2.756795287132263184e-01 4.230319261550903320e-01
-2.951188981533050537e-01 6.130172610282897949e-01 2.424528598785400391e-01
-3.273953795433044434e-01 4.838003516197204590e-01 2.318873703479766846e-01
-2.922632992267608643e-01 5.726726055145263672e-01 -3.394017517566680908e-01
-3.225414752960205078e-01 6.109237074851989746e-01 2.034660615026950836e-02
-2.881905436515808105e-01 4.942810237407684326e-01 -2.056677341461181641e-01
-2.910576462745666504e-01 3.199353814125061035e-01 1.471758335828781128e-01
-3.235869109630584717e-01 5.623453259468078613e-01 2.069796621799468994e-01
-2.907619476318359375e-01 3.043144941329956055e-01 -1.354526281356811523e-01
-3.322031199932098389e-01 2.882672548294067383e-01 1.516421288251876831e-01
-2.909822463989257812e-01 5.337633490562438965e-01 -3.331588804721832275e-01
-3.275695145130157471e-01 1.812158674001693726e-01 2.588965296745300293e-01
-3.265766799449920654e-01 2.397307604551315308e-01 3.574379086494445801e-01
-3.004675805568695068e-01 1.498018503189086914e-01 -1.292239725589752197e-01
-3.298614323139190674e-01 1.614124625921249390e-01 -1.289248373359441757e-02
-2.969688773155212402e-01 4.146943688392639160e-01 4.207046926021575928e-01
-3.300701379776000977e-01 2.750550508499145508e-01 -2.695265412330627441e-01
-2.904817461967468262e-01 5.209002494812011719e-01 2.146598845720291138e-01
-2.876346707344055176e-01 4.533246159553527832e-01 -1.443464607000350952e-01
-3.127199709415435791e-01 5.335367321968078613e-01 4.551129043102264404e-01
-3.273304402828216553e-01 4.475270211696624756e-01 -3.300020396709442139e-01
-3.251630365848541260e-01 1.560016721487045288e-01 -2.671798765659332275e-01
-2.900377213954925537e-01 4.843236804008483887e-01 -3.175480961799621582e-01
-2.920928597450256348e-01 5.330450534820556641e-01 2.646400332450866699e-01
-2.896986007690429688e-01 5.850577354431152344e-01 -1.914428025484085083e-01
-3.232556581497192383e-01 1.109279990196228027e-01 -1.837115287780761719e-01
-2.967261970043182373e-01 6.307821273803710938e-01 -3.606525659561157227e-01
-3.249644041061401367e-01 5.198584794998168945e-01 -3.123563230037689209e-01
-3.261317312717437744e-01 1.416557431221008301e-01 -1.996394842863082886e-01
-3.020623922348022461e-01 6.692033410072326660e-01 2.241147160530090332e-01
-3.199660480022430420e-01 2.703041434288024902e-01 4.790046811103820801e-01
-3.321949243545532227e-01 2.891855239868164062e-01 -1.526795923709869385e-01
-3.274328708648681641e-01 3.415555357933044434e-01 -3.807893991470336914e-01
-3.191928267478942871e-01 5.845596790313720703e-01 2.905303239822387695e-01
-2.977544963359832764e-01 4.191514253616333008e-01 -5.128518939018249512e-01
-2.962550520896911621e-01 2.344882488250732422e-01 -2.732949554920196533e-01
-3.319883048534393311e-01 2.186903059482574463e-01 3.612002730369567871e-02
-3.061694502830505371e-01 9.939754009246826172e-02 -6.835038214921951294e-02
-3.261882662773132324e-01 1.474819183349609375e-01 -2.148838788270950317e-01
-2.969956398010253906e-01 1.869374662637710571e-01 -1.066515222191810608e-01
-2.885817587375640869e-01 4.885122776031494141e-01 -2.374455034732818604e-01
-2.975008487701416016e-01 5.613978505134582520e-01 -4.661520719528198242e-01
-2.917066812515258789e-01 6.140248179435729980e-01 1.190387159585952759e-01
-2.993545532226562500e-01 6.654821038246154785e-01 2.032924294471740723e-01
-3.290935158729553223e-01 4.984561204910278320e-01 4.878545552492141724e-02
-3.319996595382690430e-01 2.677197456359863281e-01 -1.510380357503890991e-01
-3.257180154323577881e-01 4.372028708457946777e-01 3.565824925899505615e-01
-2.904791533946990967e-01 3.395903706550598145e-01 1.485172808170318604e-01
-2.902293801307678223e-01 3.181286454200744629e-01 -1.315231472253799438e-01
-2.983064055442810059e-01 1.663617044687271118e-01 1.450323499739170074e-02
-3.321933150291442871e-01 4.005030691623687744e-01 -4.311684519052505493e-02
-3.267416357994079590e-01 2.240943610668182373e-01 -3.367677032947540283e-01
-3.220446109771728516e-01 5.654447078704833984e-01 -3.223798573017120361e-01
-2.939218580722808838e-01 2.302822917699813843e-01 2.256198786199092865e-02
-2.916747331619262695e-01 5.745558738708496094e-01 -3.161865472793579102e-01
-2.929121851921081543e-01 3.678866922855377197e-01 -3.761434555053710938e-01
-3.156600594520568848e-01 4.225721657276153564e-01 5.167732238769531250e-01
-2.877259850502014160e-01 4.934202432632446289e-01 -1.585928201675415039e-01
-2.899357676506042480e-01 3.299944400787353516e-01 -1.455582678318023682e-01
-3.325513899326324463e-01 3.542567491531372070e-01 -1.060927510261535645e-01
-2.877012789249420166e-01 5.072857141494750977e-01 3.371204435825347900e-02
-3.234367668628692627e-01 1.802311688661575317e-01 3.563987314701080322e-01
-2.895255982875823975e-01 3.309153020381927490e-01 -7.058406621217727661e-02
-3.300796151161193848e-01 1.770561188459396362e-01 1.158082783222198486e-01
-3.324753642082214355e-01 2.758898735046386719e-01 -1.138468459248542786e-01
-3.271958529949188232e-01 1.993541419506072998e-01 2.992672622203826904e-01
-3.219770491123199463e-01 5.813632607460021973e-01 -2.835067510604858398e-01
-3.325277268886566162e-01 3.636440336704254150e-01 -9.566171467304229736e-02
-2.939968407154083252e-01 6.527810096740722656e-01 9.878665208816528320e-02
-3.102011382579803467e-01 9.144666790962219238e-02 1.635869294404983521e-01
-3.213872313499450684e-01 5.402014255523681641e-01 -3.904311656951904297e-01
-2.933275997638702393e-01 6.508525609970092773e-01 -1.984418332576751709e-01
-3.183684945106506348e-01 1.777054369449615479e-01 -4.103296101093292236e-01
-2.946487665176391602e-01 2.893997132778167725e-01 2.734556794166564941e-01
-2.968311011791229248e-01 3.954257071018218994e-01 -4.900130331516265869e-01
-3.200929760932922363e-01 1.685068458318710327e-01 -3.794206678867340088e-01
-3.251840472221374512e-01 2.642324566841125488e-01 -4.094874858856201172e-01
-2.876351475715637207e-01 5.150232911109924316e-01 -1.195874363183975220e-01
-2.957893311977386475e-01 6.836020946502685547e-01 -1.417116522789001465e-01
-3.261521458625793457e-01 1.292132735252380371e-01 1.736143976449966431e-01
-3.290777206420898438e-01 2.322196513414382935e-01 2.763639092445373535e-01
-2.873134613037109375e-01 4.919303655624389648e-01 -6.076771765947341919e-02
-3.324844241142272949e-01 3.864537179470062256e-01 -1.117399707436561584e-02
-3.069560825824737549e-01 9.658080339431762695e-02 8.485251665115356445e-02
-2.892836332321166992e-01 4.362852871417999268e-01 -2.724078595638275146e-01
-3.313246965408325195e-01 3.436567187309265137e-01 2.086179256439208984e-01
-2.926555871963500977e-01 4.440646767616271973e-01 -4.087885022163391113e-01
-3.071082830429077148e-01 1.663373708724975586e-01 3.549049794673919678e-01
-3.284055888652801514e-01 1.641756445169448853e-01 -1.692831963300704956e-01
-2.921299040317535400e-01 4.049891233444213867e-01 2.936436533927917480e-01
-3.302799761295318604e-01 4.215065538883209229e-01 -2.170007228851318359e-01
-2.966319620609283447e-01 1.887771636247634888e-01 -7.129738479852676392e-02
-3.327624201774597168e-01 3.590152263641357422e-01 -5.834278464317321777e-02
-3.290288746356964111e-01 1.542032957077026367e-01 -8.554205298423767090e-02
-3.183821439743041992e-01 6.559966802597045898e-01 -6.750558316707611084e-02
-3.255045413970947266e-01 2.342515438795089722e-01 -3.777213394641876221e-01
-3.226310312747955322e-01 1.740816831588745117e-01 -3.544113039970397949e-01
-3.169520199298858643e-01 6.556305885314941406e-01 1.093014776706695557e-01
-2.878153920173645020e-01 4.157417416572570801e-01 -1.165331304073333740e-01
-3.300616741180419922e-01 2.040724456310272217e-01 -1.807079166173934937e-01
-3.288954496383666992e-01 3.382185399532318115e-01 3.193950355052947998e-01
-3.308731615543365479e-01 2.239508330821990967e-01 1.795596033334732056e-01
-2.944016456604003906e-01 3.958071768283843994e-01 3.594729304313659668e-01
-2.875046730041503906e-01 4.740203320980072021e-01 -1.323718726634979248e-01
-3.293988704681396484e-01 4.846608936786651611e-01 -1.275093108415603638e-01
-3.292479813098907471e-01 3.753365874290466309e-01 2.908469438552856445e-01
-2.914799749851226807e-01 6.396871209144592285e-01 -7.512392103672027588e-02
-3.153334259986877441e-01 8.659341931343078613e-02 -1.848651617765426636e-01
-2.872812151908874512e-01 4.650590121746063232e-01 -5.861417949199676514e-02
-3.276625573635101318e-01 4.096929728984832764e-01 -3.514474928379058838e-01
-2.884656786918640137e-01 4.361200630664825439e-01 -2.177628725767135620e-01
-2.956167161464691162e-01 2.521670460700988770e-01 2.414759397506713867e-01
-3.161511123180389404e-01 3.935275077819824219e-01 -5.666077136993408203e-01
-2.928204238414764404e-01 5.397425293922424316e-01 2.811628580093383789e-01
-3.281783461570739746e-01 4.665066301822662354e-01 -2.661502957344055176e-01
-3.315652906894683838e-01 2.026487290859222412e-01 -1.134088262915611267e-03
-3.313889801502227783e-01 4.243931174278259277e-01 -1.076141819357872009e-01
-3.265125155448913574e-01 3.903080821037292480e-01 3.706051409244537354e-01
-3.311672806739807129e-01 4.287225902080535889e-01 9.698376059532165527e-02
-3.285107016563415527e-01 3.900949060916900635e-01 3.086888194084167480e-01
-3.183397054672241211e-01 6.286722421646118164e-01 1.838264912366867065e-01
-2.948265373706817627e-01 5.728105306625366211e-01 -4.077090024948120117e-01
-2.942425906658172607e-01 5.503221750259399414e-01 -4.159664809703826904e-01
-3.253497183322906494e-01 5.089346170425415039e-01 2.674350440502166748e-01
-2.930562198162078857e-01 3.898637890815734863e-01 3.180201053619384766e-01
-3.258880674839019775e-01 3.763628900051116943e-01 3.931382596492767334e-01
-2.941515147686004639e-01 2.248318195343017578e-01 -1.443478278815746307e-02
-3.008649647235870361e-01 2.344252616167068481e-01 3.658905029296875000e-01
-2.893026769161224365e-01 4.791051149368286133e-01 -2.825221717357635498e-01
-3.304427564144134521e-01 4.532526731491088867e-01 9.769234806299209595e-02
-3.264183998107910156e-01 3.335289061069488525e-01 -4.080969393253326416e-01
-3.283560574054718018e-01 5.190608501434326172e-01 -3.922293335199356079e-02
-3.226649761199951172e-01 3.203222155570983887e-01 -4.822469055652618408e-01
-3.077182769775390625e-01 1.704962253570556641e-01 -3.879220187664031982e-01
-2.889744639396667480e-01 3.647038340568542480e-01 -1.483631134033203125e-01
-2.984141111373901367e-01 4.919978082180023193e-01 -5.185869336128234863e-01
-3.290376067161560059e-01 1.613756269216537476e-01 -1.201594173908233643e-01
-3.121321797370910645e-01 7.781368494033813477e-02 -1.014480441808700562e-01
-3.327030539512634277e-01 3.456647992134094238e-01 8.440096676349639893e-02
-3.041628599166870117e-01 1.219409108161926270e-01 1.408571600914001465e-01
-3.249597251415252686e-01 5.551280975341796875e-01 -2.208847999572753906e-01
-3.314751982688903809e-01 4.139876067638397217e-01 -1.278792023658752441e-01
-3.006273508071899414e-01 2.876730859279632568e-01 4.246448874473571777e-01
-3.093734681606292725e-01 2.562913596630096436e-01 4.918845295906066895e-01
-2.877475917339324951e-01 4.121744930744171143e-01 -8.666753768920898438e-02
-3.152649402618408203e-01 6.210204362869262695e-01 2.828852832317352295e-01
-3.224852681159973145e-01 1.031683385372161865e-01 -1.716756522655487061e-01
-3.274393975734710693e-01 4.278281331062316895e-01 -3.454217016696929932e-01
-2.940313816070556641e-01 2.303232699632644653e-01 4.607780277729034424e-02
-3.299484848976135254e-01 1.626358479261398315e-01 5.841055884957313538e-03
-3.226563632488250732e-01 4.396345615386962891e-01 -4.660130739212036133e-01
-3.256292939186096191e-01 1.051490306854248047e-01 1.150412298738956451e-02
-2.946047186851501465e-01 3.345268964767456055e-01 3.275541663169860840e-01
-2.995584607124328613e-01 4.788275957107543945e-01 4.502801299095153809e-01
-2.934126555919647217e-01 6.128998398780822754e-01 -3.127675950527191162e-01
-3.321788907051086426e-01 2.527658343315124512e-01 1.197452694177627563e-01
-2.977759540081024170e-01 1.871654838323593140e-01 -1.754365563392639160e-01
-3.210680782794952393e-01 5.705338716506958008e-01 2.742167115211486816e-01
-3.247444927692413330e-01 3.418257534503936768e-01 -4.476249217987060547e-01
-2.963874936103820801e-01 2.008223831653594971e-01 1.081240177154541016e-01
-2.925541698932647705e-01 2.653948962688446045e-01 -1.481453627347946167e-01
-2.938127219676971436e-01 6.656190156936645508e-01 1.286651380360126495e-02
-3.291091024875640869e-01 5.015867948532104492e-01 8.955797180533409119e-03
-2.877810895442962646e-01 4.385996758937835693e-01 -1.511175334453582764e-01
-3.314021825790405273e-01 3.206361234188079834e-01 2.113237380981445312e-01
-3.206323385238647461e-01 6.123294234275817871e-01 1.586852818727493286e-01
-3.280090093612670898e-01 1.346407532691955566e-01 -5.522350966930389404e-02
-3.196880817413330078e-01 2.270640134811401367e-01 4.529311060905456543e-01
-3.319678008556365967e-01 3.450143337249755859e-01 1.633910834789276123e-01
-2.877302169799804688e-01 4.663963913917541504e-01 -1.632214337587356567e-01
-3.300536572933197021e-01 3.129267692565917969e-01 2.783649265766143799e-01
-3.319505453109741211e-01 2.879190444946289062e-01 1.716246604919433594e-01
-2.970377504825592041e-01 2.124584764242172241e-01 1.988708525896072388e-01
-2.979040741920471191e-01 1.729083657264709473e-01 -7.826606184244155884e-02
-3.263968825340270996e-01 1.194245219230651855e-01 -8.873870968818664551e-02
-3.204793930053710938e-01 8.276465535163879395e-02 -1.088370233774185181e-01
-3.226452171802520752e-01 5.786710977554321289e-01 1.960270255804061890e-01
-2.923495471477508545e-01 4.104727804660797119e-01 -3.879587650299072266e-01
-2.882516086101531982e-01 5.581825971603393555e-01 -9.778625518083572388e-02
-3.268179297447204590e-01 5.384197235107421875e-01 9.542345255613327026e-02
-3.308676779270172119e-01 4.536952674388885498e-01 -4.183185100555419922e-02
-2.907140254974365234e-01 3.541438579559326172e-01 1.886765360832214355e-01
-3.276469707489013672e-01 1.364711225032806396e-01 -1.029166802763938904e-01
-2.921113669872283936e-01 5.230541229248046875e-01 -3.787293732166290283e-01
-3.204690814018249512e-01 3.272234201431274414e-01 -5.156064033508300781e-01
-3.089947402477264404e-01 1.570668071508407593e-01 -3.713241219520568848e-01
-2.957792282104492188e-01 2.221716046333312988e-01 -2.091597467660903931e-01
-3.297562003135681152e-01 4.249002933502197266e-01 -2.445030659437179565e-01
-3.316351175308227539e-01 3.574487864971160889e-01 1.793079972267150879e-01
-3.239989578723907471e-01 5.930850505828857422e-01 -4.059392958879470825e-04
-3.229223489761352539e-01 6.079815030097961426e-01 -4.738648608326911926e-02
-3.024496138095855713e-01 1.412465572357177734e-01 1.686421036720275879e-01
-3.259554803371429443e-01 5.501283407211303711e-01 -1.702659726142883301e-01
-3.210316896438598633e-01 1.289011538028717041e-01 2.963557243347167969e-01
-3.281057476997375488e-01 5.092331767082214355e-01 -1.596543192863464355e-01
-3.034755587577819824e-01 2.643115520477294922e-01 -4.870311319828033447e-01
-2.875414788722991943e-01 4.622820019721984863e-01 3.378848731517791748e-02
-3.300747573375701904e-01 4.071156084537506104e-01 2.235099971294403076e-01
-3.002929687500000000e-01 1.770218312740325928e-01 2.237266898155212402e-01
-2.945537567138671875e-01 6.739556789398193359e-01 -1.325972974300384521e-01
-3.266176283359527588e-01 4.067742228507995605e-01 -3.870210647583007812e-01
-2.940154373645782471e-01 2.673907876014709473e-01 -2.581419646739959717e-01
-3.035705387592315674e-01 4.257949888706207275e-01 5.061827301979064941e-01
-3.199885487556457520e-01 6.150661706924438477e-01 1.753645837306976318e-01
-2.954007685184478760e-01 2.074939459562301636e-01 -8.669103682041168213e-02
-3.037377297878265381e-01 5.094985365867614746e-01 4.729291498661041260e-01
-2.950960993766784668e-01 2.507598102092742920e-01 2.146187573671340942e-01
-3.043914139270782471e-01 1.114575564861297607e-01 -7.609131932258605957e-02
-2.933602035045623779e-01 3.535878360271453857e-01 -3.770434260368347168e-01
-3.278374969959259033e-01 3.730124831199645996e-01 3.415733575820922852e-01
-2.904021441936492920e-01 4.380215108394622803e-01 -3.282851874828338623e-01
-3.322866857051849365e-01 3.740547001361846924e-01 -1.125827208161354065e-01
-2.894372045993804932e-01 3.402383625507354736e-01 -1.187787950038909912e-01
-2.921357154846191406e-01 2.866913676261901855e-01 -1.991111785173416138e-01
-3.240937590599060059e-01 5.516666173934936523e-01 2.163403928279876709e-01
-2.906357645988464355e-01 4.246264398097991943e-01 -3.323422670364379883e-01
-3.291894197463989258e-01 4.121906459331512451e-01 2.612532973289489746e-01
-3.022387623786926270e-01 6.708867549896240234e-01 -3.365012109279632568e-01
-2.883476018905639648e-01 4.647491276264190674e-01 1.206145882606506348e-01
-3.284170925617218018e-01 2.794805169105529785e-01 3.300730288028717041e-01
-3.073772192001342773e-01 4.762996137142181396e-01 5.086427927017211914e-01
-2.891639769077301025e-01 5.790731310844421387e-01 -1.583894491195678711e-01
-2.897638678550720215e-01 3.256360888481140137e-01 1.912936381995677948e-02
-3.288848996162414551e-01 1.489830315113067627e-01 -6.669063121080398560e-02
-3.306526839733123779e-01 4.055163860321044922e-01 1.911989748477935791e-01
-3.225378096103668213e-01 5.843806266784667969e-01 1.809226870536804199e-01
-3.321014642715454102e-01 3.714721202850341797e-01 -1.387057453393936157e-01
-3.059708774089813232e-01 2.116765379905700684e-01 4.164876639842987061e-01
-2.899278402328491211e-01 3.960749804973602295e-01 1.912297606468200684e-01
-3.311656415462493896e-01 4.040474593639373779e-01 -1.785179525613784790e-01
-2.990572452545166016e-01 4.235336184501647949e-01 -5.322862267494201660e-01
-3.265977799892425537e-01 3.492757081985473633e-01 -4.039205312728881836e-01
-3.044695854187011719e-01 3.120077848434448242e-01 -5.407792329788208008e-01
-2.959764301776885986e-01 6.003760099411010742e-01 2.838974595069885254e-01
-3.026386201381683350e-01 1.227917075157165527e-01 1.577961258590221405e-02
-2.946420609951019287e-01 4.254745841026306152e-01 -4.554706811904907227e-01
-2.982036173343658447e-01 1.890934705734252930e-01 -2.093182057142257690e-01
-2.918506860733032227e-01 5.090286731719970703e-01 2.743800282478332520e-01
-3.205583095550537109e-01 5.529620647430419922e-01 -3.902682363986968994e-01
-3.042167723178863525e-01 3.625949323177337646e-01 -5.669122934341430664e-01
-3.325998187065124512e-01 2.856956124305725098e-01 1.103911846876144409e-01
-2.952274978160858154e-01 4.631214141845703125e-01 3.822709619998931885e-01
-3.209552466869354248e-01 4.877992868423461914e-01 4.105268418788909912e-01
-3.286241590976715088e-01 3.533276915550231934e-01 -3.415094017982482910e-01
-2.951312065124511719e-01 2.810876965522766113e-01 -3.350376486778259277e-01
-3.232630491256713867e-01 5.269429683685302734e-01 3.022352755069732666e-01
-3.148669600486755371e-01 5.591526627540588379e-01 -4.819128215312957764e-01
-3.209089338779449463e-01 5.098054409027099609e-01 -4.425860643386840820e-01
-3.292170763015747070e-01 2.124738693237304688e-01 -2.380530536174774170e-01
-2.895247042179107666e-01 3.600621819496154785e-01 1.140830516815185547e-01
-2.933503985404968262e-01 6.065957546234130859e-01 -3.227333128452301025e-01
-2.942154407501220703e-01 4.880979657173156738e-01 3.513519763946533203e-01
-2.891751527786254883e-01 5.461938977241516113e-01 1.172642558813095093e-01
-2.948955297470092773e-01 3.738740980625152588e-01 -4.374144375324249268e-01
-2.945463061332702637e-01 2.831560671329498291e-01 2.589613497257232666e-01
-3.240351974964141846e-01 5.450462698936462402e-01 -2.954761981964111328e-01
-3.043690919876098633e-01 1.553614139556884766e-01 2.802551984786987305e-01
-3.020761609077453613e-01 2.204596251249313354e-01 3.688707053661346436e-01
-2.875467538833618164e-01 4.430567026138305664e-01 2.046860940754413605e-02
-3.024567961692810059e-01 2.766782343387603760e-01 4.436403810977935791e-01
-2.886503636837005615e-01 5.664832592010498047e-01 1.938661001622676849e-02
-3.192957043647766113e-01 6.009036898612976074e-01 2.460258603096008301e-01
-3.158851861953735352e-01 4.514411091804504395e-01 -5.561989545822143555e-01
-2.932281196117401123e-01 4.297576546669006348e-01 -4.214955866336822510e-01
-3.239056766033172607e-01 1.856038570404052734e-01 -3.502027094364166260e-01
-2.956591844558715820e-01 2.623630166053771973e-01 -3.172103166580200195e-01
-3.291865587234497070e-01 4.465331733226776123e-01 2.119380831718444824e-01
-2.885550558567047119e-01 3.726829290390014648e-01 2.729521133005619049e-02
-2.956999540328979492e-01 4.906015992164611816e-01 -4.767355918884277344e-01
-2.987104356288909912e-01 3.309997320175170898e-01 -4.839153885841369629e-01
-3.173314332962036133e-01 5.888476371765136719e-01 -3.975577652454376221e-01
-2.960620224475860596e-01 3.880854249000549316e-01 3.970069885253906250e-01
-3.264174163341522217e-01 2.405497878789901733e-01 -3.621442615985870361e-01
-3.318390846252441406e-01 4.026941061019897461e-01 -1.103443130850791931e-01
-3.255521953105926514e-01 2.410978376865386963e-01 3.813569247722625732e-01
-3.265353441238403320e-01 5.542005300521850586e-01 -4.140597209334373474e-02
-2.942374646663665771e-01 6.636406183242797852e-01 5.861803889274597168e-02
-3.304738104343414307e-01 2.069655805826187134e-01 -1.614248603582382202e-01
-3.263806700706481934e-01 4.883542060852050781e-01 -3.118933737277984619e-01
-2.915859520435333252e-01 5.805096030235290527e-01 1.875986009836196899e-01
-3.030659854412078857e-01 1.423259675502777100e-01 -2.181028723716735840e-01
-3.203670978546142578e-01 2.706463038921356201e-01 -4.905690848827362061e-01
-3.329208791255950928e-01 2.700604796409606934e-01 -1.206640154123306274e-03
-2.903517484664916992e-01 3.387756645679473877e-01 -2.121502012014389038e-01
-2.894058823585510254e-01 5.408239364624023438e-01 1.399184912443161011e-01
-3.035372793674468994e-01 2.065478116273880005e-01 3.732691109180450439e-01
-2.998307943344116211e-01 1.603459268808364868e-01 -1.571093201637268066e-01
-3.158598840236663818e-01 6.756569147109985352e-01 -8.056508004665374756e-02
-3.281404376029968262e-01 4.718765616416931152e-01 2.192960679531097412e-01
-3.217322826385498047e-01 6.165739297866821289e-01 -1.388750523328781128e-01
-3.015543818473815918e-01 4.360793828964233398e-01 -5.606294870376586914e-01
-3.179306983947753906e-01 1.391254663467407227e-01 3.463867306709289551e-01
-3.169006705284118652e-01 5.660381317138671875e-01 3.699326217174530029e-01
-2.881703376770019531e-01 5.416094660758972168e-01 -1.472946107387542725e-01
-2.904211282730102539e-01 5.014926195144653320e-01 2.251358926296234131e-01
-2.985221743583679199e-01 6.856768131256103516e-01 1.125523895025253296e-01
-2.914115786552429199e-01 5.674825310707092285e-01 2.010602504014968872e-01
-2.988533079624176025e-01 2.288628667593002319e-01 -3.482780754566192627e-01
-3.143159151077270508e-01 6.555833816528320312e-01 -2.889541685581207275e-01
-3.274593949317932129e-01 1.604558527469635010e-01 -2.025840729475021362e-01
-3.150299787521362305e-01 6.698734760284423828e-01 1.049646437168121338e-01
-3.303325176239013672e-01 4.261408150196075439e-01 1.784510165452957153e-01
-3.027527630329132080e-01 4.643547534942626953e-01 4.894547462463378906e-01
-2.999425530433654785e-01 1.762819290161132812e-01 -2.377483695745468140e-01
-2.891947031021118164e-01 5.924350023269653320e-01 -6.796255707740783691e-02
-2.890855371952056885e-01 3.835451602935791016e-01 -2.038332372903823853e-01
-3.017315268516540527e-01 4.518913030624389648e-01 4.841217994689941406e-01
-3.170018196105957031e-01 3.707962632179260254e-01 5.206728577613830566e-01
-3.238349258899688721e-01 5.919845700263977051e-01 4.725342988967895508e-02
-3.266666233539581299e-01 4.166052937507629395e-01 -3.796564340591430664e-01
-3.301792144775390625e-01 4.694139957427978516e-01 5.644145607948303223e-02
-3.319794535636901855e-01 3.249430954456329346e-01 -1.786428838968276978e-01
-2.895711660385131836e-01 3.537925183773040771e-01 1.041790843009948730e-01
-3.301281630992889404e-01 2.628673613071441650e-01 -2.579917013645172119e-01
-2.919584810733795166e-01 3.830091357231140137e-01 2.756156921386718750e-01
-2.907047569751739502e-01 4.802826642990112305e-01 -3.456549048423767090e-01
-3.276601433753967285e-01 4.856027364730834961e-01 -2.573749721050262451e-01
-2.897070050239562988e-01 4.844248294830322266e-01 -3.022957742214202881e-01
-3.217947483062744141e-01 5.792331695556640625e-01 2.280384004116058350e-01
-2.878771722316741943e-01 5.095123052597045898e-01 -1.640846282243728638e-01
-3.315542936325073242e-01 2.281833589076995850e-01 1.355646699666976929e-01
-3.000147044658660889e-01 6.474292278289794922e-01 2.598557472229003906e-01
-2.934308648109436035e-01 5.403771400451660156e-01 2.977644205093383789e-01
-2.937861680984497070e-01 4.107246100902557373e-01 -4.296442270278930664e-01
-2.925437092781066895e-01 3.056816160678863525e-01 -2.738501429557800293e-01
-2.914479374885559082e-01 5.349603891372680664e-01 2.406771481037139893e-01
-3.267031908035278320e-01 4.312003850936889648e-01 3.336624801158905029e-01
-3.289616703987121582e-01 1.806862056255340576e-01 2.008942812681198120e-01
-3.212320804595947266e-01 6.180042624473571777e-01 -1.712658852338790894e-01
-3.235097229480743408e-01 3.912579715251922607e-01 -4.687257111072540283e-01
-3.272364735603332520e-01 3.663533031940460205e-01 3.622555136680603027e-01
-3.285350501537322998e-01 3.764115273952484131e-01 -3.381695151329040527e-01
-2.974241077899932861e-01 3.525758087635040283e-01 -4.772000014781951904e-01
-3.172706365585327148e-01 4.524193406105041504e-01 -5.418655872344970703e-01
-2.889812886714935303e-01 5.686045289039611816e-01 -1.718515455722808838e-01
-2.980854511260986328e-01 1.718350797891616821e-01 5.958060920238494873e-02
-3.307834267616271973e-01 4.040147960186004639e-01 -2.075278013944625854e-01
-2.968440055847167969e-01 2.499970644712448120e-01 -3.323451280593872070e-01
-3.215712010860443115e-01 5.557284951210021973e-01 2.932598590850830078e-01
-3.311862647533416748e-01 4.381495118141174316e-01 5.328911542892456055e-02
-2.925156056880950928e-01 3.213403820991516113e-01 -3.021140396595001221e-01
-3.308189809322357178e-01 4.552577733993530273e-01 1.002420298755168915e-02
-3.298516273498535156e-01 4.839118123054504395e-01 -1.704593561589717865e-02
-2.878696918487548828e-01 4.070358872413635254e-01 9.890029206871986389e-03
-2.900669872760772705e-01 3.145911395549774170e-01 4.572179168462753296e-04
-3.271176815032958984e-01 5.028608441352844238e-01 -2.487787157297134399e-01
-3.116728961467742920e-01 7.000811100006103516e-01 -4.184197261929512024e-02
-3.065224289894104004e-01 1.343396902084350586e-01 2.651917636394500732e-01
-2.881244122982025146e-01 4.136024713516235352e-01 6.756935268640518188e-02
-3.319158554077148438e-01 4.028334915637969971e-01 -9.826020896434783936e-02
-3.253159224987030029e-01 1.123303174972534180e-01 -1.113329604268074036e-01
-3.247715532779693604e-01 2.094270735979080200e-01 -3.659538626670837402e-01
-2.909262180328369141e-01 4.046495258808135986e-01 2.464132606983184814e-01
-2.976021468639373779e-01 1.745114624500274658e-01 -2.871610783040523529e-02
-3.131717145442962646e-01 6.923547983169555664e-01 -8.198362588882446289e-02
-3.314482271671295166e-01 2.489518821239471436e-01 1.765605807304382324e-01
-3.061487972736358643e-01 1.913365125656127930e-01 3.879082500934600830e-01
-3.228537440299987793e-01 1.493312120437622070e-01 3.140136897563934326e-01
-2.977901697158813477e-01 4.782294631004333496e-01 -5.136141777038574219e-01
-2.970733940601348877e-01 6.444201469421386719e-01 2.189381420612335205e-01
-3.023009896278381348e-01 2.603149712085723877e-01 -4.671179056167602539e-01
-3.253571391105651855e-01 5.340545773506164551e-01 -2.631621658802032471e-01
-3.326462209224700928e-01 2.489597350358963013e-01 1.138392277061939240e-02
-3.274715542793273926e-01 4.946695864200592041e-01 2.037465870380401611e-01
-3.281046152114868164e-01 2.789621353149414062e-01 -3.438540995121002197e-01
-3.285917639732360840e-01 1.489385962486267090e-01 -9.627349674701690674e-02
-2.882580459117889404e-01 5.609522461891174316e-01 -5.139181390404701233e-02
-2.908333539962768555e-01 4.177227318286895752e-01 2.484360337257385254e-01
-3.240903913974761963e-01 5.663286447525024414e-01 -2.317713946104049683e-01
-2.993306219577789307e-01 1.856427639722824097e-01 2.141008079051971436e-01
-2.988725602626800537e-01 1.603572964668273926e-01 2.902329526841640472e-02
-3.232256770133972168e-01 4.605982601642608643e-01 3.943736553192138672e-01
-3.155863881111145020e-01 6.661289930343627930e-01 -1.995036751031875610e-01
-3.267413377761840820e-01 5.386594533920288086e-01 -1.551464200019836426e-01
-3.114385902881622314e-01 5.226790904998779297e-01 4.722438156604766846e-01
-2.946450114250183105e-01 3.634769618511199951e-01 3.508034646511077881e-01
-3.287791907787322998e-01 4.300566315650939941e-01 -2.885248064994812012e-01
-2.938264310359954834e-01 5.812655091285705566e-01 2.612040638923645020e-01
-3.304701447486877441e-01 2.302370965480804443e-01 -2.045126855373382568e-01
-2.959396243095397949e-01 2.978662848472595215e-01 3.285119235515594482e-01
-3.303127288818359375e-01 4.695538580417633057e-01 2.305384166538715363e-02
-2.897407114505767822e-01 4.311745762825012207e-01 -2.943730354309082031e-01
-2.921180427074432373e-01 3.096806108951568604e-01 -2.598540484905242920e-01
-2.923456132411956787e-01 6.494233608245849609e-01 -2.221431583166122437e-03
-2.908949851989746094e-01 3.335368931293487549e-01 -2.384601533412933350e-01
-2.935861051082611084e-01 3.667250871658325195e-01 3.215273022651672363e-01
-3.220312297344207764e-01 1.250094175338745117e-01 2.717781662940979004e-01
-2.894005179405212402e-01 3.615199625492095947e-01 -1.862875074148178101e-01
-3.325796127319335938e-01 3.803594112396240234e-01 -3.438275307416915894e-04
-3.087249398231506348e-01 8.496841788291931152e-02 -4.475647956132888794e-02
-3.291210234165191650e-01 4.788865447044372559e-01 1.385049074888229370e-01
-3.294464051723480225e-01 4.932427406311035156e-01 -5.399243906140327454e-02
-3.325127065181732178e-01 3.729369938373565674e-01 -7.832681387662887573e-02
-3.231956362724304199e-01 5.802505016326904297e-01 1.638551056385040283e-01
-3.316475152969360352e-01 4.138539135456085205e-01 8.165039867162704468e-02
-3.247482180595397949e-01 2.302760630846023560e-01 3.887767791748046875e-01
-3.283799886703491211e-01 1.921613961458206177e-01 2.489260733127593994e-01
-3.033155500888824463e-01 7.158211469650268555e-01 -4.366403073072433472e-02
-3.211940228939056396e-01 4.400520622730255127e-01 4.485497474670410156e-01
-2.936117351055145264e-01 3.599320054054260254e-01 -3.911693990230560303e-01
-2.892162203788757324e-01 4.582597613334655762e-01 -2.766054868698120117e-01
-3.053413331508636475e-01 1.519003510475158691e-01 2.919976711273193359e-01
-3.239504098892211914e-01 5.795754194259643555e-01 -1.859642416238784790e-01
-2.887479960918426514e-01 4.769045710563659668e-01 -2.502565979957580566e-01
-3.171375691890716553e-01 5.394333004951477051e-01 -4.754193723201751709e-01
-3.293202817440032959e-01 1.666212826967239380e-01 1.379528641700744629e-01
-3.282750546932220459e-01 1.479469388723373413e-01 -1.161541789770126343e-01
-2.935055494308471680e-01 2.405051887035369873e-01 5.203419178724288940e-02
-2.895718514919281006e-01 5.915138721466064453e-01 -1.570670008659362793e-01
-3.260987102985382080e-01 1.115731596946716309e-01 6.620304286479949951e-02
-3.290225863456726074e-01 2.403485029935836792e-01 2.860599458217620850e-01
-3.006449937820434570e-01 3.223997950553894043e-01 -5.069216489791870117e-01
-3.268410563468933105e-01 1.804961562156677246e-01 2.808165252208709717e-01
-3.190447092056274414e-01 5.916146039962768555e-01 -3.524198234081268311e-01
-2.908611893653869629e-01 5.937020778656005859e-01 1.268304139375686646e-01
-3.278149962425231934e-01 3.660742640495300293e-01 -3.661266565322875977e-01
-3.018109500408172607e-01 1.360434591770172119e-01 -1.198374927043914795e-01
-2.943075299263000488e-01 3.131020069122314453e-01 2.946598529815673828e-01
-3.060498535633087158e-01 5.407881140708923340e-01 -5.443493127822875977e-01
-2.894451022148132324e-01 4.529722332954406738e-01 -2.877467870712280273e-01
-3.314453959465026855e-01 2.679421007633209229e-01 -1.918864548206329346e-01
-3.238040506839752197e-01 3.048221468925476074e-01 -4.576594829559326172e-01
-3.228844702243804932e-01 3.444853127002716064e-01 4.586717784404754639e-01
-3.269388079643249512e-01 5.199885964393615723e-01 1.632041186094284058e-01
-3.288688361644744873e-01 4.088281691074371338e-01 -3.053856492042541504e-01
-3.249366879463195801e-01 4.675397872924804688e-01 -3.886541724205017090e-01
-3.263811171054840088e-01 5.569927692413330078e-01 -2.990049682557582855e-02
-3.328937292098999023e-01 3.500422835350036621e-01 -4.368101060390472412e-02
-2.903199791908264160e-01 5.677427649497985840e-01 -2.667973935604095459e-01
-3.308992981910705566e-01 3.566759526729583740e-01 2.259288132190704346e-01
-3.024504482746124268e-01 3.997545838356018066e-01 4.976336956024169922e-01
-3.104390501976013184e-01 6.441793441772460938e-01 2.857815921306610107e-01
-3.119618892669677734e-01 6.011230349540710449e-01 -4.532902538776397705e-01
-2.887740433216094971e-01 3.987242281436920166e-01 -2.020529508590698242e-01
-2.948817014694213867e-01 6.794228553771972656e-01 -9.546077996492385864e-02
-3.228353261947631836e-01 4.023257791996002197e-01 4.436948597431182861e-01
-2.891874015331268311e-01 5.917750597000122070e-01 -8.161278069019317627e-02
-2.992423772811889648e-01 2.202104777097702026e-01 -3.402566313743591309e-01
-3.030481636524200439e-01 4.976706504821777344e-01 4.757565259933471680e-01
-2.938154339790344238e-01 5.582389831542968750e-01 -3.989698588848114014e-01
-2.944627106189727783e-01 3.381533026695251465e-01 -3.948526978492736816e-01
-3.295892477035522461e-01 3.507376015186309814e-01 -3.050512969493865967e-01
-3.220268785953521729e-01 5.372596979141235352e-01 3.174866437911987305e-01
-2.972265183925628662e-01 1.904806792736053467e-01 -1.547439247369766235e-01
-2.984994649887084961e-01 2.517283558845520020e-01 3.362992107868194580e-01
-3.243523240089416504e-01 5.801245570182800293e-01 -1.491742581129074097e-01
-2.928213477134704590e-01 5.743378400802612305e-01 2.414416372776031494e-01
-3.252815902233123779e-01 2.094108462333679199e-01 3.584381043910980225e-01
-3.142039775848388672e-01 4.806207716464996338e-01 4.937160015106201172e-01
-2.983201146125793457e-01 1.746801435947418213e-01 -1.406252235174179077e-01
-2.889843583106994629e-01 4.005378484725952148e-01 -2.216831892728805542e-01
-3.318027853965759277e-01 3.062084913253784180e-01 1.864810138940811157e-01
-2.964372932910919189e-01 1.902217268943786621e-01 -4.621335491538047791e-02
-2.930817306041717529e-01 5.904569625854492188e-01 -3.410008251667022705e-01
-3.305848240852355957e-01 4.460289776325225830e-01 -1.382107138633728027e-01
-3.033006489276885986e-01 3.551692962646484375e-01 4.991319179534912109e-01
-3.069450557231903076e-01 2.500444352626800537e-01 -5.030589699745178223e-01
-3.189465701580047607e-01 4.299840033054351807e-01 4.846106767654418945e-01
-2.943438887596130371e-01 2.819400131702423096e-01 -3.068107962608337402e-01
-3.175366818904876709e-01 5.795961022377014160e-01 -4.105553925037384033e-01
-3.310600519180297852e-01 3.819299936294555664e-01 -2.133579552173614502e-01
-3.183807730674743652e-01 2.988619804382324219e-01 5.036876201629638672e-01
-2.886449098587036133e-01 4.421002566814422607e-01 -2.349680662155151367e-01
-2.966191768646240234e-01 6.920915246009826660e-01 -2.106008492410182953e-02
-3.200274407863616943e-01 6.262285709381103516e-01 1.217951625585556030e-01
-2.997449934482574463e-01 3.749150633811950684e-01 4.604254961013793945e-01
-3.171791434288024902e-01 6.386660337448120117e-01 -2.695801854133605957e-01
-3.321166336536407471e-01 2.632539570331573486e-01 -1.354016214609146118e-01
-3.039418160915374756e-01 7.162647247314453125e-01 -7.128511369228363037e-02
-3.062614798545837402e-01 3.254970312118530273e-01 5.141708254814147949e-01
-3.200730681419372559e-01 5.902027487754821777e-01 -3.265339732170104980e-01
-3.047295212745666504e-01 3.752778470516204834e-01 5.158936977386474609e-01
-3.308334052562713623e-01 3.438872992992401123e-01 2.361293435096740723e-01
-2.897171080112457275e-01 3.329729437828063965e-01 -1.283436715602874756e-01
-3.290225267410278320e-01 2.021852284669876099e-01 -2.291124165058135986e-01
-3.322988748550415039e-01 3.922967016696929932e-01 4.044231772422790527e-02
-3.002333641052246094e-01 1.448593735694885254e-01 -3.079529665410518646e-02
-3.301097452640533447e-01 4.760922193527221680e-01 -4.800640791654586792e-02
-3.221496045589447021e-01 3.520957827568054199e-01 -4.960902929306030273e-01
-3.020678162574768066e-01 2.961846292018890381e-01 4.542602598667144775e-01
-2.900520265102386475e-01 5.979053974151611328e-01 -1.807352453470230103e-01
-3.252171874046325684e-01 3.819031417369842529e-01 4.062566161155700684e-01
-2.929616272449493408e-01 2.641695737838745117e-01 1.232146769762039185e-01
-3.231687843799591064e-01 5.534328222274780273e-01 2.481357157230377197e-01
-3.250815272331237793e-01 2.600819468498229980e-01 4.027888476848602295e-01
-3.271414339542388916e-01 5.347827672958374023e-01 8.159045130014419556e-02
-3.310043215751647949e-01 2.584120035171508789e-01 -2.096108794212341309e-01
-2.899218499660491943e-01 4.178200960159301758e-01 -2.954396307468414307e-01
-3.126234412193298340e-01 6.176437139511108398e-01 -4.168687760829925537e-01
-2.968867421150207520e-01 2.236826568841934204e-01 2.253486216068267822e-01
-2.982747554779052734e-01 1.677788645029067993e-01 -6.794328987598419189e-02
-2.877624034881591797e-01 5.147777795791625977e-01 -1.421717703342437744e-01
-3.173137009143829346e-01 6.469457149505615234e-01 -2.293595671653747559e-01
-3.031333684921264648e-01 1.184590160846710205e-01 -1.073773577809333801e-02
-3.261283040046691895e-01 1.852537840604782104e-01 3.080242276191711426e-01
-2.925351262092590332e-01 3.158794641494750977e-01 2.259755134582519531e-01
-3.106804192066192627e-01 5.065543055534362793e-01 -5.617425441741943359e-01
-3.314235210418701172e-01 4.350324869155883789e-01 -2.850331366062164307e-02
-3.323740065097808838e-01 3.457100689411163330e-01 1.259168386459350586e-01
-3.317542970180511475e-01 2.565803527832031250e-01 -1.577148437500000000e-01
-3.330120146274566650e-01 3.403490185737609863e-01 1.240302436053752899e-02
-3.318026959896087646e-01 2.303483039140701294e-01 -1.056945174932479858e-01
-2.905583977699279785e-01 3.126261234283447266e-01 -1.488626301288604736e-01
-3.258930742740631104e-01 3.510377109050750732e-01 -4.218143224716186523e-01
-3.238216340541839600e-01 5.878349542617797852e-01 8.271977305412292480e-02
-3.294914960861206055e-01 4.166405200958251953e-01 2.417074739933013916e-01
-3.011520802974700928e-01 1.982028484344482422e-01 3.067499995231628418e-01
-3.315913379192352295e-01 4.253760278224945068e-01 -6.324776262044906616e-02
-3.267528712749481201e-01 4.707266986370086670e-01 -3.234956264495849609e-01
-3.078752160072326660e-01 3.870128691196441650e-01 5.341041684150695801e-01
-3.102344572544097900e-01 5.721194148063659668e-01 4.203248322010040283e-01
-2.923023998737335205e-01 5.246741771697998047e-01 2.781895697116851807e-01
-2.892988026142120361e-01 3.374199867248535156e-01 -5.342496931552886963e-02
-3.303277194499969482e-01 4.191750884056091309e-01 1.910326182842254639e-01
-2.899474799633026123e-01 4.481559693813323975e-01 -3.112806677818298340e-01
-2.877386808395385742e-01 5.335826277732849121e-01 -7.978176325559616089e-02
-3.318900465965270996e-01 4.162875115871429443e-01 2.632880583405494690e-03
-3.217153847217559814e-01 6.196023225784301758e-01 3.502978384494781494e-02
-2.955128848552703857e-01 2.092824727296829224e-01 7.615766674280166626e-02
-3.301578164100646973e-01 1.724165678024291992e-01 -6.506941467523574829e-02
-3.274681866168975830e-01 5.052373409271240234e-01 1.756805330514907837e-01
-3.187232017517089844e-01 2.783540785312652588e-01 -5.125738382339477539e-01
