-1.465995609760284424e-01 -8.901178836822509766e-01 -3.227577507495880127e-01
-3.519713878631591797e-03 -6.347668170928955078e-01 -6.478586196899414062e-01
2.552116811275482178e-01 -5.154533982276916504e-01 -2.078935801982879639e-01
-4.187308996915817261e-02 -5.787189006805419922e-01 1.326287537813186646e-02
-2.153544425964355469e-01 -7.871671915054321289e-01 -3.376100361347198486e-01
2.090403735637664795e-01 -5.062150955200195312e-01 -3.595999628305435181e-02
-3.920396417379379272e-02 -7.596678733825683594e-01 5.549290180206298828e-01
2.757116556167602539e-01 -5.316715836524963379e-01 2.478478848934173584e-01
1.631844937801361084e-01 -5.201281309127807617e-01 1.716389358043670654e-01
-6.591262668371200562e-02 -6.035549640655517578e-01 -3.621402978897094727e-01
1.906397044658660889e-01 -5.232491493225097656e-01 -3.298908174037933350e-01
-1.723631620407104492e-01 -8.279222846031188965e-01 -4.870681166648864746e-01
6.918897479772567749e-02 -6.300315260887145996e-01 -6.951417922973632812e-01
-1.622183918952941895e-01 -6.820796728134155273e-01 -3.563566803932189941e-01
3.071868121623992920e-01 -7.727380990982055664e-01 -1.684509068727493286e-01
-3.268521279096603394e-02 -5.729171633720397949e-01 -2.084470093250274658e-01
-1.064757183194160461e-01 -8.226975202560424805e-01 4.151110351085662842e-01
-1.255858242511749268e-01 -9.100495576858520508e-01 -3.905941173434257507e-02
-9.301420301198959351e-02 -8.699318170547485352e-01 -5.091835260391235352e-01
-2.384356409311294556e-02 -7.005707621574401855e-01 5.492548346519470215e-01
-1.831884384155273438e-01 -6.918370723724365234e-01 -2.228889167308807373e-01
1.977632194757461548e-02 -6.339481472969055176e-01 -6.710281968116760254e-01
4.491301625967025757e-02 -6.248068213462829590e-01 5.100851058959960938e-01
5.741775035858154297e-02 -8.809466958045959473e-01 3.065430223941802979e-01
-1.088602468371391296e-01 -7.651251554489135742e-01 4.466660916805267334e-01
1.210290938615798950e-02 -7.673661112785339355e-01 5.962581634521484375e-01
1.059496924281120300e-01 -5.237833857536315918e-01 -2.260093092918395996e-01
2.158795297145843506e-02 -9.021347165107727051e-01 -3.048489689826965332e-01
-2.132788598537445068e-01 -7.596626281738281250e-01 4.138281196355819702e-02
3.509826362133026123e-01 -6.397024989128112793e-01 -3.569654226303100586e-01
1.225581318140029907e-01 -8.073707222938537598e-01 5.323053598403930664e-01
3.037447631359100342e-01 -7.413429021835327148e-01 3.643241226673126221e-01
-1.813626289367675781e-01 -6.868694424629211426e-01 -1.591279506683349609e-01
1.187157481908798218e-01 -6.308284997940063477e-01 5.822547078132629395e-01
-1.808997690677642822e-01 -8.485635519027709961e-01 -4.129260778427124023e-01
3.029705584049224854e-01 -7.717605829238891602e-01 2.176623940467834473e-01
1.970997452735900879e-02 -5.488153696060180664e-01 8.635073900222778320e-03
2.646612226963043213e-01 -7.347211241722106934e-01 -5.137659311294555664e-01
2.354594767093658447e-01 -6.869667768478393555e-01 5.850340723991394043e-01
3.601299226284027100e-01 -7.172001600265502930e-01 -9.359329938888549805e-02
4.181625321507453918e-02 -8.575862646102905273e-01 4.284676909446716309e-01
-1.363215446472167969e-01 -8.877304792404174805e-01 1.613222360610961914e-01
3.561114892363548279e-02 -5.563495159149169922e-01 1.899595260620117188e-01
-6.803504377603530884e-02 -6.286990642547607422e-01 -5.030163526535034180e-01
-5.800534039735794067e-02 -8.037517070770263672e-01 5.062094330787658691e-01
2.687206864356994629e-02 -7.180011272430419922e-01 6.132816076278686523e-01
-7.411336153745651245e-02 -5.966937541961669922e-01 -2.157584428787231445e-01
6.989108771085739136e-02 -5.817987918853759766e-01 4.092045426368713379e-01
1.739522516727447510e-01 -5.213987827301025391e-01 -3.104162216186523438e-01
-6.153222173452377319e-02 -9.197887182235717773e-01 -7.477769255638122559e-02
1.100183278322219849e-02 -9.155648350715637207e-01 -2.209274098277091980e-02
1.154014021158218384e-01 -8.894966840744018555e-01 -1.174983605742454529e-01
-8.994453400373458862e-02 -9.081674218177795410e-01 -2.877075970172882080e-01
3.417597711086273193e-01 -6.236542463302612305e-01 3.839777708053588867e-01
5.835602805018424988e-02 -8.363016247749328613e-01 4.921626746654510498e-01
3.685289621353149414e-01 -6.790627241134643555e-01 -2.146431207656860352e-01
3.733280301094055176e-02 -5.503918528556823730e-01 1.395673155784606934e-01
5.541673302650451660e-02 -9.012564420700073242e-01 -2.333443462848663330e-01
3.761092424392700195e-01 -6.833034753799438477e-01 -1.279105842113494873e-01
1.943852752447128296e-01 -5.716397762298583984e-01 4.629443585872650146e-01
7.617204636335372925e-02 -5.358952283859252930e-01 -2.927207350730895996e-01
1.466502249240875244e-02 -9.065777063369750977e-01 1.488991081714630127e-01
9.743273258209228516e-03 -5.677137374877929688e-01 -3.821122646331787109e-01
-1.528634727001190186e-01 -7.049730420112609863e-01 2.436139583587646484e-01
1.194646880030632019e-01 -7.761331796646118164e-01 5.952265858650207520e-01
-7.467285543680191040e-02 -6.070654988288879395e-01 -3.452746570110321045e-01
3.575755655765533447e-01 -5.829386711120605469e-01 -2.675948441028594971e-01
1.025282591581344604e-01 -6.134514212608337402e-01 5.391532778739929199e-01
-2.211763560771942139e-01 -8.392043709754943848e-01 -9.495765715837478638e-02
1.959932446479797363e-01 -7.779039144515991211e-01 5.207207798957824707e-01
2.618224620819091797e-01 -6.409354805946350098e-01 -5.903640389442443848e-01
4.340499266982078552e-02 -6.894724965095520020e-01 6.095901727676391602e-01
3.067543730139732361e-02 -8.998228311538696289e-01 1.974589526653289795e-01
8.064851164817810059e-03 -5.519586205482482910e-01 -1.433407068252563477e-01
-1.450845599174499512e-02 -6.208878755569458008e-01 -5.925899744033813477e-01
-1.845852136611938477e-01 -6.952440142631530762e-01 -2.458267286419868469e-02
-5.851656943559646606e-02 -8.801420331001281738e-01 3.224045932292938232e-01
1.646203696727752686e-01 -5.459668040275573730e-01 3.527498245239257812e-01
4.933901503682136536e-02 -5.519350171089172363e-01 1.980774402618408203e-01
-2.428110688924789429e-02 -6.082454919815063477e-01 3.253275454044342041e-01
3.300325572490692139e-01 -6.773840188980102539e-01 4.099846482276916504e-01
2.385238111019134521e-01 -5.569080710411071777e-01 4.021366238594055176e-01
-2.103576064109802246e-01 -8.118787407875061035e-01 -3.611806333065032959e-01
-6.800132244825363159e-02 -6.558642983436584473e-01 -5.972878336906433105e-01
1.776603758335113525e-01 -6.814424395561218262e-01 -7.081004977226257324e-01
-1.159779354929924011e-01 -9.002516865730285645e-01 1.282820105552673340e-01
-3.993272036314010620e-02 -7.268045544624328613e-01 5.479210615158081055e-01
3.601454198360443115e-02 -8.623508214950561523e-01 -5.305876731872558594e-01
6.044933199882507324e-02 -5.320087075233459473e-01 -9.816566109657287598e-02
1.328730434179306030e-01 -5.232489109039306641e-01 1.512072980403900146e-01
1.295015215873718262e-03 -5.563055276870727539e-01 -3.240689635276794434e-03
3.510936200618743896e-01 -6.083008050918579102e-01 3.390249907970428467e-01
-1.590707600116729736e-01 -7.567857503890991211e-01 3.133024573326110840e-01
-4.049539566040039062e-03 -6.637037992477416992e-01 5.258541703224182129e-01
3.499792814254760742e-01 -5.857429504394531250e-01 -3.076958656311035156e-01
9.900616109371185303e-02 -6.428080797195434570e-01 -7.208207249641418457e-01
3.105443418025970459e-01 -5.654129981994628906e-01 -3.783179223537445068e-01
-1.279502213001251221e-01 -7.620319128036499023e-01 -6.288185119628906250e-01
9.373329579830169678e-03 -9.158777594566345215e-01 -9.219400584697723389e-02
3.163127899169921875e-01 -7.443186640739440918e-01 -2.924350798130035400e-01
2.973024249076843262e-01 -7.788445353507995605e-01 -1.982657611370086670e-01
2.064760923385620117e-01 -5.282533168792724609e-01 -3.627024888992309570e-01
-9.774617850780487061e-03 -8.911028504371643066e-01 -4.226801693439483643e-01
3.873946145176887512e-02 -5.699291229248046875e-01 -4.690233469009399414e-01
3.914364576339721680e-01 -5.999430418014526367e-01 -1.150537654757499695e-02
8.250552415847778320e-02 -7.876979112625122070e-01 -6.984778642654418945e-01
3.943554461002349854e-01 -6.158063411712646484e-01 1.661670207977294922e-02
1.465958058834075928e-01 -8.008106946945190430e-01 -5.986830592155456543e-01
2.163366675376892090e-01 -8.443508744239807129e-01 6.511453539133071899e-02
2.053581178188323975e-03 -5.875540375709533691e-01 2.963306903839111328e-01
-1.419445276260375977e-01 -6.905899643898010254e-01 2.454290390014648438e-01
1.348176002502441406e-01 -8.696012496948242188e-01 2.333434522151947021e-01
5.412042140960693359e-03 -9.040249586105346680e-01 -3.112046718597412109e-01
2.976432740688323975e-01 -5.673389434814453125e-01 3.753962814807891846e-01
-1.928795129060745239e-02 -6.426308751106262207e-01 -6.464796662330627441e-01
3.776968717575073242e-01 -6.532042622566223145e-01 2.241966128349304199e-01
-2.233984768390655518e-01 -8.292494416236877441e-01 -2.018372416496276855e-01
6.504524499177932739e-02 -5.324052572250366211e-01 1.454645395278930664e-02
-1.510097980499267578e-01 -8.461441993713378906e-01 2.791418433189392090e-01
2.586204707622528076e-01 -8.086596131324768066e-01 2.053063809871673584e-01
2.989490032196044922e-01 -6.004723310470581055e-01 -4.825867116451263428e-01
2.297059595584869385e-01 -5.091961622238159180e-01 6.824391335248947144e-02
1.406220048666000366e-01 -5.205659270286560059e-01 1.368134021759033203e-01
1.951031088829040527e-01 -5.131387710571289062e-01 1.252727210521697998e-01
-6.360857933759689331e-02 -6.200516819953918457e-01 2.565177381038665771e-01
-1.937558948993682861e-01 -7.418712377548217773e-01 -4.025833010673522949e-01
-5.774065107107162476e-02 -7.642167806625366211e-01 5.312591791152954102e-01
3.516959547996520996e-01 -7.304878234863281250e-01 -7.796520739793777466e-02
9.263282269239425659e-02 -5.283943414688110352e-01 -2.501273155212402344e-01
-1.109735444188117981e-01 -8.307999372482299805e-01 3.947141766548156738e-01
3.980709239840507507e-02 -5.401865839958190918e-01 -1.676251590251922607e-01
-1.078818216919898987e-01 -8.009874820709228516e-01 4.368075132369995117e-01
1.742322146892547607e-01 -8.461515903472900391e-01 2.909987270832061768e-01
1.815005391836166382e-01 -5.661846399307250977e-01 4.437331855297088623e-01
-1.541015803813934326e-01 -8.558037281036376953e-01 2.455451488494873047e-01
1.936871409416198730e-01 -8.565192818641662598e-01 6.000295281410217285e-02
3.771044313907623291e-03 -9.080318212509155273e-01 -2.712080776691436768e-01
2.804028093814849854e-01 -5.129388570785522461e-01 -6.021445989608764648e-02
1.537753939628601074e-01 -8.541900515556335449e-01 -3.539285361766815186e-01
-1.176605150103569031e-01 -6.811009049415588379e-01 3.083010613918304443e-01
2.274849414825439453e-01 -7.137675881385803223e-01 -6.260556578636169434e-01
-2.087202668190002441e-01 -8.124171495437622070e-01 1.122671291232109070e-01
1.747090220451354980e-01 -8.521674871444702148e-01 -2.902306914329528809e-01
1.375452876091003418e-01 -5.154153704643249512e-01 4.552713036537170410e-02
-2.416689693927764893e-02 -7.710088491439819336e-01 -7.350222468376159668e-01
1.987911462783813477e-01 -8.128845691680908203e-01 4.041967391967773438e-01
1.194221302866935730e-01 -5.243546962738037109e-01 1.307225227355957031e-01
9.899996221065521240e-03 -8.292357325553894043e-01 5.114896893501281738e-01
3.616309762001037598e-01 -7.186971306800842285e-01 -3.773849457502365112e-02
-3.450705856084823608e-02 -8.019687533378601074e-01 -6.992703080177307129e-01
2.932377159595489502e-02 -9.128234982490539551e-01 -2.470014989376068115e-02
2.453484535217285156e-01 -5.200835466384887695e-01 1.944947838783264160e-01
3.945744931697845459e-01 -6.318333148956298828e-01 3.399739414453506470e-02
7.352955639362335205e-02 -5.778599977493286133e-01 -5.540738105773925781e-01
9.427812695503234863e-02 -5.318548679351806641e-01 1.451345980167388916e-01
-7.687529176473617554e-02 -6.213715672492980957e-01 -4.366247057914733887e-01
1.905966997146606445e-01 -5.072029829025268555e-01 -9.715311974287033081e-02
3.521357178688049316e-01 -6.831084489822387695e-01 3.184517621994018555e-01
2.752264738082885742e-01 -7.971338629722595215e-01 1.994900107383728027e-01
2.316480576992034912e-01 -6.911420226097106934e-01 -6.370522975921630859e-01
2.503558099269866943e-01 -8.060175180435180664e-01 -2.882186472415924072e-01
3.271870911121368408e-01 -7.572984099388122559e-01 1.276682019233703613e-01
-7.903396338224411011e-02 -6.929967999458312988e-01 -6.549571752548217773e-01
1.201991587877273560e-01 -5.316334366798400879e-01 2.074092924594879150e-01
2.289074361324310303e-01 -5.831186771392822266e-01 -5.588326454162597656e-01
2.960790097713470459e-01 -6.484858393669128418e-01 -5.237324237823486328e-01
3.225604817271232605e-02 -6.382012367248535156e-01 5.249575972557067871e-01
-7.260995358228683472e-02 -9.027364850044250488e-01 1.830556690692901611e-01
-1.950047314167022705e-01 -8.416187167167663574e-01 1.339443624019622803e-01
3.711853623390197754e-01 -6.163612008094787598e-01 2.658177912235260010e-01
-8.365064859390258789e-03 -5.962705016136169434e-01 -5.075810551643371582e-01
2.589794397354125977e-01 -5.733728408813476562e-01 -4.990007877349853516e-01
2.424803674221038818e-01 -8.155419826507568359e-01 2.401138842105865479e-01
-8.534971624612808228e-02 -9.129552841186523438e-01 6.374860554933547974e-02
-1.866260766983032227e-01 -7.649995088577270508e-01 2.157120704650878906e-01
2.848534286022186279e-01 -6.349833011627197266e-01 -5.446785092353820801e-01
2.484931945800781250e-01 -7.643079161643981934e-01 -4.832119643688201904e-01
-1.689072847366333008e-01 -8.442603945732116699e-01 2.313078939914703369e-01
3.176427483558654785e-01 -7.104026675224304199e-01 -3.982376456260681152e-01
-1.548160314559936523e-01 -6.577755808830261230e-01 -1.608655452728271484e-01
2.483088970184326172e-01 -6.934895515441894531e-01 5.667343139648437500e-01
-1.549983918666839600e-01 -6.852025389671325684e-01 1.605744659900665283e-01
-2.169676423072814941e-01 -7.511299848556518555e-01 -2.333328127861022949e-01
2.746124863624572754e-01 -5.118641853332519531e-01 5.628332495689392090e-03
2.255960404872894287e-01 -5.267568826675415039e-01 2.563931643962860107e-01
-1.534787118434906006e-01 -8.561013936996459961e-01 -4.660721123218536377e-01
2.141421735286712646e-01 -5.100371241569519043e-01 -1.825588941574096680e-01
-5.631849914789199829e-02 -5.955132246017456055e-01 1.210173740983009338e-01
-2.001734375953674316e-01 -7.127888202667236328e-01 -1.514174044132232666e-01
3.232074975967407227e-01 -5.592778921127319336e-01 -3.215254545211791992e-01
2.138188853859901428e-02 -8.887151479721069336e-01 2.897228598594665527e-01
-6.107307970523834229e-03 -5.734508633613586426e-01 1.750315427780151367e-01
-1.425213217735290527e-01 -8.490465879440307617e-01 -5.087630152702331543e-01
2.068340182304382324e-01 -8.395695090293884277e-01 -2.457793951034545898e-01
3.713058829307556152e-01 -5.611793398857116699e-01 -1.531355082988739014e-03
4.405499249696731567e-02 -7.549236416816711426e-01 6.188738942146301270e-01
3.805890381336212158e-01 -6.845869421958923340e-01 6.573929637670516968e-02
-8.522435277700424194e-02 -6.367186903953552246e-01 2.576672732830047607e-01
-1.068396046757698059e-01 -6.176390051841735840e-01 -1.827862560749053955e-01
2.865282595157623291e-01 -7.372886538505554199e-01 4.317700862884521484e-01
3.240162432193756104e-01 -7.416619062423706055e-01 2.699586749076843262e-01
8.189170062541961670e-02 -8.109220862388610840e-01 -6.517671942710876465e-01
2.705010473728179932e-01 -8.058435916900634766e-01 -1.465661823749542236e-01
3.125218749046325684e-01 -7.026808857917785645e-01 -4.327884912490844727e-01
1.788983941078186035e-01 -5.235815644264221191e-01 2.203318178653717041e-01
-8.224203437566757202e-02 -9.166174530982971191e-01 4.851169884204864502e-03
-9.568043798208236694e-02 -6.375219225883483887e-01 -4.516378045082092285e-01
3.570002019405364990e-01 -7.074227333068847656e-01 -1.959153115749359131e-01
1.132032871246337891e-01 -8.027502298355102539e-01 5.497782230377197266e-01
2.081714272499084473e-01 -5.230463743209838867e-01 2.298446893692016602e-01
9.524477273225784302e-02 -8.859564065933227539e-01 1.988526582717895508e-01
1.269418895244598389e-01 -7.196581363677978516e-01 6.417675614356994629e-01
-1.339637935161590576e-01 -7.661456465721130371e-01 3.904411792755126953e-01
2.746037840843200684e-01 -6.292682886123657227e-01 -5.611951351165771484e-01
9.493469446897506714e-02 -7.933374643325805664e-01 -6.782414317131042480e-01
-1.282633543014526367e-01 -9.079083204269409180e-01 -1.916045546531677246e-01
-2.188608050346374512e-01 -7.895823121070861816e-01 -3.113178610801696777e-01
-5.187300592660903931e-02 -5.818844437599182129e-01 -5.198051407933235168e-02
2.736423909664154053e-02 -5.569902658462524414e-01 -3.492087125778198242e-01
3.931311890482902527e-02 -5.719801783561706543e-01 3.065779805183410645e-01
2.617020010948181152e-01 -5.096757411956787109e-01 -6.977585703134536743e-02
2.555084228515625000e-01 -6.544112563133239746e-01 5.612278580665588379e-01
1.517240107059478760e-01 -8.646852374076843262e-01 2.191007435321807861e-01
1.734386086463928223e-01 -6.280515193939208984e-01 5.869950652122497559e-01
1.234093457460403442e-01 -8.879663944244384766e-01 -4.545465111732482910e-02
-3.326459974050521851e-02 -7.803872823715209961e-01 5.525585412979125977e-01
3.121419250965118408e-02 -8.872278332710266113e-01 -4.080358743667602539e-01
-1.271340847015380859e-01 -6.350986957550048828e-01 -2.235016524791717529e-01
-1.553450524806976318e-02 -9.143452644348144531e-01 7.899447530508041382e-02
1.372106373310089111e-01 -8.813717365264892578e-01 -1.182802468538284302e-01
2.630667090415954590e-01 -5.182813405990600586e-01 1.565637588500976562e-01
1.836897134780883789e-01 -5.172455906867980957e-01 1.646893024444580078e-01
-2.151094377040863037e-01 -8.017891645431518555e-01 7.631813734769821167e-02
3.049314022064208984e-01 -7.831410765647888184e-01 -2.057552337646484375e-04
-1.875154376029968262e-01 -7.053390741348266602e-01 2.963092923164367676e-02
-2.194996476173400879e-01 -7.978814840316772461e-01 4.108387231826782227e-02
3.648424148559570312e-01 -6.852270960807800293e-01 2.431477010250091553e-01
3.041237592697143555e-01 -7.324682474136352539e-01 3.900684714317321777e-01
-1.208631172776222229e-01 -6.350994110107421875e-01 -2.949109077453613281e-01
2.765172719955444336e-01 -5.159423351287841797e-01 -1.582019329071044922e-01
-1.868420541286468506e-01 -7.105512619018554688e-01 -3.349987864494323730e-01
-3.116798400878906250e-02 -6.213320493698120117e-01 -5.635410547256469727e-01
3.406797051429748535e-01 -7.394393682479858398e-01 1.562047302722930908e-01
-1.790046393871307373e-01 -8.668214082717895508e-01 1.182386055588722229e-01
-3.765191137790679932e-02 -5.955096483230590820e-01 2.113531827926635742e-01
2.227968722581863403e-02 -5.558189749717712402e-01 1.316507458686828613e-01
-7.802633196115493774e-02 -6.233677268028259277e-01 2.171237766742706299e-01
1.100661456584930420e-01 -8.915211558341979980e-01 3.794846683740615845e-02
1.417160332202911377e-01 -5.141393542289733887e-01 -1.645333766937255859e-01
3.454575240612030029e-01 -7.075407505035400391e-01 2.896610796451568604e-01
1.153841242194175720e-01 -8.729115724563598633e-01 -3.351251184940338135e-01
-5.927395075559616089e-02 -7.989702224731445312e-01 -6.910494565963745117e-01
-1.902311146259307861e-01 -8.639163374900817871e-01 -3.120907247066497803e-01
-1.906511187553405762e-01 -7.515994310379028320e-01 -4.376825392246246338e-01
3.056104779243469238e-01 -7.604174017906188965e-01 -2.708398103713989258e-01
3.303323686122894287e-01 -7.407491207122802734e-01 -2.223298549652099609e-01
1.877065151929855347e-01 -5.154424905776977539e-01 1.480130851268768311e-01
-2.265405952930450439e-01 -7.824215888977050781e-01 -6.846453994512557983e-02
-1.679208278656005859e-01 -7.579165697097778320e-01 2.838125228881835938e-01
2.956887781620025635e-01 -7.372280955314636230e-01 -4.106009304523468018e-01
-2.108979821205139160e-01 -7.749158740043640137e-01 9.207066148519515991e-02
2.820565998554229736e-01 -8.021416068077087402e-01 -3.891061991453170776e-03
2.851045429706573486e-01 -7.037189006805419922e-01 -5.138691663742065430e-01
-1.632364094257354736e-02 -9.154833555221557617e-01 -1.949372887611389160e-01
-9.508638828992843628e-02 -9.169288873672485352e-01 -9.016821533441543579e-02
-1.466613709926605225e-01 -8.915798664093017578e-01 1.025405004620552063e-01
1.008024960756301880e-01 -6.226670145988464355e-01 5.577021241188049316e-01
-2.102434039115905762e-01 -8.298599123954772949e-01 -3.298078477382659912e-01
6.235238164663314819e-02 -8.911232948303222656e-01 2.258262932300567627e-01
-4.404411464929580688e-02 -6.223165988922119141e-01 -5.392747521400451660e-01
1.003661081194877625e-01 -7.016189098358154297e-01 -7.584650516510009766e-01
-7.569582015275955200e-02 -6.116666197776794434e-01 -3.777319490909576416e-01
-1.817710697650909424e-01 -7.332251667976379395e-01 -4.434909820556640625e-01
2.001547068357467651e-02 -5.476266145706176758e-01 -1.675834953784942627e-01
5.190878733992576599e-02 -5.447794198989868164e-01 -3.119278252124786377e-01
2.075456976890563965e-01 -8.253436088562011719e-01 3.173643946647644043e-01
-1.433002203702926636e-02 -5.617067217826843262e-01 -1.198677569627761841e-01
3.287877440452575684e-01 -5.293093323707580566e-01 1.486284285783767700e-02
1.086797863245010376e-01 -5.883174538612365723e-01 4.768142402172088623e-01
3.767965137958526611e-01 -6.021195650100708008e-01 -2.037537395954132080e-01
-1.196939125657081604e-01 -6.448208093643188477e-01 1.390890479087829590e-01
2.845326066017150879e-01 -5.179778337478637695e-01 1.030020490288734436e-01
1.648609042167663574e-01 -5.306999087333679199e-01 2.627407908439636230e-01
8.144890516996383667e-02 -7.554674744606018066e-01 6.261908411979675293e-01
3.816652894020080566e-01 -6.805815696716308594e-01 -5.563025176525115967e-02
3.604652285575866699e-01 -5.510205030441284180e-01 -5.230332911014556885e-02
3.034189343452453613e-03 -8.866306543350219727e-01 -4.403153359889984131e-01
3.315090537071228027e-01 -5.388215780258178711e-01 1.468130052089691162e-01
-3.658193349838256836e-02 -6.039490699768066406e-01 2.664610743522644043e-01
3.807523250579833984e-01 -6.596469283103942871e-01 1.887413561344146729e-01
8.270743489265441895e-02 -5.715243816375732422e-01 3.851603269577026367e-01
2.743636071681976318e-01 -7.778809666633605957e-01 3.301695883274078369e-01
2.934282720088958740e-01 -6.896672248840332031e-01 4.924215972423553467e-01
6.871448457241058350e-02 -8.351762294769287109e-01 -5.977486371994018555e-01
9.030689299106597900e-02 -8.923571109771728516e-01 1.398226916790008545e-01
-3.471546620130538940e-02 -5.910767316818237305e-01 1.922957599163055420e-01
2.760676145553588867e-01 -6.849217414855957031e-01 -5.560384988784790039e-01
9.253330528736114502e-03 -8.972239494323730469e-01 -3.646484613418579102e-01
2.655358016490936279e-01 -8.144434094429016113e-01 9.661614894866943359e-04
1.318735331296920776e-01 -8.639724850654602051e-01 -3.534024655818939209e-01
2.103661596775054932e-01 -5.061926841735839844e-01 -6.019121408462524414e-02
2.556665539741516113e-01 -5.085960626602172852e-01 -3.265828266739845276e-02
2.548485100269317627e-01 -5.931680202484130859e-01 -5.482419729232788086e-01
-3.103554993867874146e-02 -9.178802967071533203e-01 2.157368510961532593e-02
1.778888851404190063e-01 -8.472155332565307617e-01 2.711912393569946289e-01
3.812758922576904297e-01 -5.966489315032958984e-01 1.680712401866912842e-01
8.439559489488601685e-02 -5.866181850433349609e-01 4.463634192943572998e-01
3.076772391796112061e-01 -6.805480718612670898e-01 -4.789345264434814453e-01
-1.344315707683563232e-01 -9.063704013824462891e-01 -1.242329925298690796e-02
-1.805903911590576172e-01 -6.946492195129394531e-01 -2.883142828941345215e-01
-1.655001938343048096e-01 -7.142484188079833984e-01 2.136574685573577881e-01
2.336478605866432190e-02 -9.100763797760009766e-01 -1.992345452308654785e-01
3.772488832473754883e-01 -6.740825176239013672e-01 1.801922023296356201e-01
-2.245438098907470703e-01 -8.311676979064941406e-01 -1.242439448833465576e-01
-1.762915402650833130e-02 -5.900567173957824707e-01 2.503710389137268066e-01
7.893918454647064209e-02 -6.419686079025268555e-01 -7.176783680915832520e-01
4.224533587694168091e-02 -6.131517887115478516e-01 4.756366312503814697e-01
1.955152451992034912e-01 -5.492311120033264160e-01 -4.763928651809692383e-01
-1.273395419120788574e-01 -7.341451048851013184e-01 3.844610452651977539e-01
1.807877272367477417e-01 -8.002820014953613281e-01 -5.379080772399902344e-01
1.440729498863220215e-01 -5.298386812210083008e-01 -3.603619933128356934e-01
3.086689114570617676e-01 -5.260643959045410156e-01 -1.598125100135803223e-01
2.706478238105773926e-01 -6.354937553405761719e-01 5.325352549552917480e-01
1.808651983737945557e-01 -5.107783675193786621e-01 -1.835410445928573608e-01
-1.547182202339172363e-01 -6.604492664337158203e-01 -2.856424078345298767e-02
1.402260363101959229e-02 -5.491974353790283203e-01 -1.245448887348175049e-01
7.278069853782653809e-02 -8.765577673912048340e-01 3.146723806858062744e-01
3.083306178450584412e-02 -8.940150141716003418e-01 -3.605750799179077148e-01
-1.367298066616058350e-01 -8.105939030647277832e-01 3.699377775192260742e-01
-1.612136363983154297e-01 -8.233072161674499512e-01 -5.231263637542724609e-01
2.201205193996429443e-01 -8.432909846305847168e-01 -4.377641156315803528e-02
-2.209298908710479736e-01 -8.395447731018066406e-01 -1.676492989063262939e-01
3.828063011169433594e-01 -5.957502126693725586e-01 -1.402811706066131592e-01
2.173270881175994873e-01 -8.445880413055419922e-01 3.584032505750656128e-02
1.497960388660430908e-01 -8.625764846801757812e-01 2.449368536472320557e-01
2.269997894763946533e-01 -7.212112545967102051e-01 5.728747844696044922e-01
3.507375419139862061e-01 -7.281555533409118652e-01 1.415496170520782471e-01
2.444845438003540039e-01 -7.137084603309631348e-01 -5.944124460220336914e-01
-1.694447696208953857e-01 -7.729469537734985352e-01 -5.337646603584289551e-01
3.819544911384582520e-01 -6.075604557991027832e-01 1.884057223796844482e-01
-4.073053598403930664e-03 -5.629658699035644531e-01 -2.732512950897216797e-01
3.615168631076812744e-01 -6.024271845817565918e-01 2.913222610950469971e-01
3.252248167991638184e-01 -7.422396540641784668e-01 -2.493284940719604492e-01
-1.048165336251258850e-01 -8.885233402252197266e-01 2.265654504299163818e-01
1.140589267015457153e-02 -9.097355604171752930e-01 1.135907694697380066e-01
-2.566490322351455688e-02 -6.010249853134155273e-01 2.862434089183807373e-01
2.780851125717163086e-01 -5.750356912612915039e-01 -4.732237458229064941e-01
-1.272118836641311646e-02 -9.058442115783691406e-01 -3.143522441387176514e-01
-1.202095374464988708e-01 -7.287497520446777344e-01 -6.244685053825378418e-01
7.666024565696716309e-02 -8.973740339279174805e-01 1.190936341881752014e-01
1.255825906991958618e-01 -5.246620774269104004e-01 -2.888939082622528076e-01
-4.831666499376296997e-02 -7.994309067726135254e-01 5.212988257408142090e-01
2.213637158274650574e-02 -5.508987903594970703e-01 -2.556630074977874756e-01
8.777610212564468384e-02 -8.494657278060913086e-01 -5.235733389854431152e-01
9.223580360412597656e-03 -8.309282660484313965e-01 -6.462327837944030762e-01
-1.090234443545341492e-01 -6.602492332458496094e-01 2.680416703224182129e-01
3.062906563282012939e-01 -7.370833754539489746e-01 -3.691146969795227051e-01
-1.618038415908813477e-01 -8.456661105155944824e-01 -4.762492179870605469e-01
2.514909505844116211e-01 -7.761325836181640625e-01 -4.345729053020477295e-01
1.430880874395370483e-01 -8.455599546432495117e-01 3.713137209415435791e-01
1.518555581569671631e-01 -8.766760230064392090e-01 1.451490074396133423e-02
5.572758615016937256e-03 -8.914598822593688965e-01 -4.088507592678070068e-01
3.801899850368499756e-01 -5.756905674934387207e-01 6.309745460748672485e-02
1.244874373078346252e-01 -5.820146203041076660e-01 4.695070683956146240e-01
3.119904994964599609e-01 -7.743079662322998047e-01 9.744080156087875366e-02
-2.192732393741607666e-01 -7.533560991287231445e-01 -7.263959944248199463e-02
2.525020539760589600e-01 -5.795971155166625977e-01 4.627309739589691162e-01
-1.455095708370208740e-01 -6.795695424079895020e-01 -4.373416602611541748e-01
3.585868701338768005e-02 -8.434234261512756348e-01 4.768740832805633545e-01
2.959755808115005493e-02 -6.101345419883728027e-01 4.473432004451751709e-01
-4.574737697839736938e-02 -5.799787044525146484e-01 -5.928386002779006958e-03
3.824612125754356384e-02 -8.938684463500976562e-01 2.389576435089111328e-01
2.941176593303680420e-01 -5.540344715118408203e-01 -3.773738145828247070e-01
3.803466558456420898e-01 -6.329423189163208008e-01 -2.023594677448272705e-01
-2.148233950138092041e-01 -7.435564398765563965e-01 -2.160869538784027100e-01
1.702717244625091553e-01 -5.314276814460754395e-01 -3.859118819236755371e-01
-2.206057906150817871e-01 -7.540423274040222168e-01 -1.151326894760131836e-01
-1.939238309860229492e-01 -8.321144580841064453e-01 -4.069042503833770752e-01
1.750745773315429688e-01 -7.865908145904541016e-01 5.286671519279479980e-01
3.221893012523651123e-01 -5.607559084892272949e-01 3.028091788291931152e-01
3.427310287952423096e-01 -6.885352730751037598e-01 -3.402207493782043457e-01
-1.211638376116752625e-01 -9.087699055671691895e-01 -2.090214192867279053e-01
3.162481486797332764e-01 -5.316077470779418945e-01 -1.838548779487609863e-01
1.808098852634429932e-01 -7.932780981063842773e-01 5.038630962371826172e-01
-5.228189378976821899e-02 -5.949716567993164062e-01 1.389940083026885986e-01
-5.334997922182083130e-02 -9.046450257301330566e-01 1.844465136528015137e-01
1.854176819324493408e-01 -5.517185926437377930e-01 -4.901073276996612549e-01
-2.757433801889419556e-02 -9.134380221366882324e-01 -2.416520416736602783e-01
2.461090683937072754e-01 -6.091117858886718750e-01 -5.855907201766967773e-01
-1.291509866714477539e-01 -6.410945653915405273e-01 3.531778603792190552e-02
-8.681673556566238403e-02 -7.351190447807312012e-01 -6.858510971069335938e-01
3.884972631931304932e-01 -6.231338977813720703e-01 1.498772501945495605e-01
-5.994766205549240112e-02 -6.824062466621398926e-01 4.633526504039764404e-01
1.732208132743835449e-01 -5.692343115806579590e-01 -5.567198395729064941e-01
-1.638090908527374268e-01 -6.678187251091003418e-01 -7.056578993797302246e-02
-1.144658401608467102e-01 -9.080265760421752930e-01 -2.426206767559051514e-01
-1.176814362406730652e-01 -6.347027420997619629e-01 -3.169034719467163086e-01
2.056090831756591797e-01 -6.063119173049926758e-01 -6.253365874290466309e-01
4.937014728784561157e-02 -8.216341733932495117e-01 -6.507241129875183105e-01
-9.216030687093734741e-02 -9.155008792877197266e-01 -1.763361990451812744e-01
8.020763844251632690e-02 -8.293025493621826172e-01 5.026383996009826660e-01
5.273569375276565552e-02 -9.011299014091491699e-01 1.420608162879943848e-01
3.810921907424926758e-01 -5.853556394577026367e-01 -1.165879219770431519e-01
3.220396637916564941e-01 -7.202083468437194824e-01 -3.542898297309875488e-01
3.638789653778076172e-01 -6.689404249191284180e-01 -2.687394022941589355e-01
1.547790765762329102e-01 -8.755104541778564453e-01 -6.428730487823486328e-02
-1.349341571331024170e-01 -7.231422066688537598e-01 3.476313352584838867e-01
3.779051825404167175e-02 -9.097870588302612305e-01 -1.470732688903808594e-01
3.646996319293975830e-01 -6.717461347579956055e-01 2.757221758365631104e-01
-8.677140623331069946e-02 -9.020374417304992676e-01 1.704784035682678223e-01
5.900222808122634888e-02 -8.952746987342834473e-01 -2.932330965995788574e-01
1.145758107304573059e-01 -5.174276828765869141e-01 -8.428446948528289795e-02
1.013924181461334229e-02 -5.507524013519287109e-01 -7.628636807203292847e-02
1.281012594699859619e-02 -5.865951180458068848e-01 -5.054454207420349121e-01
3.852023184299468994e-01 -6.412087082862854004e-01 -1.559602320194244385e-01
2.413842082023620605e-01 -5.088300704956054688e-01 4.586941003799438477e-02
1.034811511635780334e-01 -6.303382515907287598e-01 -7.029643654823303223e-01
-1.748839020729064941e-01 -7.116832137107849121e-01 1.563685238361358643e-01
3.621287047863006592e-01 -7.053206562995910645e-01 1.829677522182464600e-01
1.103530675172805786e-01 -7.878467440605163574e-01 -6.744621992111206055e-01
2.025031149387359619e-01 -8.498092889785766602e-01 1.111767813563346863e-01
-1.071395203471183777e-01 -6.388216614723205566e-01 1.710223853588104248e-01
3.433510363101959229e-01 -7.273198962211608887e-01 -2.011929750442504883e-01
2.830745652318000793e-02 -8.540728688240051270e-01 4.444606006145477295e-01
-9.633309394121170044e-02 -6.562902927398681641e-01 -5.287027359008789062e-01
6.689706444740295410e-02 -8.112956285476684570e-01 5.509201884269714355e-01
3.289294540882110596e-01 -7.594661116600036621e-01 4.978300631046295166e-02
-4.284258931875228882e-02 -6.481581926345825195e-01 4.213503599166870117e-01
-3.749846667051315308e-02 -9.154415726661682129e-01 -2.188370525836944580e-01
2.916455566883087158e-01 -5.434814095497131348e-01 2.902849614620208740e-01
2.088173031806945801e-01 -8.389999866485595703e-01 2.084061801433563232e-01
4.292853176593780518e-02 -7.987287044525146484e-01 5.742194652557373047e-01
2.934107780456542969e-01 -6.052138209342956543e-01 -5.009240508079528809e-01
-5.746256560087203979e-02 -6.285254359245300293e-01 3.166000247001647949e-01
2.293925583362579346e-01 -5.125983953475952148e-01 1.238099709153175354e-01
1.241235956549644470e-01 -5.479776859283447266e-01 -4.603307247161865234e-01
2.959668636322021484e-03 -6.454348564147949219e-01 4.998742043972015381e-01
-7.383389025926589966e-02 -7.518365979194641113e-01 -7.059521079063415527e-01
-1.379549503326416016e-03 -8.728211522102355957e-01 -5.121329426765441895e-01
2.806718945503234863e-01 -5.283711552619934082e-01 2.168049216270446777e-01
-8.900018781423568726e-02 -9.174084663391113281e-01 -5.014973506331443787e-02
2.439359128475189209e-01 -7.767772674560546875e-01 -4.561724066734313965e-01
2.315978407859802246e-01 -8.354611396789550781e-01 6.654991954565048218e-02
5.613715946674346924e-02 -8.002791404724121094e-01 -6.925308108329772949e-01
1.661793589591979980e-01 -5.090010166168212891e-01 -3.612644970417022705e-02
-2.051059901714324951e-01 -7.317076921463012695e-01 -2.788909971714019775e-01
9.819284081459045410e-03 -6.030280590057373047e-01 -5.697741508483886719e-01
1.408419609069824219e-01 -5.716401934623718262e-01 4.457210004329681396e-01
2.098246216773986816e-01 -8.492634296417236328e-01 -1.759719848632812500e-02
1.942404210567474365e-01 -8.358450531959533691e-01 2.954450547695159912e-01
-4.955448955297470093e-02 -8.776145577430725098e-01 -5.001049637794494629e-01
-1.687963008880615234e-01 -8.936688899993896484e-01 -6.757719814777374268e-02
3.065463006496429443e-01 -5.203683972358703613e-01 2.076366543769836426e-02
3.532790839672088623e-01 -5.799582004547119141e-01 2.718030810356140137e-01
1.540847718715667725e-01 -6.482036113739013672e-01 -7.115588188171386719e-01
2.621143162250518799e-01 -5.113064050674438477e-01 -1.235331147909164429e-01
9.715778380632400513e-02 -8.917806744575500488e-01 -1.995155811309814453e-01
-2.211934328079223633e-01 -8.181434869766235352e-01 -2.706051766872406006e-01
1.286227852106094360e-01 -5.161604285240173340e-01 2.182320505380630493e-02
1.013048961758613586e-01 -8.660353422164916992e-01 -4.180049300193786621e-01
7.291669398546218872e-02 -8.645833134651184082e-01 -4.770289361476898193e-01
-1.169994398951530457e-01 -8.662629127502441406e-01 2.980414927005767822e-01
2.016837298870086670e-01 -7.934215664863586426e-01 -5.135099887847900391e-01
5.660799145698547363e-02 -6.968267560005187988e-01 6.234940290451049805e-01
2.564812302589416504e-01 -7.510491609573364258e-01 -4.976880550384521484e-01
3.479963541030883789e-01 -7.250621914863586426e-01 1.939343512058258057e-01
-2.244635820388793945e-01 -8.250813484191894531e-01 -5.898994579911231995e-02
3.895719945430755615e-01 -6.402910947799682617e-01 1.317347586154937744e-01
3.053344786167144775e-03 -5.638269782066345215e-01 -3.210335373878479004e-01
1.711818575859069824e-02 -5.527454614639282227e-01 6.350619345903396606e-02
1.305317580699920654e-01 -8.386710286140441895e-01 -4.966102242469787598e-01
1.212566047906875610e-01 -5.362973213195800781e-01 -3.853361904621124268e-01
3.822644650936126709e-01 -6.743105053901672363e-01 1.192235276103019714e-01
1.354981958866119385e-01 -5.406620502471923828e-01 -4.270020127296447754e-01
-1.463178992271423340e-01 -6.736716628074645996e-01 -4.060483574867248535e-01
1.015485376119613647e-01 -8.828124403953552246e-01 -2.915094196796417236e-01
1.519228965044021606e-01 -8.573998808860778809e-01 2.789540290832519531e-01
-1.157199218869209290e-01 -7.104336023330688477e-01 3.818872272968292236e-01
2.044012248516082764e-01 -6.457488536834716797e-01 5.977746844291687012e-01
-4.453206807374954224e-02 -5.814134478569030762e-01 3.468842059373855591e-02
-1.356394290924072266e-01 -8.404461145401000977e-01 -5.418708920478820801e-01
3.840620219707489014e-01 -6.608403325080871582e-01 -1.269878447055816650e-01
-3.937775641679763794e-02 -6.296657323837280273e-01 -5.761334896087646484e-01
-7.934429496526718140e-02 -6.684371829032897949e-01 3.879134953022003174e-01
2.544935941696166992e-01 -6.731840968132019043e-01 5.649474263191223145e-01
-1.138569638133049011e-01 -6.221178770065307617e-01 -1.022742614150047302e-01
3.516813516616821289e-01 -5.872418880462646484e-01 2.976994812488555908e-01
2.556925415992736816e-01 -7.212295532226562500e-01 -5.602550506591796875e-01
-2.190621495246887207e-01 -8.402917385101318359e-01 -5.335421115159988403e-02
-8.713506907224655151e-02 -9.065409302711486816e-01 -3.069651424884796143e-01
3.505215644836425781e-01 -7.084316611289978027e-01 2.571955919265747070e-01
3.924243152141571045e-03 -8.585906028747558594e-01 4.299683272838592529e-01
-1.612443476915359497e-02 -9.102566242218017578e-01 -2.712625861167907715e-01
3.580891489982604980e-01 -6.962321400642395020e-01 -2.341342866420745850e-01
3.798604607582092285e-01 -6.357312202453613281e-01 2.230652570724487305e-01
3.091608881950378418e-01 -5.344835519790649414e-01 -2.362262308597564697e-01
2.889336347579956055e-01 -6.230729818344116211e-01 4.963451921939849854e-01
-1.509658992290496826e-02 -5.748232603073120117e-01 -3.494615554809570312e-01
3.261719048023223877e-01 -6.833706498146057129e-01 -4.159655570983886719e-01
-1.067611053586006165e-01 -6.230170130729675293e-01 -2.816779613494873047e-01
2.700222432613372803e-01 -5.354208946228027344e-01 -3.385527729988098145e-01
1.906183809041976929e-01 -7.279295325279235840e-01 6.051553487777709961e-01
-9.159832447767257690e-02 -8.942114710807800293e-01 -3.951423168182373047e-01
-1.819875240325927734e-01 -7.110612392425537109e-01 1.085354760289192200e-01
2.447440922260284424e-01 -7.817886471748352051e-01 4.111463427543640137e-01
3.934202194213867188e-01 -6.445516347885131836e-01 8.677013218402862549e-03
-1.460785567760467529e-01 -6.534534692764282227e-01 -5.294941365718841553e-03
-6.589654833078384399e-02 -8.795017004013061523e-01 -4.874291419982910156e-01
-1.264698207378387451e-01 -7.162234187126159668e-01 -5.948355197906494141e-01
-1.347999274730682373e-01 -8.480101823806762695e-01 -5.251088738441467285e-01
3.792149946093559265e-02 -8.175441622734069824e-01 -6.666299700736999512e-01
3.864485323429107666e-01 -6.600291728973388672e-01 -9.783656150102615356e-02
-1.077100113034248352e-01 -6.314942240715026855e-01 -3.566040694713592529e-01
-1.561997532844543457e-01 -7.705345749855041504e-01 3.308529853820800781e-01
1.609321236610412598e-01 -8.731480240821838379e-01 -1.688674837350845337e-02
1.935879886150360107e-01 -8.495922684669494629e-01 1.796946525573730469e-01
-1.833966672420501709e-01 -7.195047140121459961e-01 1.334343254566192627e-01
-6.902838498353958130e-02 -6.005555391311645508e-01 9.015771001577377319e-02
-1.173559501767158508e-01 -6.952778100967407227e-01 -5.794378519058227539e-01
-7.130736857652664185e-02 -9.127801060676574707e-01 8.842308074235916138e-02
-2.032936513423919678e-01 -7.385671734809875488e-01 -3.286699056625366211e-01
1.012558713555335999e-01 -6.784833073616027832e-01 -7.521592378616333008e-01
-1.554653048515319824e-02 -5.638688802719116211e-01 -1.928667128086090088e-01
2.409240901470184326e-01 -7.296742200851440430e-01 -5.792724490165710449e-01
-2.073963284492492676e-01 -8.550894856452941895e-01 -2.438536882400512695e-01
1.732039749622344971e-01 -8.094398379325866699e-01 -5.230937004089355469e-01
-1.868481338024139404e-01 -8.710060715675354004e-01 5.308226495981216431e-02
-5.780238658189773560e-02 -8.448438644409179688e-01 4.366263449192047119e-01
-1.552081704139709473e-01 -7.602068781852722168e-01 -5.681329965591430664e-01
6.921395659446716309e-03 -8.461576104164123535e-01 -6.054805517196655273e-01
7.006822526454925537e-02 -6.142753958702087402e-01 -6.626988649368286133e-01
-2.077477872371673584e-01 -8.451213836669921875e-01 -2.957974672317504883e-01
-5.527987331151962280e-02 -8.935886621475219727e-01 2.580141127109527588e-01
-1.592051237821578979e-02 -8.636260032653808594e-01 4.087525308132171631e-01
-7.770784199237823486e-03 -7.178251147270202637e-01 -7.523919343948364258e-01
2.150871753692626953e-01 -8.242932558059692383e-01 -3.286302983760833740e-01
-9.822808951139450073e-02 -8.732561469078063965e-01 3.046872615814208984e-01
-1.385285705327987671e-02 -9.169756770133972168e-01 -1.559626162052154541e-01
1.400480568408966064e-01 -5.442725419998168945e-01 3.233067095279693604e-01
-1.593667864799499512e-01 -6.927760839462280273e-01 -4.251615405082702637e-01
4.181365296244621277e-02 -5.449063777923583984e-01 9.410386532545089722e-02
-1.246389076113700867e-01 -6.312852501869201660e-01 -7.047073543071746826e-02
2.760300040245056152e-01 -8.065692186355590820e-01 2.656133472919464111e-02
2.026026993989944458e-01 -7.680073380470275879e-01 5.332333445549011230e-01
-2.077408134937286377e-01 -7.448195219039916992e-01 -3.138199448585510254e-01
1.678712964057922363e-01 -8.646556735038757324e-01 1.404286026954650879e-01
2.237229049205780029e-01 -6.282221674919128418e-01 5.695291757583618164e-01
6.821335107088088989e-02 -9.022357463836669922e-01 6.789872795343399048e-02
-2.869546413421630859e-03 -8.971705436706542969e-01 -3.772269487380981445e-01
1.686652898788452148e-01 -8.399944305419921875e-01 -3.972757160663604736e-01
-2.676860988140106201e-02 -9.075134992599487305e-01 1.667955815792083740e-01
1.357028633356094360e-01 -6.489468216896057129e-01 -7.206912040710449219e-01
-8.664274960756301880e-02 -8.492438793182373047e-01 3.937439322471618652e-01
-1.840556561946868896e-01 -8.198850750923156738e-01 -4.645184576511383057e-01
-1.241993233561515808e-01 -6.516997218132019043e-01 -4.018971025943756104e-01
-1.925390362739562988e-01 -8.780523538589477539e-01 -1.023063957691192627e-01
-2.081182003021240234e-01 -7.263051867485046387e-01 -1.187290102243423462e-01
2.601772248744964600e-01 -8.179184198379516602e-01 3.163671493530273438e-02
2.893666923046112061e-01 -7.579326629638671875e-01 3.584974110126495361e-01
1.251749694347381592e-03 -8.816033601760864258e-01 3.361540138721466064e-01
-2.221003770828247070e-01 -7.811115384101867676e-01 1.281388103961944580e-04
1.780573129653930664e-01 -8.291067481040954590e-01 3.787271678447723389e-01
3.650714755058288574e-01 -6.101627349853515625e-01 -2.824849486351013184e-01
-9.971270710229873657e-02 -7.309994697570800781e-01 4.476601779460906982e-01
2.103651762008666992e-01 -8.308311104774475098e-01 -3.029343187808990479e-01
1.919589638710021973e-01 -6.708985567092895508e-01 -6.930581331253051758e-01
3.703878521919250488e-01 -6.762699484825134277e-01 2.298911213874816895e-01
8.519984781742095947e-02 -7.135564088821411133e-01 -7.627880573272705078e-01
-6.975799053907394409e-02 -8.869012594223022461e-01 -4.506259858608245850e-01
1.888209581375122070e-01 -5.111973285675048828e-01 9.034224599599838257e-02
-2.040870189666748047e-01 -8.653523325920104980e-01 -6.644562631845474243e-02
1.896713376045227051e-01 -5.069096088409423828e-01 -4.113394767045974731e-02
-2.287731468677520752e-01 -8.048254847526550293e-01 -1.697286963462829590e-01
-1.910794973373413086e-01 -8.758530616760253906e-01 -2.109295427799224854e-01
1.561332941055297852e-01 -5.113320350646972656e-01 -1.411724984645843506e-01
-2.222779393196105957e-01 -7.711457610130310059e-01 -2.448175847530364990e-01
-8.216816931962966919e-02 -6.658437848091125488e-01 -5.934443473815917969e-01
2.304008603096008301e-01 -8.217557072639465332e-01 2.511410713195800781e-01
1.005624234676361084e-01 -5.256258845329284668e-01 8.480269461870193481e-02
1.494898498058319092e-01 -5.675022602081298828e-01 -5.534074902534484863e-01
2.087552547454833984e-01 -8.180174231529235840e-01 3.543886840343475342e-01
-1.023123040795326233e-01 -8.170804381370544434e-01 -6.301299929618835449e-01
-2.685345709323883057e-01 2.879974059760570526e-02 2.247232943773269653e-01
-1.914332062005996704e-01 1.083715260028839111e-01 -3.256800472736358643e-01
8.786597847938537598e-02 1.451524794101715088e-01 1.138075441122055054e-01
-1.488004326820373535e-01 -4.411223903298377991e-02 -3.119050264358520508e-01
-2.394012361764907837e-02 1.165395081043243408e-01 5.130921006202697754e-01
1.830743402242660522e-01 1.281240135431289673e-01 1.773962378501892090e-01
-1.117518916726112366e-01 -5.708256736397743225e-02 5.646103993058204651e-02
-3.035726845264434814e-01 2.567275799810886383e-02 -8.235506713390350342e-02
-2.774937152862548828e-01 -5.544815212488174438e-03 -8.030629158020019531e-02
2.441190183162689209e-01 -1.818515732884407043e-02 4.650609567761421204e-02
1.928626596927642822e-01 1.218039989471435547e-01 2.849019765853881836e-01
-1.159648150205612183e-01 6.953142583370208740e-04 5.188084244728088379e-01
-1.891876161098480225e-01 -1.493589952588081360e-02 -4.612912237644195557e-01
5.672930553555488586e-02 -6.255044043064117432e-02 3.162377327680587769e-02
1.931508481502532959e-01 3.830131888389587402e-02 -4.036868810653686523e-01
-1.799636185169219971e-01 -3.992180153727531433e-02 -2.784369885921478271e-01
1.549543738365173340e-01 -4.065901413559913635e-02 2.768755257129669189e-01
6.128318607807159424e-02 -2.052842453122138977e-02 -4.889402687549591064e-01
1.723178923130035400e-01 -9.201891720294952393e-03 4.993957877159118652e-01
6.997726857662200928e-02 1.304489225149154663e-01 -2.561384141445159912e-01
9.433417767286300659e-02 8.003962039947509766e-02 -5.027617216110229492e-01
2.879036366939544678e-01 1.277731917798519135e-02 1.398847103118896484e-01
-1.180286332964897156e-01 -5.375655367970466614e-02 1.167038679122924805e-01
1.242168471217155457e-01 4.739640280604362488e-02 -5.212320089340209961e-01
-9.789745509624481201e-02 1.568634994328022003e-02 5.785792469978332520e-01
-3.523077815771102905e-02 -2.334917709231376648e-02 5.007097721099853516e-01
-1.509900242090225220e-01 -5.186414346098899841e-02 -1.451935023069381714e-01
-1.102120950818061829e-01 -1.946595683693885803e-02 -5.305173397064208984e-01
-1.557699739933013916e-01 1.080087572336196899e-01 -3.989591002464294434e-01
6.690303981304168701e-02 1.434022486209869385e-01 -7.647000253200531006e-02
-1.470449566841125488e-01 1.201887428760528564e-01 3.109980523586273193e-01
1.986263990402221680e-01 1.763800159096717834e-02 5.563341379165649414e-01
-8.782187104225158691e-02 -6.076725199818611145e-02 -1.262493580579757690e-01
5.551764741539955139e-03 -6.140246614813804626e-02 -1.844380646944046021e-01
1.166964471340179443e-01 -2.914278581738471985e-02 4.523195326328277588e-01
1.245360448956489563e-01 -8.386190980672836304e-03 5.580741763114929199e-01
-2.527258396148681641e-01 1.100175268948078156e-02 2.411549538373947144e-01
7.335581630468368530e-02 1.142808496952056885e-01 -3.786549270153045654e-01
-2.795189917087554932e-01 -4.130024462938308716e-03 -9.708786010742187500e-02
2.158491462469100952e-01 9.996843338012695312e-02 -1.700881123542785645e-01
1.824481487274169922e-01 -3.754074499011039734e-02 2.212426513433456421e-01
1.510696262121200562e-01 1.357962191104888916e-01 1.385410726070404053e-01
