5.512316152453422546e-02 -2.482961118221282959e-01 -5.610826611518859863e-01
2.078868746757507324e-01 -4.242432117462158203e-01 -3.955198079347610474e-02
-5.594541132450103760e-02 -4.550835788249969482e-01 2.863618135452270508e-01
1.192262470722198486e-01 -2.626596987247467041e-01 6.911460161209106445e-01
2.105744481086730957e-01 -2.706020176410675049e-01 6.202480196952819824e-01
1.852945238351821899e-01 -4.270701706409454346e-01 4.560570418834686279e-01
6.775277853012084961e-02 -5.714411139488220215e-01 1.532219648361206055e-01
9.298139810562133789e-02 -3.542950153350830078e-01 7.174829840660095215e-01
8.094473183155059814e-02 -5.548532009124755859e-01 2.855666577816009521e-01
-1.350633800029754639e-03 -4.607309103012084961e-01 5.390558838844299316e-01
-3.141686320304870605e-02 -2.900038063526153564e-01 -1.691960096359252930e-01
-5.903132259845733643e-03 -2.472615540027618408e-01 -2.391185462474822998e-01
-3.863912820816040039e-02 -3.142942488193511963e-01 1.418007463216781616e-01
2.004179060459136963e-01 -4.411102831363677979e-01 1.826552152633666992e-01
1.180893927812576294e-01 -3.345526754856109619e-01 7.250778079032897949e-01
3.276321291923522949e-02 -1.774898469448089600e-01 -5.976259708404541016e-02
2.587171792984008789e-01 -3.110989034175872803e-01 2.522350549697875977e-01
1.974948346614837646e-01 -1.841309070587158203e-01 5.869350433349609375e-01
2.296366840600967407e-01 -3.788380026817321777e-01 -7.910346239805221558e-02
2.536812424659729004e-01 -1.452464610338211060e-01 3.666683435440063477e-01
2.528712153434753418e-01 -3.335505127906799316e-01 2.104388773441314697e-01
1.464045792818069458e-02 -2.222321927547454834e-01 2.310703694820404053e-01
1.778211891651153564e-01 -8.692015707492828369e-02 -2.203062772750854492e-01
1.801328659057617188e-01 -3.705751597881317139e-01 6.206278204917907715e-01
2.070889919996261597e-01 -3.957979679107666016e-01 -2.333664298057556152e-01
-3.970333933830261230e-02 -3.612966239452362061e-01 -3.692931234836578369e-01
2.515523731708526611e-01 -1.661357432603836060e-01 -2.696583271026611328e-01
2.120644301176071167e-01 -1.250399649143218994e-01 4.367342889308929443e-01
2.728620171546936035e-01 -1.735195964574813843e-01 -1.030144616961479187e-01
2.114565819501876831e-01 -2.057613730430603027e-01 5.926756858825683594e-01
2.246330380439758301e-01 -1.333903223276138306e-01 -3.297975659370422363e-01
1.667998135089874268e-01 -4.785901606082916260e-01 3.003836572170257568e-01
1.031447947025299072e-01 -5.505270957946777344e-01 1.372463256120681763e-01
-6.490170955657958984e-02 -4.176494181156158447e-01 -2.257972061634063721e-01
2.120820283889770508e-01 -3.673110902309417725e-01 -3.003546297550201416e-01
-4.000398516654968262e-02 -5.090906620025634766e-01 3.385106027126312256e-01
1.733084917068481445e-01 -4.789832830429077148e-01 1.904093623161315918e-01
-9.961150586605072021e-03 -4.683675765991210938e-01 5.080605745315551758e-01
1.599384546279907227e-01 -4.200383722782135010e-01 5.861478447914123535e-01
-2.499859035015106201e-02 -2.986956238746643066e-01 -3.113069534301757812e-01
2.275049388408660889e-01 -3.590359091758728027e-01 4.169848859310150146e-01
-6.206238269805908203e-02 -3.972140252590179443e-01 -2.236521840095520020e-01
2.146908938884735107e-01 -3.862252533435821533e-01 4.171778857707977295e-01
1.468222141265869141e-01 -3.829071521759033203e-01 -5.410606265068054199e-01
2.389220446348190308e-01 -3.431469798088073730e-01 3.722427785396575928e-01
3.726844489574432373e-02 -5.826846361160278320e-01 1.407759934663772583e-01
8.308676630258560181e-02 -1.250675618648529053e-01 7.481600344181060791e-02
-1.318302750587463379e-02 -3.638288080692291260e-01 4.763033092021942139e-01
-6.407649815082550049e-02 -4.587422609329223633e-01 -2.557658553123474121e-01
-7.691040635108947754e-03 -3.895362615585327148e-01 -5.407681465148925781e-01
7.751975208520889282e-02 -2.258747220039367676e-01 5.641701221466064453e-01
2.577536106109619141e-01 -2.739438712596893311e-01 -1.850183308124542236e-01
7.768775522708892822e-02 -5.679239034652709961e-01 8.103956282138824463e-02
2.006987333297729492e-01 -3.884594142436981201e-01 5.006743669509887695e-01
4.377946257591247559e-02 -3.504664003849029541e-01 6.517046689987182617e-01
2.667367458343505859e-01 -2.635984122753143311e-01 -1.053232625126838684e-01
1.998233944177627563e-01 -2.389090508222579956e-01 -5.095580220222473145e-01
2.188523262739181519e-01 -3.596325814723968506e-01 -2.771180272102355957e-01
1.115368232131004333e-01 -1.176412999629974365e-01 2.577604651451110840e-01
4.685585573315620422e-02 -2.041117250919342041e-01 3.774065673351287842e-01
2.619927525520324707e-01 -3.104547262191772461e-01 7.082751393318176270e-02
6.332144141197204590e-02 -3.744328320026397705e-01 6.907404661178588867e-01
1.511940360069274902e-01 -4.947370886802673340e-01 -1.279896795749664307e-01
2.394381761550903320e-01 -2.574681639671325684e-01 -3.439395129680633545e-01
1.078996881842613220e-01 -1.082823723554611206e-01 -1.576666235923767090e-01
-4.481329023838043213e-02 -3.933542966842651367e-01 -3.798879384994506836e-01
1.715114712715148926e-01 -7.436412572860717773e-02 1.017879396677017212e-01
2.034102976322174072e-01 -1.717906743288040161e-01 -4.555926918983459473e-01
1.270437389612197876e-01 -4.573710262775421143e-01 -4.344685077667236328e-01
-3.478825092315673828e-02 -5.417008399963378906e-01 -2.596244513988494873e-01
-5.807164311408996582e-02 -4.057580232620239258e-01 2.256691753864288330e-01
1.728939861059188843e-01 -3.669440448284149170e-01 6.451370120048522949e-01
6.170522049069404602e-02 -3.109414577484130859e-01 -6.400491595268249512e-01
2.270880937576293945e-01 -2.552042305469512939e-01 -4.081540703773498535e-01
1.942247003316879272e-01 -4.521252214908599854e-01 1.067889407277107239e-01
2.609877586364746094e-01 -2.903735041618347168e-01 -9.832390397787094116e-02
2.368535548448562622e-01 -1.350771486759185791e-01 4.105077087879180908e-01
5.520395934581756592e-03 -3.198674321174621582e-01 4.975741207599639893e-01
-7.341855764389038086e-02 -4.588031768798828125e-01 -1.098117902874946594e-01
1.549552679061889648e-01 -4.155960083007812500e-01 6.098721027374267578e-01
-5.956482887268066406e-02 -3.881352543830871582e-01 1.640383899211883545e-01
4.512226581573486328e-02 -1.698648333549499512e-01 1.459830403327941895e-01
2.085107266902923584e-01 -3.982870280742645264e-01 -2.100436985492706299e-01
1.364417970180511475e-01 -4.244842827320098877e-01 6.342214941978454590e-01
1.424465030431747437e-01 -1.785177141427993774e-01 5.779566764831542969e-01
7.440397143363952637e-02 -2.394162416458129883e-01 -5.830846428871154785e-01
1.792016774415969849e-01 -1.795681416988372803e-01 -5.097460150718688965e-01
1.444413065910339355e-01 -4.994286298751831055e-01 -1.524096727371215820e-01
2.073001563549041748e-01 -7.117480039596557617e-02 7.712674885988235474e-02
-3.157579898834228516e-02 -5.576331019401550293e-01 -1.951455771923065186e-01
1.832450777292251587e-01 -8.506175875663757324e-02 2.546632885932922363e-01
-2.947047352790832520e-02 -2.807691395282745361e-01 8.750572800636291504e-03
5.187349393963813782e-02 -3.645710945129394531e-01 6.728269457817077637e-01
-6.720344722270965576e-02 -5.189297199249267578e-01 -4.705728590488433838e-02
2.656664848327636719e-01 -2.569214105606079102e-01 -1.357994973659515381e-01
4.353123903274536133e-02 -1.918968558311462402e-01 2.974938750267028809e-01
4.902388900518417358e-02 -2.268130034208297729e-01 -4.979264736175537109e-01
-8.632630109786987305e-03 -4.482738971710205078e-01 5.249682068824768066e-01
1.685096323490142822e-01 -3.831748068332672119e-01 -4.743664264678955078e-01
2.759533822536468506e-01 -1.566762775182723999e-01 -1.784449070692062378e-02
-5.421736836433410645e-02 -5.462951064109802246e-01 8.515967428684234619e-02
7.732074707746505737e-02 -2.929552495479583740e-01 6.707450747489929199e-01
4.100091755390167236e-02 -5.734110474586486816e-01 2.533308267593383789e-01
7.054954767227172852e-05 -2.796759605407714844e-01 -4.291907846927642822e-01
8.197456598281860352e-02 -1.799500137567520142e-01 -4.611860811710357666e-01
8.193198591470718384e-02 -3.751633763313293457e-01 7.082025408744812012e-01
2.111111730337142944e-01 -3.577780723571777344e-01 -3.336941003799438477e-01
1.083004102110862732e-01 -1.030491292476654053e-01 -4.454910755157470703e-02
5.465906858444213867e-02 -1.857077628374099731e-01 3.388020098209381104e-01
-6.856647133827209473e-02 -4.598450064659118652e-01 1.537483036518096924e-01
2.346993088722229004e-01 -8.114862442016601562e-02 9.033316373825073242e-02
-4.929576814174652100e-02 -4.020294547080993652e-01 -3.574586510658264160e-01
-1.484878361225128174e-02 -4.109933078289031982e-01 -5.206500291824340820e-01
1.041005626320838928e-01 -4.839415550231933594e-01 -4.215986430644989014e-01
-5.307678878307342529e-02 -4.812940955162048340e-01 -3.209718763828277588e-01
7.107061892747879028e-02 -1.395841836929321289e-01 1.271094977855682373e-01
1.974068582057952881e-03 -5.790542364120483398e-01 -1.304285824298858643e-01
8.898235857486724854e-03 -2.123591005802154541e-01 3.724533319473266602e-02
2.243540585041046143e-01 -2.668800950050354004e-01 5.785000920295715332e-01
-7.117569446563720703e-02 -4.149672389030456543e-01 -3.148237615823745728e-02
1.420438885688781738e-01 -8.471173048019409180e-02 9.070987254381179810e-02
1.565121561288833618e-01 -1.586057394742965698e-01 5.418736338615417480e-01
1.701616048812866211e-01 -3.291009664535522461e-01 -5.481583476066589355e-01
-6.627084314823150635e-02 -3.925987780094146729e-01 -1.156302616000175476e-01
1.469770818948745728e-02 -2.467011809349060059e-01 3.527179956436157227e-01
-7.443326711654663086e-02 -4.664705991744995117e-01 8.932285010814666748e-03
7.726170122623443604e-02 -5.181548595428466797e-01 -3.692290186882019043e-01
-4.812248051166534424e-03 -2.464395016431808472e-01 1.716733276844024658e-01
5.256551131606101990e-02 -5.794535875320434570e-01 9.874529391527175903e-02
1.256376951932907104e-01 -9.172266721725463867e-02 -3.513476997613906860e-02
-1.057892292737960815e-02 -3.176476061344146729e-01 4.102757871150970459e-01
2.310436218976974487e-01 -2.694883942604064941e-01 -3.782125115394592285e-01
-1.086658239364624023e-02 -5.818465352058410645e-01 1.247875094413757324e-01
2.635041475296020508e-01 -1.974062621593475342e-01 3.857159316539764404e-01
5.516423657536506653e-02 -4.968039393424987793e-01 -4.738248586654663086e-01
-2.947150170803070068e-02 -4.316398799419403076e-01 -4.676981568336486816e-01
6.790846586227416992e-03 -2.510575652122497559e-01 3.135958909988403320e-01
1.354244351387023926e-02 -4.237087666988372803e-01 -5.768742561340332031e-01
8.538976311683654785e-02 -4.833108186721801758e-01 -4.671701788902282715e-01
2.687998116016387939e-01 -1.558007746934890747e-01 -1.209708377718925476e-01
4.720747470855712891e-03 -5.343429446220397949e-01 -3.723255991935729980e-01
-2.677641808986663818e-03 -2.295095026493072510e-01 -6.878857314586639404e-02
4.765279963612556458e-02 -2.721713483333587646e-01 5.712834596633911133e-01
-2.721601724624633789e-02 -3.364843428134918213e-01 3.454017341136932373e-01
2.116702497005462646e-01 -3.826375603675842285e-01 -2.505537569522857666e-01
-1.579448580741882324e-04 -5.868518352508544922e-01 5.579181388020515442e-02
1.629341393709182739e-01 -8.375382423400878906e-02 -1.750341355800628662e-01
2.592826485633850098e-01 -2.871430218219757080e-01 -1.327477991580963135e-01
1.206161901354789734e-01 -1.018480360507965088e-01 1.690521836280822754e-01
1.261719465255737305e-01 -3.609905540943145752e-01 -6.101307868957519531e-01
-7.590107619762420654e-03 -4.358088672161102295e-01 -5.303064584732055664e-01
-3.283971548080444336e-02 -4.734873771667480469e-01 -4.252450764179229736e-01
1.211193501949310303e-01 -3.997476696968078613e-01 -5.724389553070068359e-01
-5.279386043548583984e-02 -3.691081404685974121e-01 1.951280534267425537e-01
1.281975358724594116e-01 -9.265927970409393311e-02 -1.079715415835380554e-01
7.501824200153350830e-02 -1.305128186941146851e-01 -4.570570588111877441e-02
1.448831111192703247e-01 -1.548790037631988525e-01 5.195059776306152344e-01
2.462793737649917603e-01 -1.412183195352554321e-01 -2.571898996829986572e-01
1.508507579565048218e-01 -4.843460321426391602e-01 3.912978768348693848e-01
1.542604565620422363e-01 -4.678269028663635254e-01 -2.755520641803741455e-01
2.416387945413589478e-02 -2.496766448020935059e-01 4.200852513313293457e-01
-1.144922524690628052e-02 -2.974932491779327393e-01 -4.108251631259918213e-01
2.597348690032958984e-01 -2.428720891475677490e-01 -2.182675600051879883e-01
5.704463645815849304e-02 -1.897527724504470825e-01 -4.083990752696990967e-01
5.116079747676849365e-02 -1.787144988775253296e-01 2.765309512615203857e-01
1.057348921895027161e-01 -5.323289036750793457e-01 3.420404493808746338e-01
1.630470752716064453e-01 -1.610303372144699097e-01 -4.936516880989074707e-01
2.002821266651153564e-01 -2.497674524784088135e-01 6.421827077865600586e-01
-1.997870206832885742e-02 -2.778099775314331055e-01 -2.628088593482971191e-01
2.298846840858459473e-01 -2.090131938457489014e-01 5.497803092002868652e-01
-4.089756309986114502e-02 -4.284347295761108398e-01 3.840835392475128174e-01
1.707085072994232178e-01 -4.496259689331054688e-01 4.472703337669372559e-01
-6.310255825519561768e-02 -4.079184234142303467e-01 1.670047640800476074e-01
-1.732460409402847290e-02 -5.797764062881469727e-01 -6.234687566757202148e-02
1.906656324863433838e-01 -2.935810685157775879e-01 6.621764898300170898e-01
-2.328366041183471680e-03 -2.931942939758300781e-01 -4.510638117790222168e-01
4.656724259257316589e-02 -2.116201221942901611e-01 4.058002233505249023e-01
2.294726669788360596e-01 -7.764518260955810547e-02 5.564271286129951477e-02
1.289776265621185303e-01 -4.660100936889648438e-01 -4.007465243339538574e-01
6.044059991836547852e-04 -5.163380503654479980e-01 4.661348462104797363e-01
2.282285392284393311e-01 -2.291256487369537354e-01 -4.118787944316864014e-01
2.378886342048645020e-01 -3.308266699314117432e-01 4.226515889167785645e-01
2.017584145069122314e-01 -4.326359629631042480e-01 -5.909921973943710327e-02
1.809246093034744263e-02 -2.226105928421020508e-01 -3.284281194210052490e-01
-1.651979982852935791e-03 -2.275629639625549316e-01 -4.045110195875167847e-02
2.459072321653366089e-02 -2.288819849491119385e-01 3.461225628852844238e-01
2.741096317768096924e-01 -2.638869285583496094e-01 1.306065618991851807e-01
2.462829053401947021e-01 -3.484414815902709961e-01 -1.243236660957336426e-02
1.130286455154418945e-01 -1.073786169290542603e-01 -1.885043680667877197e-01
3.115534782409667969e-04 -4.976310133934020996e-01 -4.640073776245117188e-01
2.101208120584487915e-01 -1.025216877460479736e-01 3.523496687412261963e-01
7.566913962364196777e-02 -4.957618117332458496e-01 5.614855289459228516e-01
2.450038790702819824e-01 -2.917985022068023682e-01 4.561187922954559326e-01
5.346210300922393799e-02 -1.556277573108673096e-01 8.399948477745056152e-02
6.138945370912551880e-02 -1.460503935813903809e-01 6.646993756294250488e-02
2.182346880435943604e-01 -3.387825489044189453e-01 -3.378174901008605957e-01
2.547561526298522949e-01 -3.094443678855895996e-01 -1.089063808321952820e-01
2.467851489782333374e-01 -1.690574288368225098e-01 4.462433159351348877e-01
2.621455490589141846e-01 -2.177480161190032959e-01 -2.179909348487854004e-01
5.860963091254234314e-02 -5.308875441551208496e-01 -3.572875261306762695e-01
1.013894379138946533e-02 -3.645694851875305176e-01 5.701143145561218262e-01
1.354044675827026367e-02 -2.040242850780487061e-01 -6.614187359809875488e-02
7.687295973300933838e-02 -5.630943775177001953e-01 -7.708299160003662109e-02
1.033035218715667725e-01 -1.152471452951431274e-01 1.804975867271423340e-01
9.019893407821655273e-02 -4.899294078350067139e-01 -4.377665221691131592e-01
1.239221915602684021e-01 -1.048837453126907349e-01 -2.273652255535125732e-01
5.984198674559593201e-02 -2.471191287040710449e-01 5.596276521682739258e-01
1.559312641620635986e-02 -2.392670214176177979e-01 3.282982409000396729e-01
-6.426659226417541504e-02 -3.799179196357727051e-01 -6.590820848941802979e-04
4.922341555356979370e-02 -5.347684621810913086e-01 4.585176706314086914e-01
-6.905055046081542969e-02 -4.917540550231933594e-01 -1.533650755882263184e-01
6.137921661138534546e-02 -5.503200292587280273e-01 -2.557770609855651855e-01
2.129926979541778564e-01 -4.042567014694213867e-01 3.440279364585876465e-01
3.925223648548126221e-02 -5.782140493392944336e-01 2.059370577335357666e-01
2.519536614418029785e-01 -3.392624557018280029e-01 1.618502140045166016e-01
1.868920326232910156e-01 -4.284020066261291504e-01 -2.440727353096008301e-01
2.187907099723815918e-01 -3.279946446418762207e-01 -3.579281270503997803e-01
-3.154955804347991943e-02 -4.182392060756683350e-01 4.316480159759521484e-01
1.944543421268463135e-02 -4.246313273906707764e-01 6.087914705276489258e-01
-5.729816854000091553e-03 -2.354725599288940430e-01 -9.932649880647659302e-02
-3.086178004741668701e-02 -3.931046426296234131e-01 4.172723591327667236e-01
1.167864352464675903e-01 -5.403245687484741211e-01 1.084187552332878113e-01
3.019174188375473022e-02 -5.645033121109008789e-01 3.284945785999298096e-01
2.496484071016311646e-01 -1.003984063863754272e-01 1.941259503364562988e-01
2.743825912475585938e-01 -1.547057926654815674e-01 2.110613584518432617e-01
-4.399704933166503906e-02 -3.357991576194763184e-01 -2.565325200557708740e-01
2.696306407451629639e-01 -2.715619206428527832e-01 2.395223081111907959e-01
-7.306933403015136719e-03 -4.139429330825805664e-01 -5.408573746681213379e-01
2.178947925567626953e-01 -3.807042241096496582e-01 -2.060442864894866943e-01
2.786228656768798828e-01 -2.210771739482879639e-01 1.985322535037994385e-01
-3.142425417900085449e-02 -2.841835319995880127e-01 -6.225638836622238159e-02
-5.984011292457580566e-02 -3.774427771568298340e-01 1.183921471238136292e-01
4.665590822696685791e-03 -2.309222221374511719e-01 -2.509794831275939941e-01
9.620603919029235840e-02 -5.411006212234497070e-01 -1.726881861686706543e-01
1.976300179958343506e-01 -8.192078769207000732e-02 2.358817458152770996e-01
2.027676105499267578e-01 -4.163551330566406250e-01 3.769625425338745117e-01
3.735780715942382812e-02 -1.772480607032775879e-01 1.182119473814964294e-01
1.454490721225738525e-01 -5.035188198089599609e-01 -1.058278605341911316e-01
1.840841323137283325e-01 -1.176094263792037964e-01 4.272658526897430420e-01
6.598941981792449951e-02 -2.236759811639785767e-01 -5.374006628990173340e-01
3.948375582695007324e-03 -2.673774063587188721e-01 3.571038544178009033e-01
2.039189189672470093e-01 -3.166970908641815186e-01 -4.486205875873565674e-01
1.082333847880363464e-01 -5.135796070098876953e-01 -2.870957851409912109e-01
1.458478718996047974e-01 -1.096589565277099609e-01 3.407917916774749756e-01
-4.730100929737091064e-02 -3.310095965862274170e-01 -1.759851872920989990e-01
3.246656805276870728e-02 -5.725547075271606445e-01 2.723496556282043457e-01
2.759893238544464111e-02 -2.347312867641448975e-01 -4.357259571552276611e-01
1.673812419176101685e-01 -4.285835325717926025e-01 -3.614299595355987549e-01
-4.029704630374908447e-02 -5.672339200973510742e-01 3.231660649180412292e-02
-4.695029556751251221e-02 -3.539518117904663086e-01 2.151947021484375000e-01
3.857450187206268311e-02 -4.178822040557861328e-01 6.472508311271667480e-01
2.410871386528015137e-01 -8.544407784938812256e-02 1.740561798214912415e-02
-1.681143045425415039e-02 -4.516396820545196533e-01 4.956066012382507324e-01
-2.001775056123733521e-02 -3.952223360538482666e-01 4.744917154312133789e-01
1.935284584760665894e-01 -4.425593018531799316e-01 2.985793948173522949e-01
-1.765619218349456787e-02 -4.792135655879974365e-01 4.730734229087829590e-01
1.492436677217483521e-01 -8.022892475128173828e-02 -4.412648826837539673e-02
2.789130806922912598e-01 -1.751075983047485352e-01 1.823484003543853760e-01
1.566440314054489136e-01 -4.959283471107482910e-01 -4.674334824085235596e-02
2.410224080085754395e-02 -5.868521928787231445e-01 2.308596670627593994e-02
6.365229189395904541e-02 -2.307645231485366821e-01 5.342074036598205566e-01
2.574489414691925049e-01 -2.506432533264160156e-01 4.206016361713409424e-01
7.562769949436187744e-02 -1.587101072072982788e-01 3.204380273818969727e-01
1.690298169851303101e-01 -4.597035348415374756e-01 4.092563688755035400e-01
-7.333257794380187988e-02 -4.855241775512695312e-01 -5.893963575363159180e-02
4.452229663729667664e-02 -3.085096776485443115e-01 -6.160780191421508789e-01
2.399628758430480957e-01 -2.356950789690017700e-01 -3.550382852554321289e-01
4.531992599368095398e-02 -5.127184391021728516e-01 5.263553261756896973e-01
-7.000856101512908936e-02 -4.253829121589660645e-01 8.678446710109710693e-02
1.273296624422073364e-01 -2.549819946289062500e-01 -6.265007257461547852e-01
5.398597940802574158e-02 -1.532382667064666748e-01 -9.967324882745742798e-02
1.458369195461273193e-03 -2.984488606452941895e-01 -4.805350303649902344e-01
8.382439613342285156e-02 -1.245122551918029785e-01 -1.147480979561805725e-01
1.344217956066131592e-01 -8.660317957401275635e-02 -6.966143846511840820e-04
1.050227805972099304e-01 -4.901825487613677979e-01 -3.978237807750701904e-01
-3.794804215431213379e-02 -3.040657341480255127e-01 -1.562657356262207031e-01
-4.060949385166168213e-02 -4.297678768634796143e-01 -4.202335178852081299e-01
4.308294504880905151e-02 -2.645828127861022949e-01 5.411209464073181152e-01
2.219147384166717529e-01 -9.544703364372253418e-02 2.951392531394958496e-01
8.404236286878585815e-02 -5.624000430107116699e-01 1.615708768367767334e-01
9.313967823982238770e-02 -4.677037298679351807e-01 6.112073659896850586e-01
2.789622545242309570e-01 -2.201044559478759766e-01 1.054930500686168671e-02
1.769987940788269043e-01 -2.965132296085357666e-01 6.858331561088562012e-01
-9.392268955707550049e-03 -3.382468521595001221e-01 -4.990188479423522949e-01
1.662898659706115723e-01 -4.562384784221649170e-01 -2.556848824024200439e-01
1.958025395870208740e-01 -3.667337596416473389e-01 5.741969943046569824e-01
4.367998987436294556e-02 -2.236084640026092529e-01 4.341921806335449219e-01
2.749140858650207520e-01 -2.253191620111465454e-01 -6.761454045772552490e-02
-6.854435801506042480e-02 -4.009676575660705566e-01 -8.275100588798522949e-02
-8.172146975994110107e-03 -4.870710074901580811e-01 4.937842488288879395e-01
1.955850422382354736e-01 -3.952304720878601074e-01 -3.167530298233032227e-01
3.830839693546295166e-02 -5.660135149955749512e-01 -2.103587687015533447e-01
1.128756999969482422e-01 -5.170372128486633301e-01 -2.458338439464569092e-01
1.288009434938430786e-01 -5.249333977699279785e-01 -5.301900953054428101e-02
2.185986936092376709e-01 -2.598380446434020996e-01 -4.418640136718750000e-01
2.209304273128509521e-02 -4.922783374786376953e-01 5.496335625648498535e-01
7.769411057233810425e-02 -5.672239661216735840e-01 1.269772201776504517e-01
1.875296682119369507e-01 -7.806405425071716309e-02 -1.481145024299621582e-01
1.972386538982391357e-01 -1.423304229974746704e-01 5.020116567611694336e-01
2.255036979913711548e-01 -3.823465406894683838e-01 -1.146885231137275696e-01
1.220370754599571228e-01 -1.955268085002899170e-01 5.902906656265258789e-01
2.558497786521911621e-01 -3.290848135948181152e-01 7.537226378917694092e-02
1.489231735467910767e-01 -7.985548675060272217e-02 -1.390554755926132202e-02
1.828817278146743774e-02 -5.480305552482604980e-01 -3.255743980407714844e-01
1.580940783023834229e-01 -3.801911175251007080e-01 6.607854366302490234e-01
-6.550273299217224121e-02 -5.223864912986755371e-01 5.307605862617492676e-02
-4.949471354484558105e-02 -3.292650580406188965e-01 -1.073534786701202393e-02
1.729919016361236572e-01 -2.006549984216690063e-01 -5.434263348579406738e-01
3.093960136175155640e-02 -4.977821111679077148e-01 -4.828911423683166504e-01
1.947955787181854248e-01 -1.408254951238632202e-01 -4.175039529800415039e-01
1.528974920511245728e-01 -5.036225318908691406e-01 1.801972985267639160e-01
4.711709544062614441e-02 -1.688327044248580933e-01 -2.168268561363220215e-01
1.585479080677032471e-01 -4.988399446010589600e-01 7.851362228393554688e-02
-6.840085983276367188e-02 -4.988486766815185547e-01 1.104742512106895447e-01
2.608886957168579102e-01 -1.548309028148651123e-01 -1.909772455692291260e-01
3.240355104207992554e-02 -1.784730106592178345e-01 -8.542174845933914185e-02
4.325184226036071777e-02 -2.672035098075866699e-01 -5.650858283042907715e-01
1.767333745956420898e-01 -4.217948317527770996e-01 -3.357616364955902100e-01
2.353766560554504395e-02 -3.099303543567657471e-01 -5.734450221061706543e-01
1.325102597475051880e-01 -5.262778997421264648e-01 1.065098419785499573e-01
8.001767098903656006e-03 -2.243061065673828125e-01 1.691140830516815186e-01
2.249869406223297119e-01 -3.737642168998718262e-01 -1.687068641185760498e-01
2.486862838268280029e-01 -3.422657549381256104e-01 2.353897094726562500e-01
1.019207760691642761e-01 -5.474617481231689453e-01 2.207691669464111328e-01
6.801892817020416260e-02 -1.759824454784393311e-01 -3.987386822700500488e-01
1.962829381227493286e-01 -3.788348436355590820e-01 5.470018386840820312e-01
8.743234723806381226e-02 -1.201359629631042480e-01 4.603099822998046875e-02
3.653991967439651489e-02 -1.799086779356002808e-01 -1.997182369232177734e-01
-2.988733351230621338e-02 -2.808796465396881104e-01 -2.152029052376747131e-02
2.803288996219635010e-01 -2.008155286312103271e-01 2.237913943827152252e-02
2.099867463111877441e-01 -7.556870579719543457e-02 -8.809068799018859863e-02
6.952191144227981567e-02 -1.432059407234191895e-01 -1.971497237682342529e-01
1.232872828841209412e-01 -4.998085796833038330e-01 -2.871394157409667969e-01
1.756547391414642334e-02 -2.146442830562591553e-01 -2.767035067081451416e-01
2.652751207351684570e-01 -1.863081604242324829e-01 3.641502857208251953e-01
-2.832250297069549561e-02 -5.767089128494262695e-01 1.095438003540039062e-02
5.129268020391464233e-02 -5.800091028213500977e-01 3.016422875225543976e-02
3.055249154567718506e-02 -5.849081277847290039e-01 1.176695823669433594e-01
2.738296240568161011e-02 -3.909317851066589355e-01 6.295468807220458984e-01
3.137043863534927368e-02 -5.485786199569702148e-01 4.069964289665222168e-01
-1.858302205801010132e-02 -2.756716012954711914e-01 1.900312602519989014e-01
1.783780157566070557e-01 -2.383140325546264648e-01 6.665385365486145020e-01
-3.586047887802124023e-02 -4.949216842651367188e-01 -3.829351365566253662e-01
2.450724989175796509e-01 -1.506896317005157471e-01 -2.818430960178375244e-01
8.674889802932739258e-03 -2.154062092304229736e-01 -1.609139144420623779e-01
2.125423997640609741e-01 -1.766021698713302612e-01 -4.385377466678619385e-01
2.707479596138000488e-01 -2.795737385749816895e-01 1.026654690504074097e-01
7.021063566207885742e-02 -5.122318863868713379e-01 5.199598073959350586e-01
2.627103328704833984e-01 -3.081654906272888184e-01 1.506607979536056519e-01
1.273832023143768311e-01 -4.781961739063262939e-01 -3.633842170238494873e-01
1.864815801382064819e-01 -4.628809690475463867e-01 6.472480297088623047e-02
-2.727901935577392578e-02 -4.439271986484527588e-01 4.558467566967010498e-01
1.952204704284667969e-01 -3.375054597854614258e-01 -4.539578258991241455e-01
8.479171246290206909e-02 -5.354611873626708984e-01 4.030738174915313721e-01
7.863694429397583008e-02 -1.796628832817077637e-01 4.312756955623626709e-01
1.510665565729141235e-02 -2.803298234939575195e-01 4.598446488380432129e-01
9.119103103876113892e-02 -1.797171384096145630e-01 4.768533706665039062e-01
2.441598623991012573e-01 -9.951990842819213867e-02 2.298898696899414062e-01
3.582586348056793213e-02 -3.152769804000854492e-01 6.009162068367004395e-01
2.293677628040313721e-01 -3.724272847175598145e-01 3.408925831317901611e-01
1.272988617420196533e-01 -5.000740289688110352e-01 -2.651526629924774170e-01
4.039647430181503296e-02 -2.030134052038192749e-01 3.333980143070220947e-01
2.072117030620574951e-01 -7.367458939552307129e-02 1.357373297214508057e-01
2.137407511472702026e-01 -1.161131560802459717e-01 -3.128911256790161133e-01
2.662253379821777344e-01 -1.252032816410064697e-01 -4.002586007118225098e-02
2.661107182502746582e-01 -1.463181674480438232e-01 2.837433516979217529e-01
-6.323136389255523682e-02 -5.147802829742431641e-01 1.397963762283325195e-01
1.594671010971069336e-01 -3.159212470054626465e-01 7.052810788154602051e-01
2.280098199844360352e-02 -1.905851364135742188e-01 -3.864225000143051147e-02
1.639170646667480469e-01 -4.801631569862365723e-01 -1.218511387705802917e-01
2.678517699241638184e-01 -1.767621934413909912e-01 3.326053619384765625e-01
-2.711915969848632812e-02 -3.317322731018066406e-01 -3.958053290843963623e-01
1.721201241016387939e-01 -2.760562300682067871e-01 6.911492943763732910e-01
-1.889020204544067383e-03 -2.324747890233993530e-01 -1.627147197723388672e-01
9.294926375150680542e-02 -1.235540509223937988e-01 -2.075386643409729004e-01
1.801581084728240967e-01 -3.058035075664520264e-01 -5.410681366920471191e-01
2.511288970708847046e-02 -2.502511441707611084e-01 -4.705325961112976074e-01
-6.730061769485473633e-02 -4.373499751091003418e-01 1.581988185644149780e-01
1.687964797019958496e-02 -5.239137411117553711e-01 4.764193296432495117e-01
6.525564193725585938e-02 -1.977094560861587524e-01 -4.675753712654113770e-01
2.272189408540725708e-02 -5.871970057487487793e-01 5.075436085462570190e-02
1.273664236068725586e-01 -1.621796190738677979e-01 -4.904215335845947266e-01
-2.989532053470611572e-02 -3.076845109462738037e-01 2.247660756111145020e-01
2.756116986274719238e-01 -2.393199950456619263e-01 -2.189978584647178650e-02
5.446685105562210083e-02 -5.159705877304077148e-01 -4.182556271553039551e-01
2.429298460483551025e-01 -3.032107055187225342e-01 -2.500722706317901611e-01
2.784603834152221680e-01 -2.075726985931396484e-01 -2.337672561407089233e-02
-2.652363479137420654e-02 -4.725877046585083008e-01 -4.472050666809082031e-01
-1.038108766078948975e-02 -3.568243980407714844e-01 -5.150385499000549316e-01
-3.818298876285552979e-02 -3.740358948707580566e-01 3.447045683860778809e-01
9.534300863742828369e-02 -1.189060062170028687e-01 -1.762996315956115723e-01
2.383977472782135010e-01 -3.258321285247802734e-01 -2.271654307842254639e-01
1.445917487144470215e-01 -3.082387745380401611e-01 -6.154629588127136230e-01
-6.461191177368164062e-02 -5.076376795768737793e-01 -1.695832610130310059e-01
-2.327267825603485107e-02 -2.777988016605377197e-01 1.360417008399963379e-01
-1.454728096723556519e-02 -2.645277976989746094e-01 -2.478986680507659912e-01
1.253373473882675171e-01 -9.690511226654052734e-02 -1.508742570877075195e-01
2.645210027694702148e-01 -2.183157205581665039e-01 3.830870389938354492e-01
-2.964453399181365967e-02 -5.101970434188842773e-01 3.849939107894897461e-01
-5.487135052680969238e-02 -4.626464247703552246e-01 -3.281458616256713867e-01
2.025096118450164795e-01 -4.368026256561279297e-01 2.033535838127136230e-01
-3.361523151397705078e-02 -3.823999166488647461e-01 3.884592354297637939e-01
2.030729502439498901e-01 -2.801426649093627930e-01 6.376787424087524414e-01
2.545726001262664795e-01 -3.221924602985382080e-01 -4.356645792722702026e-02
-3.677651286125183105e-02 -5.628860592842102051e-01 1.529233455657958984e-01
1.794719398021697998e-01 -7.096761465072631836e-02 1.923196017742156982e-03
1.336969584226608276e-01 -8.759461343288421631e-02 4.907960444688796997e-02
1.393935084342956543e-01 -1.133974492549896240e-01 -3.295834064483642578e-01
1.137894839048385620e-01 -1.315919309854507446e-01 3.553354144096374512e-01
2.658908963203430176e-01 -2.751542925834655762e-01 2.923443019390106201e-01
2.438915669918060303e-01 -2.773115038871765137e-01 4.826605618000030518e-01
1.347531229257583618e-01 -1.520371735095977783e-01 -4.691377878189086914e-01
1.606622040271759033e-01 -2.543535232543945312e-01 -5.943132638931274414e-01
8.119498193264007568e-02 -1.695097982883453369e-01 4.008931219577789307e-01
2.063207328319549561e-02 -2.382663786411285400e-01 -4.119260907173156738e-01
5.154769122600555420e-02 -1.618078202009201050e-01 -1.956020295619964600e-01
1.668967008590698242e-01 -4.880285263061523438e-01 3.817921131849288940e-02
1.445285081863403320e-01 -4.954697191715240479e-01 3.635991513729095459e-01
2.022772133350372314e-01 -4.006279408931732178e-01 4.511634111404418945e-01
-6.654822826385498047e-02 -3.979056477546691895e-01 -1.393459439277648926e-01
2.249180972576141357e-01 -8.058482408523559570e-02 1.679332554340362549e-01
-7.034809887409210205e-02 -4.170208275318145752e-01 4.566279053688049316e-02
2.600766420364379883e-01 -1.757244616746902466e-01 -2.245532870292663574e-01
2.173503041267395020e-01 -7.463261485099792480e-02 -3.828316926956176758e-02
1.150885596871376038e-01 -4.016832113265991211e-01 6.925676465034484863e-01
-3.987744450569152832e-02 -4.526298642158508301e-01 -4.159686863422393799e-01
2.418064773082733154e-01 -2.383761405944824219e-01 5.152497291564941406e-01
2.515332102775573730e-01 -1.084657311439514160e-01 -1.111008748412132263e-01
2.379387915134429932e-01 -3.464064002037048340e-01 -1.558653116226196289e-01
1.303864121437072754e-01 -1.900390386581420898e-01 -5.522174835205078125e-01
-4.477809369564056396e-02 -3.835668563842773438e-01 3.107061088085174561e-01
1.924690455198287964e-01 -1.085609942674636841e-01 3.908628821372985840e-01
1.226256936788558960e-01 -4.637783765792846680e-01 5.757483243942260742e-01
8.526466786861419678e-03 -2.194287031888961792e-01 1.316380500793457031e-01
6.919145584106445312e-03 -3.388216495513916016e-01 -5.563623905181884766e-01
-1.361510157585144043e-02 -5.353693962097167969e-01 3.826696574687957764e-01
2.667821049690246582e-01 -2.946751117706298828e-01 8.602264523506164551e-02
1.849141716957092285e-01 -4.355092346668243408e-01 -2.242894172668457031e-01
2.420913577079772949e-01 -2.084270715713500977e-01 -3.475162982940673828e-01
-3.385087847709655762e-02 -3.966051936149597168e-01 -4.446759521961212158e-01
2.690767943859100342e-01 -2.860172688961029053e-01 1.330882608890533447e-01
1.807067394256591797e-01 -4.712704420089721680e-01 1.002247557044029236e-01
8.037155121564865112e-02 -5.441881418228149414e-01 -2.287822961807250977e-01
2.122500240802764893e-01 -4.183565974235534668e-01 2.376947999000549316e-01
1.578565090894699097e-01 -4.203770756721496582e-01 -4.280178546905517578e-01
1.130841672420501709e-03 -5.320135354995727539e-01 4.286483526229858398e-01
2.627847194671630859e-01 -1.317255496978759766e-01 -1.147257611155509949e-01
2.724713087081909180e-01 -2.069425284862518311e-01 3.089168965816497803e-01
2.483335882425308228e-01 -1.300600469112396240e-01 3.502180874347686768e-01
2.392787635326385498e-01 -1.628240644931793213e-01 -3.277916014194488525e-01
1.186760440468788147e-01 -5.203140974044799805e-01 -1.904490590095520020e-01
-9.416587650775909424e-03 -2.481226772069931030e-01 1.128696650266647339e-01
2.680954933166503906e-01 -2.422221899032592773e-01 3.347039222717285156e-01
-5.832345783710479736e-02 -3.668726980686187744e-01 -1.725122630596160889e-01
2.011290192604064941e-02 -3.483647108078002930e-01 5.886609554290771484e-01
2.496851086616516113e-01 -9.297372400760650635e-02 3.751571476459503174e-02
-1.202779263257980347e-02 -3.079030513763427734e-01 3.767049610614776611e-01
-5.061340332031250000e-02 -3.353795111179351807e-01 4.207793623208999634e-02
-4.703184962272644043e-02 -4.724479913711547852e-01 3.432072699069976807e-01
1.091718152165412903e-01 -5.167865157127380371e-01 -2.656810581684112549e-01
2.418516576290130615e-01 -2.184185385704040527e-01 5.121507644653320312e-01
2.014628946781158447e-01 -2.606118917465209961e-01 -5.023947954177856445e-01
-3.440672159194946289e-02 -4.859434366226196289e-01 -4.029212594032287598e-01
-2.657185494899749756e-02 -3.045513331890106201e-01 2.468347847461700439e-01
9.225252270698547363e-02 -5.510799884796142578e-01 -1.045170649886131287e-01
2.321469336748123169e-01 -2.460789382457733154e-01 5.543529987335205078e-01
2.711268663406372070e-01 -1.315361708402633667e-01 1.376893073320388794e-01
7.120504230260848999e-02 -5.691637992858886719e-01 -2.784511819481849670e-02
6.070145219564437866e-02 -1.776651889085769653e-01 -3.729066848754882812e-01
1.451077908277511597e-01 -1.381959617137908936e-01 -4.352717697620391846e-01
-6.254750490188598633e-02 -5.229906439781188965e-01 1.140433624386787415e-01
-2.425551414489746094e-02 -3.157748579978942871e-01 -3.755669295787811279e-01
1.020341664552688599e-01 -1.722819060087203979e-01 -4.837501049041748047e-01
-5.452552437782287598e-02 -5.112857818603515625e-01 2.400214374065399170e-01
1.945230811834335327e-01 -3.499302566051483154e-01 -4.356158077716827393e-01
3.364434838294982910e-02 -1.793471872806549072e-01 -1.431705951690673828e-01
2.007177323102951050e-01 -1.564852148294448853e-01 -4.379790425300598145e-01
1.870512962341308594e-01 -9.291216731071472168e-02 -2.570480704307556152e-01
2.341419905424118042e-01 -2.208744883537292480e-01 -3.864531219005584717e-01
-3.501220047473907471e-02 -2.956270277500152588e-01 5.382762476801872253e-02
1.464510411024093628e-01 -1.014781147241592407e-01 -2.760809063911437988e-01
2.482089847326278687e-01 -3.459918498992919922e-01 1.423569954931735992e-02
1.210451871156692505e-02 -2.099256366491317749e-01 8.290885388851165771e-02
2.369641512632369995e-02 -1.894468814134597778e-01 -1.639705151319503784e-02
2.240695655345916748e-01 -7.847148180007934570e-02 -5.845134705305099487e-02
2.610295712947845459e-01 -1.390749067068099976e-01 -1.545172631740570068e-01
2.114719450473785400e-01 -9.515123069286346436e-02 -2.334855198860168457e-01
-6.056603789329528809e-02 -3.676211237907409668e-01 3.339806571602821350e-02
-5.419987440109252930e-02 -3.567800819873809814e-01 -1.999512314796447754e-01
6.011444702744483948e-02 -4.486863613128662109e-01 -5.698981881141662598e-01
7.518579065799713135e-02 -1.787015944719314575e-01 -4.362060427665710449e-01
1.094093918800354004e-01 -4.662328064441680908e-01 5.943518280982971191e-01
1.045377701520919800e-01 -5.122485160827636719e-01 -3.091380596160888672e-01
2.449128776788711548e-02 -4.721943736076354980e-01 -5.319081544876098633e-01
2.343237400054931641e-01 -3.798611164093017578e-01 1.827162206172943115e-01
1.914627104997634888e-02 -1.968399584293365479e-01 2.912500500679016113e-02
6.347465515136718750e-02 -1.999569237232208252e-01 4.427500367164611816e-01
1.660373061895370483e-01 -3.986639380455017090e-01 -4.503455460071563721e-01
2.444395720958709717e-01 -3.587649464607238770e-01 8.431166410446166992e-02
-6.545305252075195312e-02 -3.870773911476135254e-01 2.498972043395042419e-02
2.387060075998306274e-01 -1.910644322633743286e-01 -3.572044670581817627e-01
2.451230138540267944e-01 -1.796133965253829956e-01 -3.182145357131958008e-01
1.025769785046577454e-01 -1.083645820617675781e-01 6.404230743646621704e-02
4.663882404565811157e-02 -5.778141021728515625e-01 -6.805530935525894165e-02
2.392349392175674438e-02 -3.253387212753295898e-01 5.763195753097534180e-01
2.015623301267623901e-01 -3.797439634799957275e-01 -3.293831050395965576e-01
2.258060276508331299e-01 -3.299548625946044922e-01 5.049840211868286133e-01
1.077732667326927185e-01 -5.130162835121154785e-01 4.441157281398773193e-01
7.689415663480758667e-02 -1.340425759553909302e-01 -1.700764596462249756e-01
4.728369042277336121e-02 -4.849768579006195068e-01 -5.078537464141845703e-01
2.572988271713256836e-01 -2.398864179849624634e-01 -2.414340078830718994e-01
1.851321160793304443e-01 -3.987744450569152832e-01 -3.648478388786315918e-01
1.408010125160217285e-01 -5.029993057250976562e-01 3.368813693523406982e-01
-5.144548416137695312e-02 -3.368294835090637207e-01 -1.127919182181358337e-01
1.747329533100128174e-02 -2.896367907524108887e-01 4.923695027828216553e-01
-3.449445962905883789e-02 -5.480714440345764160e-01 -2.328290343284606934e-01
-3.378973901271820068e-02 -5.152196288108825684e-01 3.570702373981475830e-01
1.005442664027214050e-01 -1.388514637947082520e-01 3.387143015861511230e-01
5.531452596187591553e-02 -1.621963977813720703e-01 -2.405531704425811768e-01
2.485931664705276489e-01 -1.190268993377685547e-01 3.084929287433624268e-01
-4.187652468681335449e-02 -5.648848414421081543e-01 -3.702206909656524658e-02
1.451398730278015137e-01 -1.225566267967224121e-01 -3.795050382614135742e-01
1.501908600330352783e-01 -5.013794898986816406e-01 -7.167892903089523315e-02
2.472829669713973999e-01 -1.430646777153015137e-01 3.921202421188354492e-01
1.821279525756835938e-02 -2.739980518817901611e-01 -4.996311664581298828e-01
2.614992856979370117e-01 -1.217424422502517700e-01 2.262701392173767090e-01
-3.818032145500183105e-02 -4.020886719226837158e-01 -4.258106946945190430e-01
4.087552428245544434e-03 -2.236288189888000488e-01 9.826266020536422729e-02
-3.584285080432891846e-02 -3.482348322868347168e-01 3.075109422206878662e-01
2.676322460174560547e-01 -2.827220559120178223e-01 -1.089155673980712891e-02
2.289150953292846680e-01 -1.040497720241546631e-01 -2.203970551490783691e-01
1.731168329715728760e-01 -4.723407030105590820e-01 -8.357588946819305420e-02
2.577348351478576660e-01 -1.816429644823074341e-01 -2.457996904850006104e-01
1.121846660971641541e-01 -1.418235450983047485e-01 3.992840647697448730e-01
-3.620986640453338623e-02 -3.422082066535949707e-01 -3.545521497726440430e-01
2.233407795429229736e-01 -3.332553803920745850e-01 -3.190746009349822998e-01
2.793816328048706055e-01 -1.849428117275238037e-01 -2.934563905000686646e-03
6.098615005612373352e-02 -4.701866805553436279e-01 6.170042753219604492e-01
6.397671997547149658e-02 -1.457806229591369629e-01 -1.597046554088592529e-01
-6.803582608699798584e-02 -4.890869855880737305e-01 1.387616395950317383e-01
1.881937682628631592e-01 -3.359456062316894531e-01 -4.833315610885620117e-01
4.344187676906585693e-02 -2.786026895046234131e-01 -5.823986530303955078e-01
2.605733573436737061e-01 -1.113359034061431885e-01 1.604984700679779053e-01
9.577521681785583496e-02 -4.623326659202575684e-01 -5.011826753616333008e-01
2.174012362957000732e-01 -4.000892341136932373e-01 -1.031919792294502258e-01
-5.743078887462615967e-02 -4.314820468425750732e-01 2.648291587829589844e-01
-6.574912369251251221e-02 -5.106467008590698242e-01 -1.418071985244750977e-01
2.788659334182739258e-01 -1.647893935441970825e-01 3.304854407906532288e-02
1.944214105606079102e-01 -4.469722509384155273e-01 2.381275594234466553e-01
-5.306851863861083984e-02 -4.932585358619689941e-01 -3.026701807975769043e-01
-4.733192920684814453e-02 -3.377580940723419189e-01 -2.178971469402313232e-01
2.759099006652832031e-01 -1.845198273658752441e-01 -7.108428329229354858e-02
2.472644001245498657e-01 -3.491972088813781738e-01 1.988821327686309814e-01
1.216874271631240845e-01 -9.553925693035125732e-02 7.769760489463806152e-02
1.846698671579360962e-01 -3.390098810195922852e-01 6.477991342544555664e-01
2.696584463119506836e-01 -1.337112635374069214e-01 1.885971426963806152e-01
2.295148372650146484e-02 -1.929187774658203125e-01 -1.327933371067047119e-01
1.731041818857192993e-02 -5.833345651626586914e-01 1.710087358951568604e-01
1.035773307085037231e-01 -5.320642590522766113e-01 -1.985870599746704102e-01
3.854237496852874756e-03 -5.654625296592712402e-01 -2.348729968070983887e-01
1.188640519976615906e-01 -9.574449062347412109e-02 1.252043433487415314e-02
2.144007086753845215e-01 -4.096964597702026367e-01 -7.075841724872589111e-02
2.263835966587066650e-01 -3.974794149398803711e-01 8.938519656658172607e-02
2.797223329544067383e-01 -2.001943290233612061e-01 1.909342408180236816e-01
2.335038036108016968e-01 -3.291041553020477295e-01 -2.579681277275085449e-01
1.232670545578002930e-01 -1.712611019611358643e-01 5.319647789001464844e-01
7.741842418909072876e-02 -5.550138950347900391e-01 -1.609523892402648926e-01
9.771633148193359375e-02 -3.543517887592315674e-01 -6.453210115432739258e-01
1.775733828544616699e-01 -4.629905819892883301e-01 -1.147444918751716614e-01
-2.403029799461364746e-02 -5.785123705863952637e-01 -2.260972186923027039e-02
2.309166193008422852e-01 -1.049892306327819824e-01 3.199280798435211182e-01
1.951128244400024414e-01 -4.030358195304870605e-01 4.863403141498565674e-01
2.772620916366577148e-01 -2.466346621513366699e-01 9.783568978309631348e-02
6.426835060119628906e-02 -5.553823709487915039e-01 3.401928544044494629e-01
2.233335375785827637e-02 -3.139516115188598633e-01 5.553986430168151855e-01
2.442372590303421021e-01 -3.356080651283264160e-01 -1.301906406879425049e-01
2.390834689140319824e-01 -3.096203207969665527e-01 4.639815092086791992e-01
6.092995405197143555e-03 -5.864599347114562988e-01 1.040420904755592346e-01
1.123114377260208130e-01 -4.478873610496520996e-01 -5.000696182250976562e-01
-2.116262167692184448e-02 -5.135906934738159180e-01 -3.894573748111724854e-01
1.637997329235076904e-01 -1.851465404033660889e-01 6.040909886360168457e-01
-5.554868280887603760e-02 -3.595583438873291016e-01 1.103038191795349121e-01
1.713903397321701050e-01 -4.027646780014038086e-01 5.885559916496276855e-01
-2.148558944463729858e-02 -3.128445744514465332e-01 3.228462934494018555e-01
1.948755085468292236e-01 -4.084649682044982910e-01 -2.730150222778320312e-01
-1.258299499750137329e-02 -5.134286284446716309e-01 4.387272298336029053e-01
1.506886631250381470e-02 -2.513687014579772949e-01 3.727435171604156494e-01
2.105704993009567261e-01 -7.151651382446289062e-02 -2.608038485050201416e-04
1.817266941070556641e-01 -4.624699354171752930e-01 2.692826390266418457e-01
-4.986219108104705811e-03 -5.341467857360839844e-01 4.091373383998870850e-01
6.171140074729919434e-02 -5.727006793022155762e-01 -5.114637315273284912e-02
8.304510265588760376e-02 -2.425839900970458984e-01 6.116423606872558594e-01
-1.540664583444595337e-02 -5.603805780410766602e-01 -2.347017824649810791e-01
2.282787561416625977e-01 -3.938801288604736328e-01 1.243877336382865906e-01
1.605946272611618042e-01 -3.576535880565643311e-01 -5.410546064376831055e-01
2.221768796443939209e-01 -3.848209381103515625e-01 -1.411830186843872070e-01
1.268101036548614502e-01 -4.447200000286102295e-01 -4.699802994728088379e-01
-5.679509043693542480e-02 -3.523582220077514648e-01 -8.968818187713623047e-02
1.479939669370651245e-01 -4.990225136280059814e-01 3.090442419052124023e-01
1.441425383090972900e-01 -4.910569190979003906e-01 -2.138591706752777100e-01
-7.238300144672393799e-02 -4.305746555328369141e-01 3.051584213972091675e-02
1.028277277946472168e-01 -5.416580438613891602e-01 -1.221274062991142273e-01
1.700095534324645996e-01 -8.162038028240203857e-02 2.000870406627655029e-01
7.292714715003967285e-02 -2.742862403392791748e-01 -6.250494122505187988e-01
9.049542248249053955e-02 -5.032791495323181152e-01 -3.922156393527984619e-01
5.664533004164695740e-02 -2.682341039180755615e-01 -5.949874520301818848e-01
-5.437555909156799316e-02 -5.480880737304687500e-01 5.728656798601150513e-02
2.035454213619232178e-01 -3.754789829254150391e-01 5.209309458732604980e-01
8.935492485761642456e-02 -5.106717348098754883e-01 4.996429979801177979e-01
4.612242802977561951e-02 -1.612672507762908936e-01 7.454976439476013184e-03
1.622182130813598633e-01 -4.916156530380249023e-01 2.089154124259948730e-01
2.369418293237686157e-01 -3.760103583335876465e-01 1.045481264591217041e-01
2.177079319953918457e-01 -3.409871459007263184e-01 5.263832807540893555e-01
-1.335494220256805420e-02 -2.502664327621459961e-01 -1.272116005420684814e-01
-6.784336268901824951e-02 -4.356923103332519531e-01 -2.069286406040191650e-01
5.860519036650657654e-02 -2.686898708343505859e-01 5.972890853881835938e-01
1.917989104986190796e-01 -9.100803732872009277e-02 3.007950484752655029e-01
-6.043130159378051758e-02 -5.379891395568847656e-01 1.797925122082233429e-02
1.732226461172103882e-02 -3.584402501583099365e-01 -5.938763022422790527e-01
2.635968327522277832e-01 -1.304011344909667969e-01 2.485706806182861328e-01
-6.896226108074188232e-02 -4.021087288856506348e-01 -8.733242750167846680e-03
1.572479158639907837e-01 -4.523233771324157715e-01 -3.265725374221801758e-01
1.506334692239761353e-01 -1.960154026746749878e-01 6.195647120475769043e-01
-2.572411298751831055e-02 -2.794280648231506348e-01 -1.873441338539123535e-01
1.579507291316986084e-01 -4.845099449157714844e-01 -1.469118595123291016e-01
