-2.020815201103687286e-02 3.661978840827941895e-01 5.656676292419433594e-01
-1.443637814372777939e-02 2.475267499685287476e-01 -1.073726177215576172e+00
3.510453924536705017e-02 3.293879628181457520e-01 -3.813387751579284668e-01
-3.280817717313766479e-02 3.509725332260131836e-01 -3.661651611328125000e-01
2.396692754700779915e-03 3.682459890842437744e-01 8.018456697463989258e-01
2.347221411764621735e-02 2.189676761627197266e-01 -5.299966931343078613e-01
-2.474530600011348724e-02 2.382982671260833740e-01 4.811953306198120117e-01
-2.645433880388736725e-02 2.252539098262786865e-01 -4.372276961803436279e-01
-2.859384007751941681e-02 2.517598271369934082e-01 3.764606714248657227e-01
6.281201727688312531e-03 4.396936893463134766e-01 -4.742527306079864502e-01
-1.018559187650680542e-02 2.650106847286224365e-01 9.226132035255432129e-01
-2.852155454456806183e-02 3.591448068618774414e-01 -7.373684048652648926e-01
-2.868205681443214417e-02 2.709068357944488525e-01 4.683707952499389648e-01
1.144050038419663906e-04 2.031945437192916870e-01 6.591320037841796875e-01
1.493537053465843201e-02 1.865017861127853394e-01 2.760939300060272217e-02
-1.644958183169364929e-02 2.660624682903289795e-01 -1.128558874130249023e+00
-2.965428680181503296e-02 3.624450564384460449e-01 1.538620293140411377e-01
2.423585578799247742e-02 3.121587634086608887e-01 -1.078071594238281250e+00
2.512620203197002411e-02 2.443565428256988525e-01 4.826872944831848145e-01
-3.489368781447410583e-02 3.212815225124359131e-01 -1.228643879294395447e-01
-2.485670708119869232e-02 2.387354224920272827e-01 -7.122580409049987793e-01
-2.347405068576335907e-02 2.090720534324645996e-01 1.478452086448669434e-01
-2.450571395456790924e-02 2.155045866966247559e-01 2.121177613735198975e-01
2.277850732207298279e-02 2.254060506820678711e-01 -6.636159420013427734e-01
1.984498836100101471e-02 4.194062948226928711e-01 -1.194930449128150940e-01
1.575316488742828369e-02 3.526596426963806152e-01 7.502886652946472168e-01
-2.724733203649520874e-02 3.261613547801971436e-01 -9.255655407905578613e-01
2.914156205952167511e-02 2.883980870246887207e-01 4.785099625587463379e-01
-2.166430465877056122e-02 2.672398984432220459e-01 -1.011992216110229492e+00
2.072493545711040497e-02 2.020900845527648926e-01 -3.264172673225402832e-01
2.551851607859134674e-02 2.147904932498931885e-01 -1.416645199060440063e-01
2.693840488791465759e-02 2.289827764034271240e-01 -4.557240903377532959e-01
-3.210889175534248352e-02 2.519003748893737793e-01 9.748741984367370605e-03
3.100312314927577972e-02 2.458606958389282227e-01 4.321134090423583984e-02
2.922453172504901886e-02 3.877201080322265625e-01 -2.518541216850280762e-01
-1.063623744994401932e-02 3.110980391502380371e-01 9.330218434333801270e-01
-3.487281501293182373e-02 3.125585913658142090e-01 -3.368653059005737305e-01
6.843850016593933105e-03 2.195987999439239502e-01 -9.746857285499572754e-01
1.654416508972644806e-02 3.698213100433349609e-01 -1.163880109786987305e+00
2.358331903815269470e-02 3.196527361869812012e-01 -1.100304365158081055e+00
-1.148634217679500580e-02 3.464565277099609375e-01 -1.286307096481323242e+00
1.243548002094030380e-02 2.408911734819412231e-01 -1.071771860122680664e+00
3.432743251323699951e-02 2.761526107788085938e-01 -3.238146901130676270e-01
2.224445343017578125e-02 3.839961886405944824e-01 3.829602599143981934e-01
2.922038547694683075e-02 3.867635726928710938e-01 -3.921173214912414551e-01
1.575605757534503937e-02 1.885508447885513306e-01 -2.266596704721450806e-01
3.155185654759407043e-02 2.589728832244873047e-01 -4.919164776802062988e-01
3.509360179305076599e-02 2.870523631572723389e-01 -2.928341627120971680e-01
3.176294267177581787e-02 2.827319502830505371e-01 3.117193579673767090e-01
-2.518720924854278564e-02 2.608353793621063232e-01 -8.633731007575988770e-01
2.239258773624897003e-02 3.587487936019897461e-01 -1.067372083663940430e+00
-1.708202064037322998e-02 3.794322013854980469e-01 5.501636266708374023e-01
2.030793018639087677e-02 2.865598797798156738e-01 -1.135571956634521484e+00
3.349454700946807861e-02 3.449107408523559570e-01 4.337945580482482910e-02
-5.343987606465816498e-03 3.789349496364593506e-01 7.227611541748046875e-01
-1.966820470988750458e-02 4.166417419910430908e-01 -1.771919578313827515e-01
1.851045875810086727e-03 2.602906227111816406e-01 -1.253439188003540039e+00
1.691622100770473480e-02 1.922763586044311523e-01 1.284319758415222168e-01
-1.564228162169456482e-02 1.911560297012329102e-01 -3.867748975753784180e-01
-3.283561021089553833e-02 3.352458178997039795e-01 -5.411981344223022461e-01
2.286354638636112213e-02 2.393681854009628296e-01 -8.094334602355957031e-01
-2.216051146388053894e-02 2.083832621574401855e-01 -4.210025668144226074e-01
9.924964979290962219e-03 1.790121495723724365e-01 -1.672947108745574951e-01
1.190956681966781616e-02 2.966459095478057861e-01 -1.298931837081909180e+00
3.082433529198169708e-02 2.752941548824310303e-01 -6.921476125717163086e-01
2.727626264095306396e-02 3.764032423496246338e-01 -7.657082676887512207e-01
-3.333341330289840698e-02 3.027322292327880859e-01 2.049035131931304932e-01
-2.286220900714397430e-02 4.034485518932342529e-01 -1.673388481140136719e-02
-1.810879446566104889e-02 3.123316168785095215e-01 -1.201328754425048828e+00
3.310050815343856812e-02 3.409849405288696289e-01 1.228612661361694336e-01
-8.213839493691921234e-03 3.537798821926116943e-01 -1.306958436965942383e+00
-2.974749356508255005e-02 3.194743692874908447e-01 -8.123216629028320312e-01
8.582076989114284515e-03 2.067846953868865967e-01 -8.260282874107360840e-01
-9.851755574345588684e-03 2.088202685117721558e-01 -8.327657580375671387e-01
-1.714614033699035645e-02 4.155557453632354736e-01 -6.656448841094970703e-01
1.588366739451885223e-02 2.388851344585418701e-01 -9.988541603088378906e-01
2.424547821283340454e-02 4.016584455966949463e-01 3.191959857940673828e-02
3.442237153649330139e-02 3.028884530067443848e-01 -5.169476270675659180e-01
-3.194550424814224243e-02 2.628529071807861328e-01 -4.698422253131866455e-01
3.456186130642890930e-02 3.315081596374511719e-01 -4.709426164627075195e-01
-1.168200280517339706e-02 2.301124632358551025e-01 -1.002014517784118652e+00
-7.133550010621547699e-03 4.254793226718902588e-01 -8.104950785636901855e-01
-2.886162139475345612e-02 2.353441715240478516e-01 -3.968887627124786377e-01
9.840314276516437531e-03 1.884027421474456787e-01 3.581930994987487793e-01
2.471732348203659058e-02 3.831115365028381348e-01 2.887286245822906494e-01
2.886217087507247925e-02 2.302512675523757935e-01 -1.976455748081207275e-01
-2.820253372192382812e-02 3.215126395225524902e-01 -8.879883289337158203e-01
-1.864356547594070435e-02 3.902890086174011230e-01 -9.409801363945007324e-01
2.602989226579666138e-02 3.180968761444091797e-01 5.987910032272338867e-01
-3.522277623414993286e-02 3.062162697315216064e-01 -1.924435049295425415e-01
1.830449141561985016e-02 2.093949615955352783e-01 4.219326972961425781e-01
3.277458995580673218e-02 2.578636109828948975e-01 -2.841628193855285645e-01
2.526668831706047058e-02 3.729880154132843018e-01 -8.938723206520080566e-01
-2.759917825460433960e-02 3.849094510078430176e-01 -4.779253602027893066e-01
2.748094685375690460e-02 3.881808817386627197e-01 -6.008981466293334961e-01
5.175395868718624115e-03 1.829046607017517090e-01 3.396245241165161133e-01
1.880577579140663147e-02 2.207871973514556885e-01 -7.618405818939208984e-01
-2.427607029676437378e-02 2.118752598762512207e-01 -3.239391148090362549e-01
-3.241462260484695435e-02 2.707174718379974365e-01 2.058399021625518799e-01
-1.393906027078628540e-02 3.959806263446807861e-01 -1.019904494285583496e+00
-2.668358385562896729e-02 2.524762153625488281e-01 -7.434590458869934082e-01
-2.759488672018051147e-02 2.255667448043823242e-01 1.159535646438598633e-01
3.176213800907135010e-02 3.241804242134094238e-01 -7.518356442451477051e-01
-3.388041257858276367e-02 3.279694020748138428e-01 5.007952451705932617e-02
2.910139784216880798e-02 3.832018375396728516e-01 -5.242921113967895508e-01
1.622795313596725464e-02 3.046949803829193115e-01 -1.251650571823120117e+00
3.045325726270675659e-02 3.584533929824829102e-01 2.013440132141113281e-01
-6.564397364854812622e-03 4.374269247055053711e-01 -1.273502856492996216e-01
-1.817664317786693573e-02 3.464825749397277832e-01 7.222611308097839355e-01
-2.544318139553070068e-02 2.561867833137512207e-01 5.583640336990356445e-01
-1.166281849145889282e-02 3.925754427909851074e-01 -1.090622186660766602e+00
-1.941416971385478973e-02 4.179278016090393066e-01 -3.449760079383850098e-01
3.091971203684806824e-02 3.295028209686279297e-01 3.470928072929382324e-01
3.356097266077995300e-02 3.480132520198822021e-01 -4.856794178485870361e-01
-3.051926614716649055e-03 3.990034759044647217e-01 5.785756111145019531e-01
1.537871174514293671e-02 2.771871984004974365e-01 -1.202527999877929688e+00
-1.682697236537933350e-02 3.892135620117187500e-01 4.706381559371948242e-01
-3.062059916555881500e-02 3.065132200717926025e-01 4.021052122116088867e-01
-2.996286936104297638e-02 3.715192973613739014e-01 -4.548033177852630615e-01
-1.157256215810775757e-02 1.984608024358749390e-01 -6.681265830993652344e-01
-2.828993834555149078e-02 2.252144515514373779e-01 -7.889816910028457642e-02
2.678638324141502380e-02 2.362371385097503662e-01 -5.843600034713745117e-01
1.688584685325622559e-02 2.211813777685165405e-01 5.943014621734619141e-01
-4.869804717600345612e-03 2.016411721706390381e-01 -8.040632009506225586e-01
-1.585197821259498596e-02 4.224945306777954102e-01 -3.648893535137176514e-02
-3.244017809629440308e-02 2.851263582706451416e-01 2.664971947669982910e-01
-2.857558988034725189e-02 3.030158281326293945e-01 -8.671256899833679199e-01
1.726441830396652222e-02 3.413172662258148193e-01 7.673649787902832031e-01
1.373601518571376801e-02 3.836805224418640137e-01 -1.145503759384155273e+00
3.035549074411392212e-02 3.612726628780364990e-01 -6.928392648696899414e-01
-3.336109220981597900e-02 2.707349061965942383e-01 8.738589286804199219e-02
3.122377581894397736e-02 3.462406694889068604e-01 -7.253201007843017578e-01
-1.631201989948749542e-02 3.588092923164367676e-01 7.016993761062622070e-01
-2.812140807509422302e-02 3.761243522167205811e-01 9.257811307907104492e-02
-2.427339181303977966e-02 3.677518367767333984e-01 -9.001588225364685059e-01
1.950974389910697937e-02 3.600029647350311279e-01 6.373503804206848145e-01
-2.217386290431022644e-02 4.078673422336578369e-01 -9.313845634460449219e-02
-1.524859108030796051e-02 3.742760419845581055e-01 -1.132934808731079102e+00
-3.168614953756332397e-02 2.996417880058288574e-01 -6.864962577819824219e-01
-3.276034817099571228e-02 2.786563932895660400e-01 -5.198953747749328613e-01
2.337245456874370575e-02 2.247990965843200684e-01 -6.265037059783935547e-01
-3.461149707436561584e-02 2.873729765415191650e-01 -3.185760378837585449e-01
6.870727986097335815e-03 2.952550649642944336e-01 9.742417931556701660e-01
-3.808760317042469978e-03 4.177763462066650391e-01 -9.609797596931457520e-01
-2.996441721916198730e-02 2.398096621036529541e-01 -3.523347973823547363e-01
2.102554030716419220e-02 3.413192033767700195e-01 -1.150242090225219727e+00
-2.747574821114540100e-02 3.586600422859191895e-01 -8.027448654174804688e-01
2.654428407549858093e-02 3.339620530605316162e-01 -9.940125346183776855e-01
2.325205691158771515e-02 4.037981629371643066e-01 5.945375561714172363e-02
-3.302199020981788635e-02 3.478239178657531738e-01 -5.839024484157562256e-02
-1.642396114766597748e-02 4.150878489017486572e-01 1.276610791683197021e-01
2.260302193462848663e-02 4.030897617340087891e-01 -7.031822800636291504e-01
2.136831916868686676e-02 2.392048537731170654e-01 -8.601290583610534668e-01
-1.795746944844722748e-02 2.067052721977233887e-01 -6.075670719146728516e-01
2.937728725373744965e-02 3.840521275997161865e-01 -9.274961054325103760e-02
2.237314358353614807e-02 4.012478888034820557e-01 1.609468162059783936e-01
-1.707010902464389801e-02 2.406647205352783203e-01 7.366979718208312988e-01
-3.208120539784431458e-02 3.599724471569061279e-01 -2.918694019317626953e-01
2.325187250971794128e-02 3.428851068019866943e-01 -1.087482213973999023e+00
3.298474475741386414e-02 3.478631079196929932e-01 -5.618132948875427246e-01
-2.167050354182720184e-02 3.149865269660949707e-01 7.344244122505187988e-01
1.442460063844919205e-02 2.447458803653717041e-01 7.928702235221862793e-01
2.419034391641616821e-02 3.577360510826110840e-01 -1.014402866363525391e+00
3.282722830772399902e-02 2.919287979602813721e-01 2.554980218410491943e-01
-2.509778738021850586e-02 3.794594705104827881e-01 -7.666885852813720703e-01
2.610272169113159180e-02 3.790047764778137207e-01 -8.071496486663818359e-01
-3.175057470798492432e-02 2.738365232944488525e-01 -5.797942876815795898e-01
-1.162354275584220886e-02 2.642051577568054199e-01 -1.196888446807861328e+00
-4.278125241398811340e-03 1.734515875577926636e-01 -6.923130154609680176e-02
-1.044640131294727325e-02 1.832295358180999756e-01 2.471485137939453125e-01
2.712226286530494690e-02 3.426364362239837646e-01 -9.540026187896728516e-01
2.044478431344032288e-02 2.798551321029663086e-01 -1.111719846725463867e+00
-2.681697532534599304e-02 3.904743790626525879e-01 -1.023311018943786621e-01
2.813425660133361816e-02 3.781825006008148193e-01 1.484451889991760254e-01
8.098608814179897308e-03 4.308672547340393066e-01 9.725651144981384277e-02
-1.180421188473701477e-02 4.040430188179016113e-01 4.280993938446044922e-01
-3.054837323725223541e-02 3.714298605918884277e-01 -3.149429559707641602e-01
-2.745614014565944672e-02 2.961955666542053223e-01 -9.060556292533874512e-01
3.011678904294967651e-02 2.541567087173461914e-01 2.632794678211212158e-01
3.568909317255020142e-02 3.108431696891784668e-01 -1.266310960054397583e-01
1.897217892110347748e-02 2.155469655990600586e-01 -6.914156079292297363e-01
1.122850459069013596e-02 4.134943485260009766e-01 -9.439283013343811035e-01
-1.104451343417167664e-02 1.799508184194564819e-01 8.435872197151184082e-02
2.565198205411434174e-02 4.005771279335021973e-01 -5.052566528320312500e-01
-2.492523007094860077e-02 3.223399221897125244e-01 6.220579147338867188e-01
4.336817190051078796e-03 2.487416416406631470e-01 9.183022379875183105e-01
-2.602901123464107513e-02 2.309932112693786621e-01 -5.610802769660949707e-01
3.068803064525127411e-02 2.678443789482116699e-01 -6.503183841705322266e-01
-1.973865740001201630e-02 2.202328443527221680e-01 -7.243046164512634277e-01
-2.609010599553585052e-02 3.558122813701629639e-01 4.268333315849304199e-01
1.251540146768093109e-02 2.644119858741760254e-01 8.863640427589416504e-01
-1.096985209733247757e-02 4.052769839763641357e-01 -9.974845647811889648e-01
-2.792002819478511810e-02 3.804222345352172852e-01 -5.392355918884277344e-01
-3.073916025459766388e-02 2.536228001117706299e-01 2.289543449878692627e-01
4.074751399457454681e-03 1.762049049139022827e-01 1.575262844562530518e-01
1.696734316647052765e-02 2.000401616096496582e-01 3.293436169624328613e-01
-2.216508239507675171e-02 3.892406523227691650e-01 -8.147513270378112793e-01
1.828214339911937714e-02 2.000729441642761230e-01 2.622353136539459229e-01
-2.981457114219665527e-02 2.915740907192230225e-01 -7.828990221023559570e-01
2.460909634828567505e-02 2.958284616470336914e-01 6.634088754653930664e-01
1.193874608725309372e-02 3.327583074569702148e-01 8.754890561103820801e-01
-2.491094917058944702e-02 2.531162798404693604e-01 -8.261590003967285156e-01
3.536430001258850098e-02 3.049145340919494629e-01 -3.752790093421936035e-01
3.405929729342460632e-02 2.751873433589935303e-01 2.124358713626861572e-02
3.376403823494911194e-02 3.395544588565826416e-01 -5.312176942825317383e-01
2.940041385591030121e-02 2.327550649642944336e-01 -1.170690357685089111e-01
3.366611897945404053e-02 2.809904217720031738e-01 -4.879242479801177979e-01
2.247534692287445068e-02 2.673607468605041504e-01 6.857071518898010254e-01
-2.900559268891811371e-02 2.295720577239990234e-01 -1.952087879180908203e-02
-6.678023375570774078e-03 3.208514750003814697e-01 9.506736397743225098e-01
-1.421963516622781754e-02 2.976269423961639404e-01 -1.255013704299926758e+00
2.323112450540065765e-02 2.159616202116012573e-01 -4.892963767051696777e-01
-2.291067503392696381e-02 2.048444747924804688e-01 -2.253449857234954834e-01
-2.191209234297275543e-02 2.729383111000061035e-01 7.267940044403076172e-01
3.272039070725440979e-02 3.560776114463806152e-01 -5.108345746994018555e-01
3.488925099372863770e-02 3.389517068862915039e-01 -3.086490035057067871e-01
3.572278469800949097e-02 3.097515702247619629e-01 -2.705221772193908691e-01
-2.866906300187110901e-02 2.984709143638610840e-01 5.091623067855834961e-01
-3.195662796497344971e-02 2.486615777015686035e-01 -7.694167643785476685e-02
1.896072365343570709e-02 3.672614395618438721e-01 6.085827946662902832e-01
2.407705597579479218e-02 3.349014222621917725e-01 6.209906339645385742e-01
1.347636710852384567e-02 2.003938853740692139e-01 -6.448653340339660645e-01
1.221550628542900085e-03 1.916305124759674072e-01 -6.822996139526367188e-01
1.013221498578786850e-02 3.636272847652435303e-01 -1.278249263763427734e+00
-3.191486746072769165e-02 2.879088819026947021e-01 3.141970038414001465e-01
-3.304582834243774414e-02 2.889998853206634521e-01 -5.465900897979736328e-01
-3.456052765250205994e-02 3.074751794338226318e-01 4.682892560958862305e-02
-3.441038727760314941e-02 3.334410786628723145e-01 -2.188220173120498657e-01
-3.496547788381576538e-02 3.188457489013671875e-01 -2.627776265144348145e-01
3.419400751590728760e-02 2.973501086235046387e-01 1.358158886432647705e-01
2.344124391674995422e-02 3.460222780704498291e-01 5.982504487037658691e-01
-1.794327795505523682e-02 2.081944048404693604e-01 -6.308548450469970703e-01
-2.209998294711112976e-02 3.967196047306060791e-01 -7.251754999160766602e-01
-5.351424217224121094e-03 4.400777220726013184e-01 -3.500909209251403809e-01
-9.887064807116985321e-03 1.900296807289123535e-01 4.124881625175476074e-01
3.575953096151351929e-02 3.081542253494262695e-01 -2.336194366216659546e-01
-1.614274084568023682e-02 1.993695795536041260e-01 3.895999789237976074e-01
2.544374391436576843e-02 4.034523963928222656e-01 -1.695489585399627686e-01
-2.503403648734092712e-02 3.672546744346618652e-01 -8.698861002922058105e-01
-3.058881498873233795e-02 3.550903797149658203e-01 -6.138556003570556641e-01
-2.000680193305015564e-02 2.370427548885345459e-01 6.437667608261108398e-01
-2.013421244919300079e-02 2.455134242773056030e-01 6.856110095977783203e-01
2.664036862552165985e-02 3.014717698097229004e-01 -9.848955273628234863e-01
9.018822573125362396e-03 1.786338090896606445e-01 7.805350422859191895e-02
2.636110410094261169e-02 3.742729723453521729e-01 -8.336689472198486328e-01
-3.481785207986831665e-02 3.091787099838256836e-01 -3.565618395805358887e-01
2.993196062743663788e-02 2.534209191799163818e-01 -5.714358091354370117e-01
-3.100058995187282562e-02 2.686509788036346436e-01 3.166322112083435059e-01
1.287525612860918045e-02 4.322478473186492920e-01 -5.267618298530578613e-01
1.258367858827114105e-02 2.136816084384918213e-01 6.292172670364379883e-01
-3.418156504631042480e-02 3.258879780769348145e-01 1.812602579593658447e-02
-3.070438653230667114e-02 2.435213923454284668e-01 8.725160360336303711e-02
1.993295550346374512e-02 1.968994140625000000e-01 -5.296504497528076172e-02
-3.501755744218826294e-02 3.053830862045288086e-01 -4.959841072559356689e-02
9.713261388242244720e-03 2.280874550342559814e-01 -1.015892386436462402e+00
-2.395150624215602875e-02 3.357828259468078613e-01 -1.034707665443420410e+00
2.660195529460906982e-02 2.206054925918579102e-01 2.443222701549530029e-02
8.249021135270595551e-03 4.286869168281555176e-01 1.435258090496063232e-01
-2.274914295412600040e-04 3.719077706336975098e-01 -1.294116973876953125e+00
-2.977187186479568481e-02 2.514086663722991943e-01 2.913815379142761230e-01
-3.422665968537330627e-02 2.730978727340698242e-01 -1.723853945732116699e-01
-9.385999292135238647e-03 1.838358193635940552e-01 -4.325590431690216064e-01
1.443754788488149643e-02 4.271875619888305664e-01 -8.517250418663024902e-03
-1.767869479954242706e-02 1.897768527269363403e-01 -7.902126759290695190e-02
2.076406218111515045e-02 2.294119596481323242e-01 5.429260134696960449e-01
-2.275953628122806549e-02 2.038792371749877930e-01 -1.948530375957489014e-01
3.233394399285316467e-02 3.650258481502532959e-01 -1.015493944287300110e-01
-2.470901422202587128e-02 3.877960443496704102e-01 1.677133738994598389e-01
2.650723606348037720e-02 2.228222340345382690e-01 -3.547986149787902832e-01
2.123212441802024841e-03 4.096795916557312012e-01 4.774571657180786133e-01
3.027579374611377716e-02 3.151248395442962646e-01 -8.412837982177734375e-01
-4.786283243447542191e-04 1.727550774812698364e-01 -1.032409742474555969e-01
8.963214233517646790e-03 4.095221161842346191e-01 -1.019462347030639648e+00
-3.992684185504913330e-03 1.901181042194366455e-01 -6.457788944244384766e-01
-3.301290795207023621e-02 3.442433476448059082e-01 -4.392420351505279541e-01
8.696236647665500641e-03 2.551686167716979980e-01 -1.195319175720214844e+00
2.742295712232589722e-02 3.042977452278137207e-01 -9.597691893577575684e-01
-3.077843226492404938e-02 2.486815303564071655e-01 1.663927137851715088e-01
1.877819187939167023e-02 3.981457352638244629e-01 -9.251708388328552246e-01
-3.199097141623497009e-02 2.560654878616333008e-01 1.135223507881164551e-01
6.810736842453479767e-03 1.761427670717239380e-01 4.607741534709930420e-02
-2.199473977088928223e-02 3.524160683155059814e-01 -1.053704023361206055e+00
-2.595732174813747406e-02 3.378665447235107422e-01 -9.574278593063354492e-01
-3.301953151822090149e-02 3.394733369350433350e-01 -4.881398975849151611e-01
1.242002099752426147e-02 1.825695633888244629e-01 -1.972537189722061157e-01
-2.937295474112033844e-02 3.782727718353271484e-01 -3.579275012016296387e-01
-1.268391590565443039e-02 2.543925642967224121e-01 8.662137389183044434e-01
-1.820504292845726013e-02 2.610106468200683594e-01 7.892408967018127441e-01
-2.806614525616168976e-02 2.748068571090698242e-01 -8.111455440521240234e-01
2.893499098718166351e-02 3.783931136131286621e-01 8.088606595993041992e-02
-2.315063774585723877e-02 4.046542942523956299e-01 -4.655467271804809570e-01
-8.554963860660791397e-04 3.785502016544342041e-01 -1.265602350234985352e+00
-2.431395277380943298e-02 3.423816859722137451e-01 -1.007610559463500977e+00
-3.242683410644531250e-02 3.561078011989593506e-01 -3.283964991569519043e-01
-2.266029268503189087e-02 4.085269570350646973e-01 -2.641538977622985840e-01
-2.692590467631816864e-02 2.475074529647827148e-01 4.419416189193725586e-01
-3.181852027773857117e-02 2.637457847595214844e-01 -4.922281801700592041e-01
2.492171898484230042e-02 2.575213313102722168e-01 -8.715485930442810059e-01
2.198949456214904785e-02 4.129826426506042480e-01 -8.811926841735839844e-02
2.415851876139640808e-02 2.736984491348266602e-01 -9.851891994476318359e-01
6.533524952828884125e-03 2.816077470779418945e-01 -1.310693979263305664e+00
-3.593699540942907333e-03 4.295775890350341797e-01 -7.887644767761230469e-01
-2.374659106135368347e-02 2.847389578819274902e-01 6.900122761726379395e-01
-3.464528545737266541e-02 2.914859354496002197e-01 -3.435567021369934082e-01
-2.229740144684910774e-03 1.853736340999603271e-01 -5.699270963668823242e-01
-1.062002498656511307e-02 4.102720022201538086e-01 3.743805289268493652e-01
2.212342433631420135e-02 4.153335094451904297e-01 -2.614271640777587891e-01
2.917342819273471832e-02 2.446160018444061279e-01 2.394753992557525635e-01
2.633973397314548492e-02 2.627439796924591064e-01 -8.480622172355651855e-01
4.937915131449699402e-03 3.883149921894073486e-01 6.632616519927978516e-01
-3.040947206318378448e-02 2.403473407030105591e-01 -2.939142286777496338e-01
-2.778309583663940430e-02 2.680680453777313232e-01 5.032311081886291504e-01
-9.070149622857570648e-03 2.409901618957519531e-01 -1.108896970748901367e+00
2.252919971942901611e-02 4.085830450057983398e-01 -6.970763206481933594e-05
1.024966221302747726e-02 3.795796632766723633e-01 6.809107065200805664e-01
-2.394414693117141724e-02 2.210528999567031860e-01 3.457070589065551758e-01
2.948981337249279022e-02 2.672392725944519043e-01 3.951915502548217773e-01
-1.588642038404941559e-02 2.190994024276733398e-01 6.243268847465515137e-01
-7.805876433849334717e-03 4.025557339191436768e-01 5.057808756828308105e-01
2.244757674634456635e-02 3.257711231708526611e-01 -1.130620718002319336e+00
2.256019227206707001e-02 2.553269863128662109e-01 6.405704021453857422e-01
9.453238919377326965e-03 1.815540641546249390e-01 -3.374484777450561523e-01
-1.702615432441234589e-02 2.289658635854721069e-01 -8.898974061012268066e-01
1.834616996347904205e-02 4.066298604011535645e-01 2.532592117786407471e-01
2.854484319686889648e-02 2.290232181549072266e-01 -2.492013573646545410e-02
-2.780864201486110687e-02 3.401252925395965576e-01 4.414569735527038574e-01
1.196212694048881531e-02 2.585033774375915527e-01 -1.176365733146667480e+00
-5.318555049598217010e-03 4.213079214096069336e-01 -9.008788466453552246e-01
1.529371924698352814e-02 3.151661455631256104e-01 -1.275736331939697266e+00
-2.243099175393581390e-02 2.396380305290222168e-01 5.827066302299499512e-01
-1.979283243417739868e-02 4.094042479991912842e-01 -6.412984132766723633e-01
2.815471030771732330e-02 3.916597068309783936e-01 -4.216887652873992920e-01
1.815746538341045380e-02 3.487718701362609863e-01 7.211000919342041016e-01
-2.456204779446125031e-02 4.016321301460266113e-01 -2.222788929939270020e-01
-1.972591318190097809e-02 3.743872344493865967e-01 -1.021532535552978516e+00
2.749030292034149170e-02 3.825740814208984375e-01 -6.844161748886108398e-01
3.089518845081329346e-02 3.779308795928955078e-01 -2.286727428436279297e-01
-2.312910743057727814e-02 2.364834249019622803e-01 -7.653092145919799805e-01
-3.423360735177993774e-02 2.748316526412963867e-01 -5.695676803588867188e-02
-3.474193066358566284e-02 2.890424430370330811e-01 -2.372235059738159180e-02
3.577776951715350151e-03 1.991621255874633789e-01 6.044614315032958984e-01
-2.305250056087970734e-02 2.588528990745544434e-01 6.550474166870117188e-01
9.460541419684886932e-03 2.039951682090759277e-01 -7.795115709304809570e-01
-2.544488757848739624e-02 3.983137607574462891e-01 -2.480067908763885498e-01
3.459808602929115295e-02 3.411156535148620605e-01 -1.047589704394340515e-01
-6.330218748189508915e-04 2.319615781307220459e-01 8.615640997886657715e-01
2.919323183596134186e-02 3.489111661911010742e-01 3.508667945861816406e-01
1.776528172194957733e-02 3.315660953521728516e-01 -1.232230901718139648e+00
2.783302403986454010e-02 3.707986176013946533e-01 2.539051771163940430e-01
1.696408540010452271e-02 2.237644195556640625e-01 6.135696768760681152e-01
3.267137706279754639e-02 3.213258385658264160e-01 -6.909114718437194824e-01
-3.421406447887420654e-02 2.891839742660522461e-01 8.281272649765014648e-02
2.819055877625942230e-02 2.276028692722320557e-01 -2.459841370582580566e-01
1.845282688736915588e-02 3.661640882492065430e-01 -1.139550805091857910e+00
2.719046548008918762e-02 2.281666994094848633e-01 -4.139887094497680664e-01
1.875056698918342590e-02 4.077778458595275879e-01 2.207676470279693604e-01
8.217518217861652374e-03 3.484989702701568604e-01 -1.332601308822631836e+00
1.571112126111984253e-02 3.089466094970703125e-01 8.660277724266052246e-01
3.150584176182746887e-02 2.640126347541809082e-01 -5.529768466949462891e-01
2.253738604485988617e-02 3.071789443492889404e-01 -1.121358633041381836e+00
2.499066106975078583e-02 3.169990479946136475e-01 -1.057120561599731445e+00
-1.480390876531600952e-02 1.850841343402862549e-01 -1.919216215610504150e-01
1.784699410200119019e-02 3.831489980220794678e-01 -1.067435503005981445e+00
2.095277234911918640e-02 2.742485702037811279e-01 7.443256974220275879e-01
3.074980340898036957e-02 2.409192174673080444e-01 -9.968456625938415527e-02
-2.602417767047882080e-02 3.286786079406738281e-01 5.641634464263916016e-01
3.536998480558395386e-02 2.960659861564636230e-01 -3.206816613674163818e-01
2.598742395639419556e-02 3.623092174530029297e-01 4.162287712097167969e-01
-3.291615098714828491e-02 3.470430970191955566e-01 -2.152726054191589355e-02
3.554027527570724487e-02 3.244676887989044189e-01 -1.679122447967529297e-01
-1.381161739118397236e-03 1.765475422143936157e-01 2.161663174629211426e-01
-2.948733046650886536e-02 2.578361928462982178e-01 -6.271929144859313965e-01
-1.034563966095447540e-02 1.797175705432891846e-01 1.187568902969360352e-01
-2.679563686251640320e-02 2.973493635654449463e-01 5.892599225044250488e-01
2.350725047290325165e-02 3.985592722892761230e-01 -7.218330502510070801e-01
1.507324259728193283e-02 4.236977398395538330e-01 5.869334936141967773e-02
-5.839326418936252594e-03 4.319925308227539062e-01 8.109998703002929688e-02
1.550534646958112717e-02 1.978492289781570435e-01 -5.327540636062622070e-01
-9.596550837159156799e-03 1.958600580692291260e-01 5.074793696403503418e-01
2.370911464095115662e-02 2.462800741195678711e-01 5.542572736740112305e-01
1.424935925751924515e-02 1.895804256200790405e-01 -3.846439421176910400e-01
2.892119437456130981e-02 3.767134547233581543e-01 1.077297627925872803e-01
-8.500863797962665558e-03 4.290093779563903809e-01 -7.122130393981933594e-01
-2.551527507603168488e-02 3.897457122802734375e-01 7.307568192481994629e-02
-2.825136855244636536e-02 2.266572713851928711e-01 4.001352190971374512e-02
8.602537214756011963e-03 4.151062965393066406e-01 3.636780977249145508e-01
3.384408727288246155e-02 3.539783358573913574e-01 -2.419661730527877808e-01
1.085785590112209320e-02 2.257936745882034302e-01 7.499465942382812500e-01
-2.627884596586227417e-02 3.938534259796142578e-01 -1.510149687528610229e-01
-1.552338432520627975e-02 4.126341342926025391e-01 -7.899042963981628418e-01
2.977683395147323608e-02 2.899159789085388184e-01 4.486457109451293945e-01
2.840369381010532379e-02 3.875304460525512695e-01 -4.741369187831878662e-02
2.124654501676559448e-02 3.426237404346466064e-01 6.740032434463500977e-01
-9.613197296857833862e-03 2.001511454582214355e-01 5.613126158714294434e-01
2.262013778090476990e-02 2.117390930652618408e-01 -4.420085847377777100e-01
1.640459336340427399e-02 2.399180531501770020e-01 7.313006520271301270e-01
1.908896863460540771e-02 4.093088507652282715e-01 1.819964647293090820e-01
-2.582664787769317627e-02 3.675376772880554199e-01 -8.299514055252075195e-01
3.395325317978858948e-02 3.189051449298858643e-01 1.505407392978668213e-01
3.080343827605247498e-02 2.527734041213989258e-01 1.863669157028198242e-01
1.724017970263957977e-02 4.209069907665252686e-01 2.575157582759857178e-02
-2.049618773162364960e-02 2.757892012596130371e-01 -1.076687574386596680e+00
-2.004267461597919464e-02 3.870135247707366943e-01 -9.218123555183410645e-01
1.247507985681295395e-02 2.337365150451660156e-01 7.720957994461059570e-01
-2.004762738943099976e-02 3.502119183540344238e-01 -1.115631580352783203e+00
-8.761479519307613373e-03 1.765707433223724365e-01 -5.722180008888244629e-03
-1.821742020547389984e-02 2.823108136653900146e-01 -1.149605274200439453e+00
-1.128069963306188583e-02 4.307384788990020752e-01 -5.680060386657714844e-02
3.500123322010040283e-02 2.838793992996215820e-01 -2.636324465274810791e-01
3.041688166558742523e-02 3.087827563285827637e-01 4.204973578453063965e-01
1.978004164993762970e-02 3.445495963096618652e-01 7.024698853492736816e-01
1.820083335041999817e-02 3.078859448432922363e-01 -1.220300436019897461e+00
-2.263536117970943451e-02 3.130771219730377197e-01 -1.091285586357116699e+00
-3.465362638235092163e-02 3.248048722743988037e-01 -3.144093453884124756e-01
-2.052509784698486328e-02 2.815761864185333252e-01 7.750686407089233398e-01
4.825527430512011051e-04 3.623070418834686279e-01 8.347434401512145996e-01
3.120362013578414917e-02 2.821843624114990234e-01 3.484389781951904297e-01
-3.446877747774124146e-02 2.783793807029724121e-01 -2.274018228054046631e-01
-1.234395150095224380e-02 1.900251954793930054e-01 -4.951529800891876221e-01
-3.296573832631111145e-02 3.282946050167083740e-01 -5.620211362838745117e-01
2.566476911306381226e-02 3.590159714221954346e-01 4.516151547431945801e-01
-1.613905839622020721e-02 3.164434134960174561e-01 -1.240611076354980469e+00
2.763358876109123230e-02 3.759383857250213623e-01 2.104112207889556885e-01
-1.416656747460365295e-02 3.258353769779205322e-01 -1.272456884384155273e+00
9.780120104551315308e-03 2.631835341453552246e-01 -1.221602678298950195e+00
1.775006391108036041e-02 2.168468832969665527e-01 5.287001132965087891e-01
6.718203425407409668e-03 4.229991734027862549e-01 -8.860777616500854492e-01
2.844566293060779572e-02 3.899317681789398193e-01 -1.327585130929946899e-01
-2.184619195759296417e-02 3.704962730407714844e-01 4.839211702346801758e-01
-1.171092409640550613e-02 2.205225527286529541e-01 -9.219385385513305664e-01
-1.512623671442270279e-02 4.121138751506805420e-01 2.332802712917327881e-01
2.036963775753974915e-02 2.443967163562774658e-01 -9.308841824531555176e-01
-3.367457538843154907e-02 3.411044180393218994e-01 -3.480725288391113281e-01
6.308339536190032959e-03 4.407407045364379883e-01 -2.934151887893676758e-01
-2.005470916628837585e-02 2.940600514411926270e-01 7.922238111495971680e-01
7.358630187809467316e-03 2.179377675056457520e-01 -9.550256133079528809e-01
3.505793586373329163e-02 3.167807757854461670e-01 -4.431919753551483154e-01
1.689137145876884460e-02 2.672060430049896240e-01 -1.138599872589111328e+00
1.788878254592418671e-02 3.777115345001220703e-01 5.634107589721679688e-01
2.927741222083568573e-02 2.791713476181030273e-01 -8.020856380462646484e-01
3.412116691470146179e-02 3.400276303291320801e-01 5.920588970184326172e-03
-3.084483323618769646e-03 4.406341910362243652e-01 -1.957227587699890137e-01
-3.285991027951240540e-02 3.077867031097412109e-01 2.429913282394409180e-01
2.452263794839382172e-02 2.622526884078979492e-01 -9.153032898902893066e-01
1.733607798814773560e-02 1.907128393650054932e-01 -1.202688813209533691e-01
-1.868090033531188965e-02 4.141491651535034180e-01 -6.049798727035522461e-01
2.345353923738002777e-02 2.322436571121215820e-01 -7.146344184875488281e-01
1.181528903543949127e-03 1.728620976209640503e-01 -2.930490672588348389e-02
2.562598511576652527e-02 4.034780561923980713e-01 -2.218483090400695801e-01
-3.120322711765766144e-02 2.431950569152832031e-01 -1.907550841569900513e-01
3.107819519937038422e-02 2.677830755710601807e-01 2.925391793251037598e-01
-3.201020509004592896e-02 3.119567930698394775e-01 3.028283715248107910e-01
-3.316818550229072571e-02 2.596032619476318359e-01 -1.445405185222625732e-01
2.466675080358982086e-02 3.734324574470520020e-01 -9.160407781600952148e-01
4.419889301061630249e-03 4.274845719337463379e-01 2.153515517711639404e-01
-1.937735453248023987e-02 1.956419944763183594e-01 1.077845394611358643e-01
3.248786926269531250e-02 2.615351676940917969e-01 9.765633940696716309e-02
-1.825296320021152496e-02 4.180478453636169434e-01 -5.208070278167724609e-01
2.571601420640945435e-02 2.375559210777282715e-01 3.978574275970458984e-01
-1.353378035128116608e-02 3.741421699523925781e-01 -1.166118383407592773e+00
-1.405350514687597752e-03 2.077942490577697754e-01 -8.900315165519714355e-01
1.811498776078224182e-02 1.985649466514587402e-01 2.366391420364379883e-01
3.536207973957061768e-02 2.941418588161468506e-01 -8.116076886653900146e-02
1.357843168079853058e-02 1.837546825408935547e-01 -1.803077757358551025e-02
3.379871323704719543e-02 2.700974941253662109e-01 -9.056776762008666992e-04
-6.177673116326332092e-03 3.814638853073120117e-01 6.997940540313720703e-01
5.079411901533603668e-03 4.045248031616210938e-01 5.198593139648437500e-01
3.863838966935873032e-03 4.416591525077819824e-01 -3.900995254516601562e-01
-3.087960556149482727e-02 3.668715059757232666e-01 -7.514207065105438232e-02
3.389666229486465454e-02 3.089006245136260986e-01 1.737513840198516846e-01
3.515525907278060913e-02 3.039721250534057617e-01 -4.142373204231262207e-01
1.839047111570835114e-02 2.497975230216979980e-01 -1.017601251602172852e+00
-2.015004493296146393e-02 3.773429989814758301e-01 -9.902548193931579590e-01
-3.349808976054191589e-02 3.059043884277343750e-01 1.856534183025360107e-01
3.041747026145458221e-02 3.504471778869628906e-01 -7.586365342140197754e-01
-2.783672185614705086e-03 1.965931355953216553e-01 5.848810672760009766e-01
2.907192893326282501e-02 3.386437594890594482e-01 -8.768100738525390625e-01
2.473739720880985260e-02 3.612290322780609131e-01 -9.804481267929077148e-01
2.233308926224708557e-02 3.996495604515075684e-01 -7.693283557891845703e-01
3.505911678075790405e-02 3.004993498325347900e-01 2.225874364376068115e-02
-2.249135076999664307e-02 3.554339706897735596e-01 -1.027139782905578613e+00
6.131272530183196068e-04 3.074816167354583740e-01 9.904621243476867676e-01
1.824364252388477325e-02 1.953017711639404297e-01 -3.050950169563293457e-01
3.548487275838851929e-02 3.067661821842193604e-01 -5.671355128288269043e-02
3.223003819584846497e-02 2.546372115612030029e-01 1.867260038852691650e-02
-3.981969319283962250e-03 4.404747486114501953e-01 -2.208419293165206909e-01
3.461753576993942261e-02 3.034527897834777832e-01 -4.942242801189422607e-01
2.281201444566249847e-02 2.109971940517425537e-01 1.961698532104492188e-01
-9.835407137870788574e-03 2.007121145725250244e-01 -7.334415912628173828e-01
1.903562992811203003e-02 3.861396014690399170e-01 4.656614065170288086e-01
3.197384998202323914e-02 3.673486113548278809e-01 -4.361146688461303711e-01
1.111661829054355621e-02 4.339283108711242676e-01 -5.523604154586791992e-01
1.277615129947662354e-02 1.896967589855194092e-01 -4.547132253646850586e-01
-2.493210509419441223e-02 3.014668226242065430e-01 6.547242403030395508e-01
1.606426574289798737e-02 1.936269104480743408e-01 -4.059512019157409668e-01
3.435807069763541222e-03 4.378805160522460938e-01 -3.179442882537841797e-02
-1.925990916788578033e-02 4.163120687007904053e-01 -4.849624633789062500e-01
2.823349088430404663e-02 2.300897389650344849e-01 -3.342973291873931885e-01
-3.187352791428565979e-02 3.599691689014434814e-01 -9.604240208864212036e-02
3.227782994508743286e-02 3.683243691921234131e-01 -2.797929644584655762e-01
3.076003864407539368e-02 2.915810644626617432e-01 3.967602252960205078e-01
-2.051292359828948975e-02 4.089060723781585693e-01 3.407695889472961426e-02
1.820133998990058899e-02 4.041902124881744385e-01 -8.792035579681396484e-01
-2.303907275199890137e-02 3.126618862152099609e-01 7.008432745933532715e-01
-2.906782552599906921e-02 3.261913657188415527e-01 -8.402823805809020996e-01
3.566507622599601746e-02 3.091446757316589355e-01 -2.986256182193756104e-01
9.071697480976581573e-03 2.823899090290069580e-01 9.525550007820129395e-01
-2.380223572254180908e-02 3.624335527420043945e-01 -9.495880603790283203e-01
2.178265713155269623e-02 2.787122428417205811e-01 -1.074323892593383789e+00
2.022747881710529327e-02 3.018601536750793457e-01 7.824548482894897461e-01
-1.002690568566322327e-02 1.812344491481781006e-01 -3.295445442199707031e-01
-2.125720679759979248e-02 2.124509215354919434e-01 -5.544697046279907227e-01
-2.465683594346046448e-02 2.781780064105987549e-01 6.524096727371215820e-01
1.262161042541265488e-02 3.200425505638122559e-01 8.954569697380065918e-01
2.015861682593822479e-02 3.664025664329528809e-01 5.839155912399291992e-01
-1.794886589050292969e-02 4.214640557765960693e-01 -3.639330863952636719e-01
2.539615146815776825e-02 2.142478525638580322e-01 -1.097252145409584045e-01
1.449677161872386932e-02 4.282045364379882812e-01 -4.499730467796325684e-02
2.454686351120471954e-02 2.938009500503540039e-01 -1.040039300918579102e+00
-1.465529482811689377e-02 4.110324382781982422e-01 2.657634913921356201e-01
-2.457848750054836273e-02 2.276647686958312988e-01 -6.025850772857666016e-01
-1.722196117043495178e-02 4.158463180065155029e-01 7.076522707939147949e-02
-3.743932815268635750e-03 2.284732908010482788e-01 -1.064984798431396484e+00
-3.202823549509048462e-02 3.444158136844635010e-01 1.303004324436187744e-01
-2.876535244286060333e-02 2.277641147375106812e-01 -1.429977566003799438e-01
-2.473923936486244202e-02 2.100704163312911987e-01 -3.087723255157470703e-02
7.087999954819679260e-03 1.811981499195098877e-01 2.584849894046783447e-01
3.285581991076469421e-02 3.147999048233032227e-01 2.567827105522155762e-01
-1.888397708535194397e-02 2.277127355337142944e-01 -8.291105628013610840e-01
3.950270824134349823e-03 4.416699111461639404e-01 -2.658991217613220215e-01
-1.179597713053226471e-02 3.852157592773437500e-01 6.081120967864990234e-01
-1.757167652249336243e-02 4.224531054496765137e-01 -2.494569569826126099e-01
-5.688281729817390442e-03 2.947447299957275391e-01 -1.339215278625488281e+00
2.274692803621292114e-02 4.037676155567169189e-01 -6.827977895736694336e-01
3.142803534865379333e-02 3.615821003913879395e-01 -5.975208878517150879e-01
-1.592923328280448914e-02 2.958697974681854248e-01 -1.224162101745605469e+00
-3.294815868139266968e-02 2.698937356472015381e-01 -4.265809655189514160e-01
-3.382226079702377319e-02 2.697397768497467041e-01 -2.620745897293090820e-01
-2.351332269608974457e-02 3.566579222679138184e-01 -9.873759150505065918e-01
1.873580925166606903e-02 2.785467505455017090e-01 8.039332032203674316e-01
1.098608784377574921e-02 2.470429241657257080e-01 8.541906476020812988e-01
-8.590643294155597687e-03 3.717114925384521484e-01 7.416982054710388184e-01
-1.383688580244779587e-02 1.850124299526214600e-01 1.420840919017791748e-01
1.421210449188947678e-02 2.252945899963378906e-01 -9.228938817977905273e-01
3.474119305610656738e-02 3.330456614494323730e-01 -4.299271106719970703e-01
2.529580146074295044e-02 2.704038619995117188e-01 6.009164452552795410e-01
2.747898921370506287e-02 3.586157262325286865e-01 -8.788779973983764648e-01
-3.181634098291397095e-02 2.758142352104187012e-01 2.865617871284484863e-01
3.238755092024803162e-02 3.103557229042053223e-01 2.976631522178649902e-01
-3.194788098335266113e-02 3.578103184700012207e-01 -4.068278074264526367e-01
-2.276147715747356415e-02 3.975732624530792236e-01 -6.716774702072143555e-01
-2.833072468638420105e-02 3.447022438049316406e-01 -8.277114629745483398e-01
-1.654618419706821442e-02 1.952213197946548462e-01 2.940375208854675293e-01
3.249751403927803040e-02 2.547740638256072998e-01 -2.576167285442352295e-01
-3.141883015632629395e-02 3.277620971202850342e-01 -6.952304840087890625e-01
2.593219466507434845e-02 3.280228078365325928e-01 5.797364711761474609e-01
-2.817982062697410583e-02 3.382788598537445068e-01 -8.577889204025268555e-01
-3.224782645702362061e-02 3.461444973945617676e-01 8.791285753250122070e-02
-1.580283045768737793e-02 3.661254048347473145e-01 6.702846884727478027e-01
1.676410995423793793e-02 3.867185711860656738e-01 5.179169178009033203e-01
-3.110864572227001190e-02 3.461468517780303955e-01 -6.380224227905273438e-01
5.375201813876628876e-03 4.399886131286621094e-01 -1.613830626010894775e-01
-2.248477190732955933e-02 2.034636437892913818e-01 5.720946192741394043e-02
-1.701111346483230591e-02 1.889480948448181152e-01 -1.721414774656295776e-01
3.301806002855300903e-02 3.616670072078704834e-01 -3.194208145141601562e-01
1.978643238544464111e-02 4.207992553710937500e-01 -4.302582442760467529e-01
-3.435341641306877136e-02 2.797774076461791992e-01 -2.949276566505432129e-01
-2.130312100052833557e-02 2.148707658052444458e-01 4.017477631568908691e-01
-3.069076128304004669e-02 2.601500153541564941e-01 -5.592335462570190430e-01
2.061250619590282440e-02 2.220730781555175781e-01 4.811084866523742676e-01
1.462954375892877579e-02 2.093924283981323242e-01 -7.436586618423461914e-01
-3.052636422216892242e-02 3.657509386539459229e-01 -4.878404140472412109e-01
2.626986429095268250e-02 2.541917264461517334e-01 -7.922334074974060059e-01
3.339038789272308350e-02 2.849923670291900635e-01 -5.468965768814086914e-01
1.383713632822036743e-02 2.046345770359039307e-01 5.059456825256347656e-01
-2.473148703575134277e-02 3.775356113910675049e-01 3.006287515163421631e-01
-2.439810708165168762e-02 2.245442867279052734e-01 3.647287487983703613e-01
3.509052097797393799e-02 3.364311456680297852e-01 -2.092198729515075684e-01
-3.401711583137512207e-02 3.338240385055541992e-01 -3.656850755214691162e-02
-1.643856801092624664e-02 4.118625521659851074e-01 -7.667294740676879883e-01
-2.434136159718036652e-02 4.020473957061767578e-01 -3.714063763618469238e-01
-3.131603822112083435e-02 2.557353675365447998e-01 1.927885413169860840e-01
3.124077059328556061e-02 3.721836507320404053e-01 -7.636450976133346558e-02
3.052501194179058075e-02 3.471612334251403809e-01 2.836942672729492188e-01
2.617841586470603943e-02 2.347614318132400513e-01 -6.033555269241333008e-01
2.371184900403022766e-02 3.838923573493957520e-01 -8.765995502471923828e-01
1.720622368156909943e-02 2.287887632846832275e-01 -8.881397247314453125e-01
-2.516352757811546326e-02 3.277697861194610596e-01 5.984356999397277832e-01
2.605387009680271149e-03 1.897078454494476318e-01 4.889148473739624023e-01
-2.566457167267799377e-02 3.535750508308410645e-01 4.600566625595092773e-01
1.348586054518818855e-03 2.660165429115295410e-01 -1.277212858200073242e+00
1.347197964787483215e-02 2.984991073608398438e-01 9.064076542854309082e-01
-1.930413395166397095e-02 2.166882902383804321e-01 5.035862922668457031e-01
-2.023365721106529236e-02 2.660064399242401123e-01 7.555006146430969238e-01
1.790850888937711716e-03 4.362888038158416748e-01 -6.671873927116394043e-01
1.635026303119957447e-03 2.187074869871139526e-01 -9.944189190864562988e-01
3.321636468172073364e-02 3.125915527343750000e-01 2.312955558300018311e-01
-3.007582575082778931e-02 3.500996530055999756e-01 -6.930183768272399902e-01
-3.500924259424209595e-02 2.937705814838409424e-01 -2.559834420680999756e-01
-3.205407410860061646e-02 3.028859198093414307e-01 -6.651557087898254395e-01
2.687102369964122772e-02 2.230928689241409302e-01 -3.129980564117431641e-01
2.946442924439907074e-02 2.348264604806900024e-01 1.041240990161895752e-02
-2.168902941048145294e-02 2.329519689083099365e-01 5.632969737052917480e-01
-1.947126165032386780e-02 3.421204388141632080e-01 -1.149787425994873047e+00
-1.420741807669401169e-02 3.397731184959411621e-01 -1.258450269699096680e+00
-3.494257479906082153e-02 2.890711128711700439e-01 -1.020521745085716248e-01
2.978562563657760620e-02 3.721552491188049316e-01 -6.309182643890380859e-01
2.278093062341213226e-02 3.098178505897521973e-01 7.122144699096679688e-01
-2.191810309886932373e-02 3.397065103054046631e-01 6.578449010848999023e-01
-3.070193715393543243e-02 3.476967811584472656e-01 -6.610569953918457031e-01
-1.525138784199953079e-02 3.718231320381164551e-01 6.450044512748718262e-01
2.747086063027381897e-02 3.791483938694000244e-01 -7.259713411331176758e-01
-2.713153883814811707e-02 3.467245399951934814e-01 -8.794913887977600098e-01
3.444672375917434692e-02 2.803733944892883301e-01 -3.628749251365661621e-01
2.807684987783432007e-02 3.500650227069854736e-01 4.007668495178222656e-01
-1.143070403486490250e-02 1.892410963773727417e-01 3.599745035171508789e-01
-1.823206245899200439e-02 3.325203061103820801e-01 7.720854282379150391e-01
-3.238169476389884949e-02 3.494511544704437256e-01 2.790910005569458008e-02
-1.942278817296028137e-02 3.183791935443878174e-01 -1.174361348152160645e+00
2.825664728879928589e-02 3.903813958168029785e-01 -4.524596333503723145e-01
3.276448324322700500e-02 3.418113887310028076e-01 1.493130624294281006e-01
-3.482034802436828613e-02 3.211156725883483887e-01 -8.778139948844909668e-02
3.401216864585876465e-02 3.504074513912200928e-01 -1.428326368331909180e-01
-2.302930504083633423e-02 2.388436347246170044e-01 -7.901749014854431152e-01
-3.050209768116474152e-02 3.534732460975646973e-01 1.822316944599151611e-01
-3.498771414160728455e-02 2.894187569618225098e-01 -1.323664188385009766e-01
-3.101142682135105133e-02 2.445678710937500000e-01 5.719719827175140381e-02
-2.596895396709442139e-02 2.173113822937011719e-01 9.746903181076049805e-02
3.187876567244529724e-02 3.671817183494567871e-01 -4.577986001968383789e-01
3.117910958826541901e-02 3.705181181430816650e-01 -2.801670134067535400e-02
