-3.131612390279769897e-02 -3.649130463600158691e-02 1.928241252899169922e-01
3.629089295864105225e-01 -2.220061570405960083e-01 -5.988635867834091187e-02
-4.908297955989837646e-02 -3.194290399551391602e-02 1.731155663728713989e-01
-8.100055158138275146e-02 -2.095941901206970215e-01 -3.199555277824401855e-01
1.279787570238113403e-01 -3.615909814834594727e-02 1.339652687311172485e-01
-8.261619508266448975e-02 -2.113755941390991211e-01 3.348717689514160156e-01
2.326091527938842773e-01 -3.932929039001464844e-02 -6.637702137231826782e-02
2.169518917798995972e-01 -2.578448653221130371e-01 1.735152453184127808e-01
-2.745772004127502441e-01 -1.342271417379379272e-01 2.397394478321075439e-01
2.975188493728637695e-01 -2.361682653427124023e-01 1.278759539127349854e-01
3.736248612403869629e-01 -1.184312552213668823e-01 -2.378515154123306274e-02
-1.939803510904312134e-01 -2.628426551818847656e-01 9.305761009454727173e-02
1.908598393201828003e-01 -5.222645401954650879e-02 1.397257298231124878e-01
1.954896003007888794e-02 -2.782470583915710449e-01 2.029739916324615479e-01
1.531885862350463867e-01 -1.574687361717224121e-01 -3.864030838012695312e-01
4.228523373603820801e-02 -1.059057638049125671e-01 3.301544189453125000e-01
7.434169203042984009e-02 -2.527318000793457031e-01 -2.817193269729614258e-01
-1.003740280866622925e-01 -1.322828680276870728e-01 -3.537066280841827393e-01
-3.113185763359069824e-01 -1.218813061714172363e-01 1.668722182512283325e-01
2.896422147750854492e-01 -2.462755590677261353e-01 -1.799061745405197144e-01
2.440350204706192017e-01 -1.856901198625564575e-01 2.577096223831176758e-01
8.457621932029724121e-02 -1.389923691749572754e-02 -1.050087213516235352e-01
2.078598886728286743e-01 -2.745191156864166260e-01 -1.537604779005050659e-01
-9.151466190814971924e-02 -2.731868624687194824e-01 1.871124207973480225e-01
1.350723505020141602e-01 -1.133731305599212646e-01 3.056873977184295654e-01
2.743662297725677490e-01 -5.360122025012969971e-02 -8.115122467279434204e-02
3.796751797199249268e-01 -1.885712742805480957e-01 -1.413577347993850708e-01
2.472760677337646484e-01 -2.703117132186889648e-01 7.089682668447494507e-02
3.111506402492523193e-01 -2.532997727394104004e-01 -6.554343551397323608e-02
1.107180863618850708e-01 -2.902140319347381592e-01 -1.240927651524543762e-01
-1.719755977392196655e-01 -2.716798484325408936e-01 2.442569285631179810e-02
1.226220428943634033e-01 -2.040607333183288574e-01 3.233557939529418945e-01
2.967531383037567139e-01 -1.887167245149612427e-01 2.001889348030090332e-01
1.081457063555717468e-01 -1.550874114036560059e-02 -7.690605241805315018e-03
-1.229996830224990845e-01 -2.793624401092529297e-01 1.097089946269989014e-01
8.882321417331695557e-02 -1.570127904415130615e-02 -1.248531490564346313e-01
-3.495315462350845337e-02 -4.965015500783920288e-02 2.354036271572113037e-01
-7.966574281454086304e-02 -1.974575221538543701e-02 -1.434470266103744507e-01
-4.445889592170715332e-02 -2.701042294502258301e-01 -1.958836615085601807e-01
3.880065381526947021e-01 -1.871857196092605591e-01 -2.218207344412803650e-02
-2.778259813785552979e-01 -8.438441157341003418e-02 -1.295136660337448120e-01
-2.655226290225982666e-01 -9.041967242956161499e-02 1.947664767503738403e-01
7.367814332246780396e-02 -3.975115716457366943e-02 1.828501671552658081e-01
1.424002498388290405e-01 -2.914001941680908203e-01 -9.247627854347229004e-02
1.405678689479827881e-01 -2.596623003482818604e-01 2.281864583492279053e-01
2.910636179149150848e-02 -1.807459145784378052e-01 3.603857159614562988e-01
2.078259289264678955e-01 -2.830458581447601318e-01 4.696281254291534424e-02
2.234321646392345428e-02 -4.832001030445098877e-02 -2.919901013374328613e-01
-1.822920590639114380e-01 -2.620269656181335449e-01 1.341011077165603638e-01
1.293612420558929443e-01 -2.390711456537246704e-01 -3.081661462783813477e-01
-3.259859383106231689e-01 -1.602370738983154297e-01 -7.390973716974258423e-02
2.899251580238342285e-01 -1.013955324888229370e-01 1.530138701200485229e-01
-3.773444890975952148e-02 -2.303408384323120117e-01 3.187266290187835693e-01
2.132942974567413330e-01 -2.364406287670135498e-01 2.293651551008224487e-01
-4.990633577108383179e-02 -5.467355996370315552e-02 2.480902373790740967e-01
1.569212526082992554e-01 -2.778953313827514648e-01 -1.770939230918884277e-01
3.057975471019744873e-01 -2.482325583696365356e-01 6.221769750118255615e-02
2.314810156822204590e-01 -2.548378109931945801e-01 -2.190891802310943604e-01
1.716216802597045898e-01 -2.902252674102783203e-01 -6.322543323040008545e-02
2.229101210832595825e-01 -2.242418527603149414e-01 2.412765026092529297e-01
-7.765159010887145996e-02 -2.877981662750244141e-01 9.909765422344207764e-02
4.026806354522705078e-02 -2.880117893218994141e-01 1.550161689519882202e-01
-1.308028101921081543e-01 -6.979948282241821289e-02 2.635404765605926514e-01
1.749085932970046997e-01 -4.092849045991897583e-02 -2.176114171743392944e-01
1.600938141345977783e-01 -1.808186918497085571e-01 3.178623616695404053e-01
1.615726798772811890e-01 -1.404960453510284424e-01 -3.842104077339172363e-01
2.519928216934204102e-01 -1.954655200242996216e-01 2.451280355453491211e-01
-1.157961189746856689e-01 -2.697295546531677246e-01 1.836520731449127197e-01
-1.777681261301040649e-01 -4.162951558828353882e-02 -1.552743911743164062e-01
8.860676735639572144e-02 -2.721907198429107666e-01 -2.213563174009323120e-01
-1.402256190776824951e-01 -1.037357896566390991e-01 3.146042525768280029e-01
-2.503355443477630615e-01 -2.368317544460296631e-01 1.264533549547195435e-01
2.259558439254760742e-01 -2.336348593235015869e-01 -2.811732292175292969e-01
1.130553781986236572e-01 -4.111834615468978882e-02 1.659874469041824341e-01
-1.687883734703063965e-01 -3.797871619462966919e-02 1.335701048374176025e-01
-9.395072236657142639e-03 -2.636307775974273682e-01 -2.354465723037719727e-01
-3.374024927616119385e-01 -1.535475105047225952e-01 9.738958626985549927e-02
-9.873372316360473633e-02 -6.083673983812332153e-02 -2.822975516319274902e-01
-3.117351047694683075e-02 -2.961210012435913086e-01 3.876998275518417358e-02
4.571358859539031982e-02 -2.688046693801879883e-01 -2.321107089519500732e-01
1.829752922058105469e-01 -1.600047498941421509e-01 -3.771902918815612793e-01
-1.723414361476898193e-01 -4.577610641717910767e-02 1.668572723865509033e-01
-2.559067010879516602e-01 -7.409818470478057861e-02 -1.462618559598922729e-01
2.645742893218994141e-01 -2.712513208389282227e-01 -4.366895183920860291e-02
-1.938218921422958374e-01 -2.547703981399536133e-01 -9.404857456684112549e-02
3.235487937927246094e-01 -2.473672628402709961e-01 -1.364090107381343842e-02
3.788245618343353271e-01 -1.238875016570091248e-01 -1.026133894920349121e-01
3.517528474330902100e-01 -2.285939455032348633e-01 -9.253668040037155151e-02
1.880456656217575073e-01 -1.562467217445373535e-01 3.024234771728515625e-01
5.110915750265121460e-02 -5.790828168392181396e-02 2.457939982414245605e-01
1.399550866335630417e-02 -5.808085203170776367e-02 2.545097470283508301e-01
2.849514968693256378e-02 -4.949996620416641235e-02 2.291402071714401245e-01
-3.221573829650878906e-01 -9.954103827476501465e-02 6.919125467538833618e-02
3.526274263858795166e-01 -9.588901698589324951e-02 -8.388625830411911011e-02
-3.398896753787994385e-02 -1.820703744888305664e-01 -3.673523664474487305e-01
-1.100087463855743408e-01 -1.197417080402374268e-01 -3.448261320590972900e-01
-1.089527755975723267e-01 -3.146051615476608276e-02 1.502818912267684937e-01
-2.342399507761001587e-01 -1.986898034811019897e-01 2.600372731685638428e-01
-2.500886023044586182e-01 -1.898903548717498779e-01 -1.966099143028259277e-01
-2.980830371379852295e-01 -1.983257234096527100e-01 -8.244510740041732788e-02
-1.820426434278488159e-03 -2.984583973884582520e-01 3.853078931570053101e-03
1.126896124333143234e-02 -1.941277384757995605e-01 3.562595546245574951e-01
-1.488443613052368164e-01 -2.775398492813110352e-01 1.479801163077354431e-02
1.883289404213428497e-02 -7.492268085479736328e-02 2.896109819412231445e-01
-2.204863876104354858e-01 -4.023995995521545410e-02 3.954335302114486694e-02
-2.328257411718368530e-01 -4.354897886514663696e-02 1.842643320560455322e-02
3.423777818679809570e-01 -1.538512855768203735e-01 -2.503355443477630615e-01
1.798194348812103271e-01 -2.759972214698791504e-01 1.406224220991134644e-01
2.230189889669418335e-01 -6.600149720907211304e-02 -2.639021873474121094e-01
6.618075072765350342e-03 -9.969487786293029785e-03 -9.298545867204666138e-02
1.143639758229255676e-01 -1.564384996891021729e-02 -7.446821779012680054e-02
6.817545741796493530e-02 -2.924096584320068359e-01 1.209119707345962524e-01
-2.817859649658203125e-01 -2.228344678878784180e-01 -2.322819270193576813e-02
1.353744566440582275e-01 -2.959664463996887207e-01 2.036154270172119141e-03
-1.347090601921081543e-01 -2.324080467224121094e-02 -1.033853292465209961e-01
-1.041846722364425659e-01 -1.722275614738464355e-01 3.547323048114776611e-01
-2.275089472532272339e-01 -1.069416776299476624e-01 -2.430108785629272461e-01
1.286391913890838623e-01 -2.771105170249938965e-01 -1.933824867010116577e-01
1.538688987493515015e-01 -7.552346587181091309e-02 -3.286663591861724854e-01
-2.816180586814880371e-01 -1.811297386884689331e-01 2.191909402608871460e-01
-3.984189033508300781e-02 -2.066020518541336060e-01 -3.416905701160430908e-01
-1.757338494062423706e-01 -2.677610814571380615e-01 -3.740868717432022095e-02
-7.950526475906372070e-02 -6.861504167318344116e-02 -3.069580197334289551e-01
3.685367107391357422e-02 -1.033683121204376221e-02 9.459747001528739929e-03
1.570881754159927368e-01 -1.276091188192367554e-01 3.068868815898895264e-01
1.393402516841888428e-01 -1.942239701747894287e-02 -8.647218346595764160e-02
-2.928750216960906982e-01 -9.630368649959564209e-02 -1.233785301446914673e-01
2.577686905860900879e-01 -2.546610236167907715e-01 -1.918411105871200562e-01
-1.036753356456756592e-01 -2.801224589347839355e-01 -8.703898638486862183e-02
2.513915896415710449e-01 -2.223227322101593018e-01 2.173170894384384155e-01
-2.071897983551025391e-01 -1.466309130191802979e-01 -2.780992090702056885e-01
-3.047469444572925568e-02 -9.376250207424163818e-02 -3.584562838077545166e-01
-9.783092141151428223e-02 -1.875722408294677734e-02 -1.168340295553207397e-01
1.270927041769027710e-01 -5.662709474563598633e-02 2.080247849225997925e-01
-1.120226979255676270e-01 -4.308575391769409180e-02 1.973646134138107300e-01
2.411857843399047852e-01 -1.107626482844352722e-01 2.271056175231933594e-01
3.168669641017913818e-01 -7.298554480075836182e-02 -8.577781170606613159e-02
-1.219813078641891479e-01 -2.280699014663696289e-01 2.983617782592773438e-01
1.851242035627365112e-01 -3.950317203998565674e-02 -1.996129304170608521e-01
3.844400942325592041e-01 -1.953884959220886230e-01 -8.773402124643325806e-02
2.686937749385833740e-01 -2.700923383235931396e-01 -2.127812057733535767e-02
3.110641539096832275e-01 -8.357726782560348511e-02 6.065847724676132202e-02
-2.688840329647064209e-01 -5.855084210634231567e-02 9.897680953145027161e-03
-2.946002595126628876e-02 -1.992134600877761841e-01 3.534318506717681885e-01
-2.429507672786712646e-03 -2.977264523506164551e-01 5.073701590299606323e-02
2.875801920890808105e-01 -1.067339777946472168e-01 -2.838333547115325928e-01
1.929247528314590454e-01 -3.702791035175323486e-02 5.910971015691757202e-02
3.100759387016296387e-01 -2.533675432205200195e-01 -4.997998476028442383e-04
-3.362456336617469788e-03 -2.453808486461639404e-02 -2.060198634862899780e-01
-1.167717427015304565e-01 -2.830645740032196045e-01 7.736981660127639771e-02
3.217618763446807861e-01 -8.596871793270111084e-02 4.108432680368423462e-02
-5.336418002843856812e-02 -9.914875030517578125e-03 -3.195714205503463745e-02
6.103118509054183960e-02 -1.511000990867614746e-01 -3.964397013187408447e-01
-8.506555110216140747e-02 -6.696678698062896729e-02 2.717455327510833740e-01
3.334631323814392090e-01 -8.355331420898437500e-02 -1.052987799048423767e-01
-2.217468470335006714e-01 -1.677899509668350220e-01 -2.548116743564605713e-01
-2.067542076110839844e-01 -9.854622185230255127e-02 2.710613310337066650e-01
1.386447530239820480e-02 -2.311830222606658936e-01 -3.204483091831207275e-01
4.873065650463104248e-02 -1.308502256870269775e-02 -1.243325695395469666e-01
2.086413949728012085e-01 -8.189938962459564209e-02 2.076202780008316040e-01
-1.578471958637237549e-01 -2.443335801362991333e-01 -1.907333880662918091e-01
3.306731581687927246e-01 -8.069448918104171753e-02 -5.781508982181549072e-02
2.936043143272399902e-01 -6.577331572771072388e-02 9.607927873730659485e-03
2.762991487979888916e-01 -5.515353381633758545e-02 -1.028764173388481140e-01
-3.267195075750350952e-02 -1.481705904006958008e-02 7.511261105537414551e-02
-7.294480502605438232e-02 -2.568081617355346680e-01 2.558469176292419434e-01
2.061101049184799194e-02 -2.414988279342651367e-01 -3.016924560070037842e-01
9.376575052738189697e-02 -2.419575154781341553e-01 -3.063603341579437256e-01
1.105254068970680237e-01 -1.702360808849334717e-02 -1.135751083493232727e-01
-1.010873913764953613e-01 -1.051251590251922607e-01 3.283193409442901611e-01
-1.825877465307712555e-02 -2.727148532867431641e-01 -1.991705447435379028e-01
-2.194013744592666626e-01 -5.720579624176025391e-02 1.591431647539138794e-01
-1.682118326425552368e-01 -2.558587193489074707e-01 -1.339295655488967896e-01
3.736309111118316650e-01 -1.413459479808807373e-01 4.684428870677947998e-02
-2.747470140457153320e-01 -8.792796730995178223e-02 1.737284511327743530e-01
-2.164766788482666016e-01 -2.450101077556610107e-01 -9.892561286687850952e-02
3.127428293228149414e-01 -1.533795595169067383e-01 -2.903194427490234375e-01
2.398760765790939331e-01 -1.339515447616577148e-01 2.525499463081359863e-01
1.459927111864089966e-01 -8.485931158065795898e-02 2.603568732738494873e-01
4.984192550182342529e-02 -2.846847474575042725e-01 1.719518601894378662e-01
-9.946635365486145020e-02 -2.142127156257629395e-01 -3.031822443008422852e-01
-1.734327375888824463e-01 -2.708096504211425781e-01 2.848116680979728699e-03
4.753319174051284790e-02 -2.751144170761108398e-01 -2.088376730680465698e-01
-4.944001883268356323e-02 -2.862974703311920166e-01 -1.071169376373291016e-01
-1.424117833375930786e-01 -2.453474849462509155e-01 2.495932877063751221e-01
1.298573613166809082e-01 -2.262966036796569824e-01 -3.316986858844757080e-01
2.010042965412139893e-01 -2.027244418859481812e-01 -3.430256247520446777e-01
-1.566091366112232208e-02 -2.596758604049682617e-01 2.617391049861907959e-01
3.491913974285125732e-01 -2.321984320878982544e-01 -2.357872202992439270e-02
1.649081707000732422e-03 -2.966004014015197754e-01 7.574541866779327393e-02
-1.039556264877319336e-01 -2.572425603866577148e-01 -2.006729692220687866e-01
6.254477053880691528e-02 -2.453452348709106445e-02 -2.039753496646881104e-01
-3.140599131584167480e-01 -2.010937929153442383e-01 6.277149170637130737e-02
-2.556188590824604034e-02 -2.220728397369384766e-01 -3.249228298664093018e-01
-2.993023693561553955e-01 -2.048439979553222656e-01 -5.350855737924575806e-02
1.361171007156372070e-01 -2.957065701484680176e-01 -2.680614590644836426e-02
3.378263711929321289e-01 -1.041542291641235352e-01 6.640309095382690430e-02
-2.222556173801422119e-01 -3.969205170869827271e-02 -1.416528597474098206e-03
5.885802954435348511e-02 -1.020504534244537354e-02 -5.315837264060974121e-02
-2.834127545356750488e-01 -6.635854393243789673e-02 1.903415843844413757e-02
-9.433693438768386841e-02 -2.310274690389633179e-01 3.045573532581329346e-01
-1.117783784866333008e-01 -9.116803109645843506e-02 3.079745769500732422e-01
-2.583901584148406982e-01 -1.501577496528625488e-01 2.637106776237487793e-01
3.815463483333587646e-01 -1.355671882629394531e-01 -1.334649920463562012e-01
-3.328041136264801025e-01 -1.448651105165481567e-01 -5.810219794511795044e-02
3.920589387416839600e-01 -1.622537076473236084e-01 -2.024209313094615936e-02
3.595852851867675781e-01 -2.156599760055541992e-01 -1.345533430576324463e-01
-3.256256282329559326e-01 -1.182244718074798584e-01 -6.692597270011901855e-02
2.283903360366821289e-01 -7.157081365585327148e-02 1.610901057720184326e-01
2.333025634288787842e-01 -4.064504057168960571e-02 -1.048650071024894714e-01
-8.452681452035903931e-02 -2.766989469528198242e-01 -1.339425444602966309e-01
2.959227263927459717e-01 -2.539201676845550537e-01 -1.266696304082870483e-01
1.962617635726928711e-01 -2.153392285108566284e-01 -3.289958536624908447e-01
1.931810379028320312e-01 -2.877341508865356445e-01 1.524553820490837097e-02
1.656704097986221313e-01 -2.923724055290222168e-01 -2.687993831932544708e-02
8.687839657068252563e-02 -5.546879023313522339e-02 -3.063432276248931885e-01
-2.352104932069778442e-01 -2.082619220018386841e-01 -1.858205944299697876e-01
1.620295047760009766e-01 -4.867416620254516602e-02 -2.583792805671691895e-01
-3.793034702539443970e-02 -2.421761602163314819e-01 2.984831631183624268e-01
-2.700492180883884430e-02 -1.191918551921844482e-02 -1.101311743259429932e-01
-1.240535825490951538e-01 -2.246231436729431152e-01 -2.691847383975982666e-01
-2.564524710178375244e-01 -9.346519410610198975e-02 2.137098312377929688e-01
8.995150029659271240e-02 -3.116455674171447754e-02 1.384921967983245850e-01
-1.061680316925048828e-01 -2.715898156166076660e-01 -1.383393853902816772e-01
-2.358645349740982056e-01 -4.894301295280456543e-02 -7.550614327192306519e-02
6.329566240310668945e-02 -2.897778451442718506e-01 -1.355176120996475220e-01
2.654509544372558594e-01 -2.326205819845199585e-01 -2.522400617599487305e-01
-1.525341868400573730e-01 -2.350359857082366943e-01 -2.223960012197494507e-01
-3.071481287479400635e-01 -1.513524651527404785e-01 1.919631510972976685e-01
-3.219977617263793945e-01 -9.692132472991943359e-02 -2.752093598246574402e-03
-1.819533705711364746e-01 -1.350068002939224243e-01 -3.007382750511169434e-01
3.520024716854095459e-01 -9.837974607944488525e-02 -1.222750842571258545e-01
2.275339663028717041e-01 -4.095071554183959961e-02 -1.324068605899810791e-01
1.099935993552207947e-01 -1.500788331031799316e-02 -3.032564744353294373e-02
3.671863973140716553e-01 -2.027653157711029053e-01 4.620509594678878784e-02
-3.315572440624237061e-01 -1.785115003585815430e-01 7.230844348669052124e-02
7.754713296890258789e-04 -1.140310466289520264e-01 -3.813618719577789307e-01
-1.204025596380233765e-01 -2.762162387371063232e-01 -9.041398763656616211e-02
1.176960691809654236e-01 -1.869244277477264404e-01 3.352414071559906006e-01
2.953674644231796265e-02 -1.268456876277923584e-02 4.745221138000488281e-02
-1.145547330379486084e-01 -2.537016272544860840e-01 2.445473968982696533e-01
2.671691477298736572e-01 -2.423788011074066162e-01 -2.240782529115676880e-01
-2.662178575992584229e-01 -7.102192938327789307e-02 -1.132016479969024658e-01
-4.298337548971176147e-02 -1.561910957098007202e-01 -3.766906261444091797e-01
-2.025027386844158173e-02 -6.511992961168289185e-02 2.737307846546173096e-01
-2.708607017993927002e-01 -2.318435907363891602e-01 4.788331687450408936e-03
2.032960355281829834e-01 -2.860351204872131348e-01 -4.312566667795181274e-02
-2.625667452812194824e-01 -2.089065164327621460e-01 -1.382595896720886230e-01
-3.388253450393676758e-01 -1.245285943150520325e-01 5.869053304195404053e-02
2.681948244571685791e-01 -2.563746571540832520e-01 1.080025061964988708e-01
1.226069629192352295e-01 -2.968231141567230225e-01 1.975511386990547180e-02
-2.250843793153762817e-01 -2.085103094577789307e-01 -1.994727402925491333e-01
2.560321390628814697e-01 -4.772771894931793213e-02 -2.579052373766899109e-02
-2.990976274013519287e-01 -1.359964311122894287e-01 -1.521203070878982544e-01
2.616797387599945068e-01 -2.603935599327087402e-01 -1.596496999263763428e-01
-1.460209935903549194e-01 -2.275136113166809082e-02 4.498476535081863403e-02
2.792548835277557373e-01 -6.139583140611648560e-02 -1.564647406339645386e-01
-1.485577076673507690e-01 -2.700660228729248047e-01 -8.552652597427368164e-02
1.996179223060607910e-01 -3.151764720678329468e-02 -9.974490851163864136e-02
2.936626076698303223e-01 -6.153825670480728149e-02 -5.524711310863494873e-02
3.102263510227203369e-01 -2.514494955539703369e-01 2.259865403175354004e-02
1.605979725718498230e-02 -2.987838983535766602e-01 4.326513409614562988e-02
1.983411051332950592e-02 -4.149275273084640503e-02 -2.728047966957092285e-01
3.148228228092193604e-01 -7.510130852460861206e-02 -3.307808190584182739e-03
3.582533895969390869e-01 -1.926148533821105957e-01 9.054741263389587402e-02
-3.186711370944976807e-01 -9.260335564613342285e-02 1.318755559623241425e-02
-1.716357767581939697e-01 -3.387573361396789551e-02 -1.219770833849906921e-01
-1.902165859937667847e-01 -5.468168109655380249e-02 -1.891455501317977905e-01
7.493817061185836792e-02 -6.514333933591842651e-02 -3.286246955394744873e-01
9.668112546205520630e-02 -2.432664036750793457e-01 2.837874591350555420e-01
-2.248853594064712524e-01 -1.784905493259429932e-01 2.883208394050598145e-01
7.645600289106369019e-02 -1.966896206140518188e-01 -3.735514283180236816e-01
3.320395350456237793e-01 -1.540751010179519653e-01 -2.658794522285461426e-01
2.659091651439666748e-01 -6.100502610206604004e-02 -1.867279112339019775e-01
-1.814494878053665161e-01 -9.749378263950347900e-02 2.866172492504119873e-01
-2.043988406658172607e-01 -3.629598766565322876e-02 5.282564461231231689e-02
3.494749218225479126e-02 -3.075104951858520508e-02 1.617062687873840332e-01
4.067774862051010132e-03 -2.939336895942687988e-01 1.082013696432113647e-01
-2.261645048856735229e-01 -2.536774277687072754e-01 4.485398903489112854e-02
7.108548283576965332e-02 -1.310992836952209473e-01 -3.948257565498352051e-01
1.592845022678375244e-01 -2.698187232017517090e-01 -2.120771259069442749e-01
3.382882773876190186e-01 -1.717617958784103394e-01 1.445599496364593506e-01
-2.564672231674194336e-01 -1.363294720649719238e-01 -2.221629172563552856e-01
-3.149494528770446777e-01 -1.023696213960647583e-01 1.166972219944000244e-01
-2.834843695163726807e-01 -6.648129224777221680e-02 2.085082232952117920e-04
3.039990365505218506e-01 -7.844348996877670288e-02 -1.869702786207199097e-01
-2.799940705299377441e-01 -1.901724040508270264e-01 -1.456443220376968384e-01
1.690872311592102051e-01 -3.162547200918197632e-02 -1.709117144346237183e-01
1.615919470787048340e-01 -6.548449397087097168e-02 2.081836014986038208e-01
1.470219343900680542e-01 -1.968648731708526611e-01 3.173871934413909912e-01
3.110679388046264648e-01 -2.026602625846862793e-01 1.689409017562866211e-01
6.844607740640640259e-02 -2.599802613258361816e-01 -2.619109153747558594e-01
1.948521286249160767e-01 -2.612858414649963379e-01 -2.243772149085998535e-01
-1.367707550525665283e-01 -2.712669074535369873e-01 -9.832487255334854126e-02
7.275041192770004272e-03 -2.292795032262802124e-01 3.222343325614929199e-01
-9.890452027320861816e-02 -3.445979952812194824e-02 1.692913770675659180e-01
1.989126801490783691e-01 -2.561218440532684326e-01 1.962444484233856201e-01
4.551317542791366577e-04 -2.423005998134613037e-01 -2.951061129570007324e-01
-2.708293795585632324e-01 -2.168103307485580444e-01 -9.481143206357955933e-02
3.068937361240386963e-01 -2.146551311016082764e-01 -2.452033162117004395e-01
2.282902449369430542e-01 -1.721792668104171753e-01 2.744740247726440430e-01
1.912866830825805664e-01 -1.335385739803314209e-01 -3.722951412200927734e-01
-1.568353325128555298e-01 -6.582793593406677246e-02 2.416014969348907471e-01
-1.576067805290222168e-01 -1.759082973003387451e-01 -3.073195815086364746e-01
3.637739717960357666e-01 -1.100735217332839966e-01 -7.470361422747373581e-03
2.909073829650878906e-01 -6.969499588012695312e-02 -1.761945933103561401e-01
3.606845438480377197e-01 -1.906101107597351074e-01 -1.954349875450134277e-01
4.395402967929840088e-02 -2.271953821182250977e-01 -3.323639631271362305e-01
2.453587651252746582e-01 -2.720955312252044678e-01 -1.114078164100646973e-01
-7.026634365320205688e-02 -2.678352594375610352e-01 2.217868864536285400e-01
-2.465556412935256958e-01 -6.507436931133270264e-02 1.482753157615661621e-01
-2.350119501352310181e-01 -4.807511717081069946e-02 7.561197876930236816e-02
1.818304955959320068e-01 -6.540395319461822510e-02 1.914338767528533936e-01
-1.323221810162067413e-02 -7.802300900220870972e-02 2.985312044620513916e-01
1.078951582312583923e-01 -3.336854279041290283e-02 -2.299006134271621704e-01
-2.329694777727127075e-01 -2.175086438655853271e-01 2.287867665290832520e-01
6.863954663276672363e-02 -1.752271354198455811e-01 -3.891442716121673584e-01
-7.046057283878326416e-02 -2.890830636024475098e-01 -5.392510816454887390e-02
-6.404048949480056763e-02 -2.871025502681732178e-01 -8.439522236585617065e-02
-2.944194376468658447e-01 -1.762466132640838623e-01 -1.385125964879989624e-01
-8.817468583583831787e-02 -2.206521779298782349e-01 3.221920132637023926e-01
-2.780576348304748535e-01 -1.010355055332183838e-01 -1.631887406110763550e-01
1.943269819021224976e-01 -6.273474544286727905e-02 1.720020473003387451e-01
2.766587138175964355e-01 -2.647127509117126465e-01 -9.354781359434127808e-02
5.656781047582626343e-02 -8.513913303613662720e-02 -3.608852028846740723e-01
-1.657542139291763306e-01 -9.606437385082244873e-02 -2.914145886898040771e-01
3.319100439548492432e-01 -2.271007001399993896e-01 -1.712433248758316040e-01
2.153656333684921265e-01 -2.798300087451934814e-01 -1.030056029558181763e-01
7.268012315034866333e-02 -2.995732426643371582e-01 1.958109065890312195e-02
-1.918435543775558472e-01 -2.523790895938873291e-01 -1.110990867018699646e-01
3.625343739986419678e-02 -4.244269430637359619e-02 -2.762883007526397705e-01
3.375475853681564331e-02 -2.995838522911071777e-01 2.983548864722251892e-02
3.704012930393218994e-01 -1.739201992750167847e-01 -1.900288909673690796e-01
-1.019835770130157471e-01 -2.049891650676727295e-02 8.612134307622909546e-02
-9.832218289375305176e-02 -2.759686410427093506e-01 -1.229121834039688110e-01
9.433607012033462524e-02 -2.949407100677490234e-01 -8.801016956567764282e-02
-1.958571933209896088e-02 -8.768260478973388672e-03 -5.428533256053924561e-02
-2.501713931560516357e-01 -1.964222192764282227e-01 2.446343600749969482e-01
-2.833068668842315674e-01 -8.539228141307830811e-02 1.495699286460876465e-01
2.471917718648910522e-01 -2.542808055877685547e-01 1.490372568368911743e-01
-1.906134746968746185e-02 -1.049423217773437500e-01 3.363996744155883789e-01
-8.314605057239532471e-02 -1.049353778362274170e-01 -3.492065668106079102e-01
2.444158792495727539e-01 -2.429957836866378784e-01 -2.446103990077972412e-01
-1.455262452363967896e-01 -4.800297319889068604e-02 1.964080929756164551e-01
1.994730159640312195e-02 -2.711965143680572510e-02 1.490634679794311523e-01
3.661806583404541016e-01 -1.185930669307708740e-01 1.982014626264572144e-02
-2.438678778707981110e-02 -2.452622354030609131e-01 -2.803212702274322510e-01
-1.650798916816711426e-01 -2.674475312232971191e-01 1.299254745244979858e-01
-2.949327528476715088e-01 -2.134950011968612671e-01 1.004466414451599121e-01
1.924651712179183960e-01 -4.880317300558090210e-02 -2.347636371850967407e-01
2.914912104606628418e-01 -2.162632793188095093e-01 -2.603229880332946777e-01
-7.241647690534591675e-02 -2.763328552246093750e-01 -1.475389450788497925e-01
-2.802342176437377930e-01 -1.462405771017074585e-01 -1.865285634994506836e-01
-2.775559760630130768e-02 -2.709674239158630371e-01 2.249478995800018311e-01
9.830392897129058838e-03 -2.958264946937561035e-02 -2.302966266870498657e-01
-5.317778587341308594e-01 3.054320216178894043e-01 1.318878680467605591e-01
-6.342991590499877930e-01 4.257239401340484619e-01 -6.608365476131439209e-02
-3.221919536590576172e-01 2.838597893714904785e-01 1.895254254341125488e-01
-3.305165171623229980e-01 3.099044561386108398e-01 2.683942914009094238e-01
-4.208891987800598145e-01 2.522544264793395996e-01 1.753705590963363647e-01
-2.975362241268157959e-01 3.332681655883789062e-01 -2.518641650676727295e-01
-6.366686820983886719e-01 4.741325974464416504e-01 2.525232732295989990e-01
-3.612949550151824951e-01 5.218869447708129883e-01 2.921675443649291992e-01
-3.212684988975524902e-01 2.501052320003509521e-01 2.750520780682563782e-02
-3.943871855735778809e-01 5.443498492240905762e-01 3.610073924064636230e-01
-5.298288464546203613e-01 6.361884474754333496e-01 -3.558481931686401367e-01
-4.161233305931091309e-01 6.178308725357055664e-01 1.876014769077301025e-01
-4.030675888061523438e-01 6.157484650611877441e-01 8.011822402477264404e-02
-5.850397348403930664e-01 3.662786781787872314e-01 1.697886437177658081e-01
-4.586553871631622314e-01 2.638255953788757324e-01 -2.520705759525299072e-01
-4.658904075622558594e-01 2.629085779190063477e-01 1.428339481353759766e-01
-2.929990887641906738e-01 2.955366373062133789e-01 6.917919218540191650e-02
-5.457497835159301758e-01 7.015362977981567383e-01 -5.199691280722618103e-02
-3.726518452167510986e-01 5.809836983680725098e-01 -7.547859847545623779e-02
-5.381707549095153809e-01 4.020748436450958252e-01 4.271982014179229736e-01
-3.834362924098968506e-01 2.497697174549102783e-01 1.769306361675262451e-01
-3.746390342712402344e-01 5.618217587471008301e-01 -2.282509058713912964e-01
-3.106365501880645752e-01 4.385529160499572754e-01 -2.517828941345214844e-01
-4.177265465259552002e-01 3.010085225105285645e-01 3.467156589031219482e-01
-2.900939881801605225e-01 3.750856518745422363e-01 1.401861906051635742e-01
-3.415685296058654785e-01 4.092257320880889893e-01 -4.082866311073303223e-01
-2.788552939891815186e-01 3.512658774852752686e-01 -6.242105364799499512e-02
-3.736013174057006836e-01 5.529182553291320801e-01 2.579733729362487793e-01
-6.278609633445739746e-01 5.527848005294799805e-01 3.704049289226531982e-01
-5.950149297714233398e-01 4.574427604675292969e-01 -3.937544524669647217e-01
-3.777222633361816406e-01 2.570507526397705078e-01 -2.976565361022949219e-01
-4.730186164379119873e-01 6.595802307128906250e-01 -1.726582050323486328e-01
-5.815203189849853516e-01 4.062807857990264893e-01 3.295999169349670410e-01
-4.430350959300994873e-01 6.405169367790222168e-01 -1.644013226032257080e-01
-5.851373672485351562e-01 3.852543532848358154e-01 -2.854936420917510986e-01
-6.623198390007019043e-01 5.582468509674072266e-01 -2.011368870735168457e-01
-5.868073701858520508e-01 5.925431847572326660e-01 4.369837045669555664e-01
-2.881584763526916504e-01 3.597138524055480957e-01 1.277079135179519653e-01
-6.059594154357910156e-01 5.136392712593078613e-01 -4.030944705009460449e-01
-3.051480352878570557e-01 3.751703500747680664e-01 2.326893508434295654e-01
-3.749818801879882812e-01 5.110772252082824707e-01 -3.783697783946990967e-01
-4.819548130035400391e-01 4.255252480506896973e-01 -5.364747643470764160e-01
-4.500715732574462891e-01 6.578961014747619629e-01 -1.873928867280483246e-02
-5.111398696899414062e-01 6.534390449523925781e-01 3.319299817085266113e-01
-4.174704253673553467e-01 5.861535668373107910e-01 -3.154683113098144531e-01
-3.287085294723510742e-01 3.915221095085144043e-01 -3.789748549461364746e-01
-3.281534910202026367e-01 2.426966577768325806e-01 -9.143140912055969238e-02
-3.591581583023071289e-01 2.376009672880172729e-01 -1.796691119670867920e-01
-4.019720554351806641e-01 5.968720912933349609e-01 -2.088810652494430542e-01
-2.909826636314392090e-01 3.341436088085174561e-01 -2.119983136653900146e-01
-5.787179470062255859e-01 3.426321446895599365e-01 -4.118952900171279907e-02
-6.013633608818054199e-01 4.385744929313659668e-01 3.326824307441711426e-01
-4.781139492988586426e-01 6.452642083168029785e-01 2.998944818973541260e-01
-5.480644702911376953e-01 3.100953102111816406e-01 -5.299789458513259888e-02
-5.133000016212463379e-01 6.111597418785095215e-01 4.359313249588012695e-01
-6.446391940116882324e-01 6.614442467689514160e-01 -1.417116522789001465e-01
-4.352774024009704590e-01 4.600838720798492432e-01 -5.300809741020202637e-01
-3.505813181400299072e-01 5.523097515106201172e-01 5.971097573637962341e-02
-6.480579376220703125e-01 6.757421493530273438e-01 -3.630425781011581421e-02
-4.635853469371795654e-01 5.288312435150146484e-01 5.005837678909301758e-01
-6.619318127632141113e-01 5.019943118095397949e-01 1.334064006805419922e-01
-6.010562181472778320e-01 4.140987992286682129e-01 2.737577855587005615e-01
-6.562792062759399414e-01 5.986559391021728516e-01 -2.204989343881607056e-01
-4.694667160511016846e-01 6.685601472854614258e-01 1.126764118671417236e-01
-3.951471149921417236e-01 5.660909414291381836e-01 -3.051391541957855225e-01
-2.800594866275787354e-01 3.769626915454864502e-01 -4.268278554081916809e-02
-6.740195751190185547e-01 5.450986027717590332e-01 1.068680137395858765e-01
-5.361261963844299316e-01 3.007025122642517090e-01 -1.005555689334869385e-01
-6.248115897178649902e-01 4.166394770145416260e-01 1.228453516960144043e-01
-5.350761413574218750e-01 7.012993097305297852e-01 5.846461281180381775e-02
-2.977773547172546387e-01 4.123301506042480469e-01 1.627039760351181030e-01
-4.150142669677734375e-01 6.124935150146484375e-01 -1.927660107612609863e-01
-5.403743386268615723e-01 5.986701846122741699e-01 -4.314100742340087891e-01
-3.121784925460815430e-01 4.859538078308105469e-01 -5.453377217054367065e-02
-4.135173559188842773e-01 2.648335099220275879e-01 2.388736158609390259e-01
-3.007217347621917725e-01 4.008157551288604736e-01 1.970313787460327148e-01
-3.704307377338409424e-01 3.762357234954833984e-01 4.141772687435150146e-01
-5.894201397895812988e-01 6.373827457427978516e-01 -3.323428630828857422e-01
-3.997106254100799561e-01 6.034345626831054688e-01 1.700580567121505737e-01
-2.917221784591674805e-01 3.988127708435058594e-01 1.317318975925445557e-01
-3.158164620399475098e-01 2.942036688327789307e-01 -2.794748246669769287e-01
-6.380236744880676270e-01 5.625663995742797852e-01 -3.124434649944305420e-01
-6.214184165000915527e-01 6.979398727416992188e-01 1.433184556663036346e-02
-3.131742179393768311e-01 2.651845514774322510e-01 -1.780463308095932007e-01
-5.849730968475341797e-01 6.273779869079589844e-01 3.989288806915283203e-01
-4.112735986709594727e-01 5.979034900665283203e-01 2.647364735603332520e-01
-6.258535385131835938e-01 6.873023509979248047e-01 -9.186731278896331787e-02
-3.714773356914520264e-01 4.872433841228485107e-01 3.874506354331970215e-01
-5.617057085037231445e-01 3.814946711063385010e-01 3.306599259376525879e-01
-4.695055782794952393e-01 6.706923842430114746e-01 -2.943249978125095367e-02
-4.407376945018768311e-01 6.260889172554016113e-01 -2.372163981199264526e-01
-6.161528229713439941e-01 6.961708068847656250e-01 1.242278218269348145e-01
-6.676075458526611328e-01 5.482521653175354004e-01 -1.570113748311996460e-01
-5.334820151329040527e-01 3.342334628105163574e-01 -3.247853815555572510e-01
-3.821787238121032715e-01 5.070222616195678711e-01 3.909009099006652832e-01
-6.663991212844848633e-01 4.998548030853271484e-01 -6.807772908359766006e-03
-3.184742629528045654e-01 3.508980274200439453e-01 2.788794934749603271e-01
-6.320707201957702637e-01 4.374118745326995850e-01 -1.764350533485412598e-01
-3.313038647174835205e-01 2.428873777389526367e-01 -1.239477694034576416e-01
-4.742597639560699463e-01 3.349521458148956299e-01 -4.485697746276855469e-01
-3.105422854423522949e-01 2.566011846065521240e-01 -7.710149884223937988e-02
-5.572990179061889648e-01 6.985878944396972656e-01 1.673849970102310181e-01
-6.355591416358947754e-01 6.874538660049438477e-01 -3.036575578153133392e-02
-6.517925858497619629e-01 4.602378010749816895e-01 -2.338374592363834381e-02
-3.687081336975097656e-01 2.835879623889923096e-01 2.824935019016265869e-01
-6.031002402305603027e-01 4.117472469806671143e-01 2.567268610000610352e-01
-6.337504982948303223e-01 4.595728516578674316e-01 -2.366200238466262817e-01
-5.554808974266052246e-01 3.173389732837677002e-01 -7.359410170465707779e-03
-3.684754967689514160e-01 5.727554559707641602e-01 -1.107784658670425415e-01
-5.771158337593078613e-01 3.510055541992187500e-01 -1.759970635175704956e-01
-3.384604454040527344e-01 5.275947451591491699e-01 1.162748038768768311e-01
-3.987236917018890381e-01 2.761284708976745605e-01 -3.637717962265014648e-01
-5.262750387191772461e-01 2.942519783973693848e-01 -1.331871002912521362e-01
-5.879610776901245117e-01 6.494006514549255371e-01 -3.066932559013366699e-01
-2.888363599777221680e-01 4.014638364315032959e-01 -1.531089544296264648e-01
-6.562523841857910156e-01 4.777668714523315430e-01 -9.134897589683532715e-02
-4.557177424430847168e-01 5.590216517448425293e-01 -4.530473649501800537e-01
-5.470547676086425781e-01 3.515504896640777588e-01 2.883700132369995117e-01
-4.602421820163726807e-01 2.556373476982116699e-01 -1.905314624309539795e-01
-4.871885478496551514e-01 3.373114466667175293e-01 3.805221617221832275e-01
-4.242002964019775391e-01 4.431883096694946289e-01 4.972747862339019775e-01
-3.867315351963043213e-01 5.749174356460571289e-01 2.415778487920761108e-01
-4.683800637722015381e-01 6.535285115242004395e-01 -1.931661069393157959e-01
-5.425803661346435547e-01 4.005914330482482910e-01 -4.481569826602935791e-01
-3.837826251983642578e-01 4.043974876403808594e-01 4.455006420612335205e-01
-6.388678550720214844e-01 4.540323019027709961e-01 -1.830714046955108643e-01
-6.755028963088989258e-01 5.391633510589599609e-01 -2.469492703676223755e-02
-4.893713891506195068e-01 2.646299898624420166e-01 1.734143309295177460e-02
-3.646570742130279541e-01 2.410297840833663940e-01 -2.117287665605545044e-01
-6.089251041412353516e-01 5.363183021545410156e-01 -3.984232544898986816e-01
-3.883481025695800781e-01 3.577337563037872314e-01 -4.825604259967803955e-01
-6.712080836296081543e-01 6.373711824417114258e-01 7.341086864471435547e-02
-3.031947612762451172e-01 3.355926871299743652e-01 -2.816577851772308350e-01
-3.787486553192138672e-01 3.816523551940917969e-01 4.293496012687683105e-01
-6.447112560272216797e-01 4.599936902523040771e-01 -1.518446803092956543e-01
-3.297026455402374268e-01 5.110156536102294922e-01 -1.406991183757781982e-01
-6.437159180641174316e-01 5.020556449890136719e-01 2.692719399929046631e-01
-3.580136895179748535e-01 2.503154575824737549e-01 -2.513102591037750244e-01
-6.534708142280578613e-01 6.678558588027954102e-01 1.108879297971725464e-01
-3.099786639213562012e-01 4.753223955631256104e-01 -1.144904792308807373e-01
-6.703026294708251953e-01 5.525974631309509277e-01 -1.367265433073043823e-01
-5.978677272796630859e-01 3.837908506393432617e-01 -2.044288069009780884e-01
-3.420963287353515625e-01 5.003858208656311035e-01 -2.752216160297393799e-01
-4.391054213047027588e-01 6.476013064384460449e-01 9.750032424926757812e-02
-5.113483667373657227e-01 6.914866566658020020e-01 9.957903623580932617e-02
-2.937126457691192627e-01 4.362274408340454102e-01 -8.409777283668518066e-02
-3.651580214500427246e-01 3.283826708793640137e-01 -4.330176115036010742e-01
-5.373359918594360352e-01 3.315756916999816895e-01 2.483772486448287964e-01
-3.643550872802734375e-01 4.516979455947875977e-01 4.009045362472534180e-01
-4.024718999862670898e-01 2.452809214591979980e-01 -2.444947510957717896e-01
-5.099928975105285645e-01 2.801669836044311523e-01 -1.184424608945846558e-01
-5.152136683464050293e-01 5.236291885375976562e-01 -5.150829553604125977e-01
-5.452687144279479980e-01 3.795128762722015381e-01 3.699882328510284424e-01
-4.318076074123382568e-01 2.480721473693847656e-01 1.321829855442047119e-01
-6.502084732055664062e-01 4.791747331619262695e-01 -1.691144406795501709e-01
-4.496373236179351807e-01 6.543375253677368164e-01 1.185363680124282837e-01
-6.194540858268737793e-01 6.775000095367431641e-01 2.272841930389404297e-01
-4.220962524414062500e-01 3.109554946422576904e-01 -4.392592608928680420e-01
-4.232225418090820312e-01 2.729887068271636963e-01 2.639242112636566162e-01
-6.074452400207519531e-01 7.030261158943176270e-01 6.139617785811424255e-02
-4.872511625289916992e-01 6.763208508491516113e-01 -9.970378875732421875e-02
-6.523599028587341309e-01 5.751051306724548340e-01 2.859374582767486572e-01
-5.763456225395202637e-01 4.009995162487030029e-01 -3.617407679557800293e-01
-5.643601417541503906e-01 6.831032037734985352e-01 2.630968689918518066e-01
-3.040696680545806885e-01 4.420640170574188232e-01 -1.953123509883880615e-01
-5.958528518676757812e-01 4.186502099037170410e-01 -3.286206126213073730e-01
-5.453950166702270508e-01 3.761974573135375977e-01 -4.006024599075317383e-01
-3.251189589500427246e-01 2.438745647668838501e-01 -3.403311222791671753e-02
-5.061075091361999512e-01 6.758412122726440430e-01 -1.747884154319763184e-01
-4.162238240242004395e-01 6.282318830490112305e-01 8.769787847995758057e-02
-5.003653168678283691e-01 4.339027702808380127e-01 5.046991705894470215e-01
-2.994829714298248291e-01 4.382160604000091553e-01 1.193197667598724365e-01
-3.757268786430358887e-01 5.343520641326904297e-01 -3.275084793567657471e-01
-3.008835613727569580e-01 3.209486901760101318e-01 1.781776100397109985e-01
-3.684684038162231445e-01 2.559297680854797363e-01 1.937622278928756714e-01
-5.992350578308105469e-01 6.558084487915039062e-01 3.291038274765014648e-01
-6.270424723625183105e-01 6.952450275421142578e-01 3.283629193902015686e-02
-6.400347948074340820e-01 6.726870536804199219e-01 1.756683439016342163e-01
-2.891502976417541504e-01 4.229339957237243652e-01 1.257666386663913727e-02
-4.388358592987060547e-01 5.089136958122253418e-01 -4.998885691165924072e-01
-3.246322870254516602e-01 4.968433380126953125e-01 -1.679295599460601807e-01
-5.277411937713623047e-01 6.744458079338073730e-01 2.736343145370483398e-01
-4.366439282894134521e-01 5.890038609504699707e-01 3.735916018486022949e-01
-3.799639940261840820e-01 4.729755818843841553e-01 -4.475109577178955078e-01
-3.612409830093383789e-01 5.542187690734863281e-01 -1.773110777139663696e-01
-5.250323414802551270e-01 5.839557051658630371e-01 4.777280688285827637e-01
-5.071771144866943359e-01 6.885343790054321289e-01 1.183215379714965820e-01
-3.855626583099365234e-01 5.818532705307006836e-01 -1.935576051473617554e-01
-3.792882859706878662e-01 2.514412701129913330e-01 -2.760630846023559570e-01
-3.568945527076721191e-01 4.593054652214050293e-01 -4.073548614978790283e-01
-5.085530281066894531e-01 6.649563908576965332e-01 -2.384083718061447144e-01
-4.876216053962707520e-01 2.674836516380310059e-01 7.832597196102142334e-02
-5.463381409645080566e-01 6.537269949913024902e-01 -3.123547434806823730e-01
-6.394194364547729492e-01 4.399021863937377930e-01 -1.060925126075744629e-01
-4.371616840362548828e-01 2.435842901468276978e-01 -1.693456918001174927e-01
-5.563001036643981934e-01 7.037931680679321289e-01 1.070707738399505615e-01
-5.994082689285278320e-01 5.148226022720336914e-01 4.281131327152252197e-01
-5.036562681198120117e-01 3.955392241477966309e-01 -5.005074739456176758e-01
-3.540319800376892090e-01 2.328485846519470215e-01 1.489102281630039215e-02
-5.248349905014038086e-01 3.239124417304992676e-01 2.611210346221923828e-01
-4.896062612533569336e-01 4.669455587863922119e-01 -5.403962731361389160e-01
-6.782684326171875000e-01 5.609146952629089355e-01 -2.801229804754257202e-02
-3.032902479171752930e-01 3.262175321578979492e-01 1.969077140092849731e-01
-5.780586600303649902e-01 6.948482394218444824e-01 2.012329846620559692e-01
-3.117022216320037842e-01 4.742288291454315186e-01 1.131514757871627808e-01
-6.284272670745849609e-01 4.399455785751342773e-01 2.041467428207397461e-01
-2.899285554885864258e-01 3.825170397758483887e-01 -1.960199177265167236e-01
-5.257946848869323730e-01 4.672805368900299072e-01 5.078070163726806641e-01
-3.113135695457458496e-01 3.289242982864379883e-01 -3.103618025779724121e-01
-6.735434532165527344e-01 6.237566471099853516e-01 1.003798395395278931e-01
-4.969600737094879150e-01 2.823419570922851562e-01 1.546480655670166016e-01
-4.992148280143737793e-01 6.157185435295104980e-01 4.164851307868957520e-01
-6.679291129112243652e-01 5.859684944152832031e-01 1.996644288301467896e-01
-6.452066898345947266e-01 6.501085758209228516e-01 2.320330142974853516e-01
-6.060546636581420898e-01 6.662528514862060547e-01 -2.358633279800415039e-01
-6.012912392616271973e-01 6.846328377723693848e-01 2.332302182912826538e-01
-3.019770979881286621e-01 3.095366358757019043e-01 -2.480949759483337402e-01
-5.905447602272033691e-01 4.267442524433135986e-01 3.454190194606781006e-01
-5.310226678848266602e-01 3.068466186523437500e-01 -2.082629203796386719e-01
-5.994677543640136719e-01 4.096027612686157227e-01 -2.904461622238159180e-01
-2.852368354797363281e-01 3.727082014083862305e-01 9.554980695247650146e-02
-3.086051642894744873e-01 4.529303908348083496e-01 1.620122939348220825e-01
-4.142765998840332031e-01 2.418857663869857788e-01 1.179475039243698120e-01
-4.513499438762664795e-01 5.884320735931396484e-01 -3.885722756385803223e-01
-4.012170433998107910e-01 6.157739162445068359e-01 2.187685668468475342e-02
-5.859014391899108887e-01 5.800409317016601562e-01 -4.190521538257598877e-01
-3.566446602344512939e-01 3.477191329002380371e-01 -4.364719688892364502e-01
-5.173068642616271973e-01 3.433358371257781982e-01 3.438957929611206055e-01
-4.132314920425415039e-01 5.527903437614440918e-01 -3.927381038665771484e-01
-3.526237905025482178e-01 3.827907741069793701e-01 -4.403744637966156006e-01
-5.984219312667846680e-01 3.886240422725677490e-01 -2.232631593942642212e-01
-3.522413074970245361e-01 3.152820169925689697e-01 -3.994424641132354736e-01
-4.286480545997619629e-01 3.385357260704040527e-01 -4.805774390697479248e-01
-5.031775236129760742e-01 3.375533223152160645e-01 -4.109678268432617188e-01
-5.441319346427917480e-01 3.960313796997070312e-01 4.058224558830261230e-01
-4.920917749404907227e-01 2.657633423805236816e-01 6.999876350164413452e-04
-6.070003509521484375e-01 3.870086073875427246e-01 -1.400082558393478394e-01
-6.708863973617553711e-01 6.367133855819702148e-01 -3.137416765093803406e-02
-5.659311413764953613e-01 6.871510744094848633e-01 2.444648891687393188e-01
-6.719211339950561523e-01 6.172298192977905273e-01 -9.042842686176300049e-02
-2.890394330024719238e-01 4.035055637359619141e-01 9.476834535598754883e-02
-5.169777870178222656e-01 2.913842499256134033e-01 1.149979978799819946e-01
-5.246824622154235840e-01 3.557567894458770752e-01 3.602010011672973633e-01
-4.623569250106811523e-01 6.593244671821594238e-01 1.627329736948013306e-01
-4.654114246368408203e-01 3.478482067584991455e-01 4.227058887481689453e-01
-6.406873464584350586e-01 6.847260594367980957e-01 7.495713233947753906e-02
-5.187712907791137695e-01 5.948672890663146973e-01 -4.376344978809356689e-01
-4.249988496303558350e-01 2.589872479438781738e-01 -2.914026379585266113e-01
-5.606223940849304199e-01 3.765780329704284668e-01 -3.576399385929107666e-01
-4.134128093719482422e-01 2.374748140573501587e-01 -1.759549379348754883e-01
-5.091354846954345703e-01 3.023921251296997070e-01 2.204328030347824097e-01
-4.464432001113891602e-01 2.426018565893173218e-01 -1.063181906938552856e-01
-6.204043030738830566e-01 4.062032401561737061e-01 9.957650303840637207e-02
-5.101982355117797852e-01 6.667196750640869141e-01 2.798654437065124512e-01
-3.037918210029602051e-01 4.532831609249114990e-01 1.133425831794738770e-01
-6.245376467704772949e-01 6.830347180366516113e-01 -1.237942129373550415e-01
-5.120492577552795410e-01 2.848356366157531738e-01 -1.574974954128265381e-01
-3.045812845230102539e-01 4.356884658336639404e-01 -2.166365236043930054e-01
-5.743250846862792969e-01 6.737962365150451660e-01 2.981680929660797119e-01
-2.940691411495208740e-01 3.028751611709594727e-01 1.016063988208770752e-01
-2.859306335449218750e-01 3.299740552902221680e-01 -1.662949472665786743e-01
-3.921427130699157715e-01 6.062554121017456055e-01 2.950588241219520569e-04
-4.785751104354858398e-01 6.770882606506347656e-01 8.257890120148658752e-03
-6.121667027473449707e-01 7.018501758575439453e-01 4.339952766895294189e-02
-4.385240077972412109e-01 5.885114669799804688e-01 -3.633753359317779541e-01
-5.261163115501403809e-01 6.977400183677673340e-01 8.423326909542083740e-02
-4.575134813785552979e-01 6.237355470657348633e-01 -2.977240383625030518e-01
-5.203112959861755371e-01 4.233642518520355225e-01 4.794394969940185547e-01
-4.811829626560211182e-01 3.152945041656494141e-01 3.329301178455352783e-01
-3.284140825271606445e-01 4.440777897834777832e-01 2.921463847160339355e-01
