3.985131382942199707e-01 -1.688112467527389526e-01 -1.256162226200103760e-01
-2.133108079433441162e-01 -2.813243269920349121e-01 5.502899885177612305e-01
5.107023566961288452e-02 -1.711752414703369141e-01 7.699063420295715332e-01
-2.570596337318420410e-01 -2.632238864898681641e-01 -5.070462822914123535e-01
-2.377669215202331543e-01 -3.288788795471191406e-01 -2.401608377695083618e-01
-9.272839874029159546e-02 8.111222088336944580e-02 4.157761931419372559e-01
1.546676307916641235e-01 8.513386547565460205e-02 4.480649232864379883e-01
-3.837986290454864502e-01 -6.289693713188171387e-02 2.836464047431945801e-01
2.665637135505676270e-01 -1.439672857522964478e-01 5.856990218162536621e-01
2.244137674570083618e-01 9.429079294204711914e-02 3.410775661468505859e-01
-3.636994063854217529e-01 -2.922980785369873047e-01 4.087129235267639160e-02
-5.652759596705436707e-02 -3.614307045936584473e-01 9.387824684381484985e-04
-2.923172712326049805e-01 -3.254836797714233398e-01 -8.382490277290344238e-02
-3.659354448318481445e-01 -2.859822511672973633e-01 1.523140668869018555e-01
1.030860468745231628e-01 1.266725063323974609e-01 -4.153709411621093750e-01
-2.586865723133087158e-01 -1.311793625354766846e-01 -6.754311323165893555e-01
1.150178723037242889e-02 4.862475395202636719e-02 5.941728353500366211e-01
3.113046586513519287e-01 -1.418881714344024658e-01 5.016849040985107422e-01
-8.507778495550155640e-02 1.289529353380203247e-01 -9.970430284738540649e-02
2.405612170696258545e-01 -2.819659113883972168e-01 -1.915101855993270874e-01
4.008835554122924805e-01 -1.609119623899459839e-01 9.214884787797927856e-02
-1.152445375919342041e-01 -3.488298058509826660e-01 2.856495082378387451e-01
7.970711588859558105e-02 9.352928400039672852e-02 -5.849376320838928223e-01
1.294328831136226654e-02 -2.418590188026428223e-01 -6.931122541427612305e-01
1.092092618346214294e-01 1.408971250057220459e-01 -2.864798307418823242e-01
-1.757329106330871582e-01 -2.271600216627120972e-01 6.909771561622619629e-01
-3.291936591267585754e-02 1.379728913307189941e-01 -1.546008437871932983e-01
1.159520670771598816e-01 7.241950929164886475e-02 5.131248235702514648e-01
-2.222263813018798828e-01 -1.473299115896224976e-01 -7.171817421913146973e-01
2.322426289319992065e-01 1.009911596775054932e-01 -4.597148001194000244e-01
3.109083324670791626e-02 -2.563297748565673828e-01 -6.505018472671508789e-01
-2.189895659685134888e-01 7.690392434597015381e-02 -2.474256008863449097e-01
-1.803803294897079468e-01 -1.033681035041809082e-01 -7.656211256980895996e-01
-2.656514346599578857e-01 -3.720223903656005859e-03 4.630485475063323975e-01
-3.547070324420928955e-01 -2.582117915153503418e-03 1.015723422169685364e-01
-3.919613361358642578e-01 -3.991823643445968628e-02 9.514910727739334106e-02
-2.236955612897872925e-01 -2.445203959941864014e-01 -5.955303907394409180e-01
3.140196502208709717e-01 -4.310458153486251831e-02 -6.387639641761779785e-01
-3.803357183933258057e-01 -1.010371670126914978e-01 -3.944055438041687012e-01
-3.088053762912750244e-01 -2.274135947227478027e-01 -5.056195855140686035e-01
6.011795625090599060e-02 -7.400386035442352295e-02 7.777103185653686523e-01
4.313165843486785889e-01 -1.178410723805427551e-01 -7.789772748947143555e-02
1.778352260589599609e-02 -3.540292978286743164e-01 8.443997800350189209e-02
2.148194164037704468e-01 8.981417119503021240e-02 -5.309495329856872559e-01
-2.864339016377925873e-02 -2.786477208137512207e-01 -5.996782779693603516e-01
-3.716248869895935059e-01 -1.984897255897521973e-01 4.370452463626861572e-01
2.243178039789199829e-01 -2.937835454940795898e-01 1.154589131474494934e-01
1.458369195461273193e-01 1.464702039957046509e-01 -2.844025939702987671e-02
-1.540175974369049072e-01 -3.566992282867431641e-01 1.475351750850677490e-01
-5.008775368332862854e-02 -2.715624868869781494e-03 6.932892203330993652e-01
1.712551265954971313e-01 8.769136667251586914e-02 4.259964227676391602e-01
3.250589966773986816e-01 7.628349959850311279e-02 -3.837395608425140381e-01
-1.945592463016510010e-01 7.399564981460571289e-02 -3.662397563457489014e-01
1.212877929210662842e-01 1.460516899824142456e-01 -1.979042291641235352e-01
2.079846858978271484e-01 -2.957198321819305420e-01 1.931224465370178223e-01
-2.540730237960815430e-01 -3.004322648048400879e-01 4.334987401962280273e-01
4.246228337287902832e-01 -8.705291152000427246e-02 1.695442646741867065e-01
1.419913470745086670e-01 -3.042092919349670410e-01 3.407642543315887451e-01
-1.012460663914680481e-01 2.747558057308197021e-02 -6.900658607482910156e-01
2.949227020144462585e-02 1.390163600444793701e-01 1.271123737096786499e-01
-2.840258479118347168e-01 3.759042918682098389e-02 2.089124023914337158e-01
-1.186342239379882812e-01 3.270392119884490967e-02 5.691220760345458984e-01
-3.345732092857360840e-01 -2.799285948276519775e-01 -2.835946977138519287e-01
-4.326797127723693848e-01 -1.019186899065971375e-01 -3.568625077605247498e-03
2.366939634084701538e-01 -1.359630376100540161e-02 -7.262006402015686035e-01
-2.956041991710662842e-01 4.546920955181121826e-02 -2.808668464422225952e-02
-7.981182634830474854e-02 5.445198714733123779e-02 -6.392084360122680664e-01
1.105417311191558838e-01 1.124507188796997070e-01 3.460576236248016357e-01
-2.448726892471313477e-01 -1.821409910917282104e-02 5.426145792007446289e-01
1.069850474596023560e-01 -2.371181994676589966e-01 6.406694650650024414e-01
3.598674237728118896e-01 -1.986075937747955322e-02 3.968471884727478027e-01
-5.526548251509666443e-02 8.572386205196380615e-02 4.314347505569458008e-01
-2.642821967601776123e-01 -2.951125800609588623e-02 5.353140234947204590e-01
3.439180552959442139e-02 -3.465050458908081055e-01 1.943266391754150391e-01
-2.068093279376626015e-03 6.630249321460723877e-02 5.369999408721923828e-01
-3.845087885856628418e-01 -2.828306704759597778e-02 4.902215301990509033e-02
3.517626225948333740e-01 6.457544863224029541e-03 -5.190439224243164062e-01
-2.436332851648330688e-01 -2.565031051635742188e-01 5.801905989646911621e-01
2.555041611194610596e-01 -2.150165587663650513e-01 -5.228250026702880859e-01
-2.875346243381500244e-01 4.243375360965728760e-02 1.433633565902709961e-01
3.775266110897064209e-01 6.843958795070648193e-02 -1.383537333458662033e-02
5.747734010219573975e-02 1.390949934720993042e-01 -3.007542490959167480e-01
-8.434199541807174683e-02 -3.164232969284057617e-01 4.911293089389801025e-01
3.810328543186187744e-01 -1.872699707746505737e-01 -1.475166082382202148e-01
6.209737807512283325e-02 9.667506814002990723e-02 -5.712345242500305176e-01
-1.210460625588893890e-02 1.017141640186309814e-01 3.847166001796722412e-01
-1.122234314680099487e-01 -3.579006791114807129e-01 1.741469502449035645e-01
4.200188219547271729e-01 -2.139158546924591064e-03 -2.780799567699432373e-01
7.824838161468505859e-03 -3.137769103050231934e-01 -4.466449618339538574e-01
-1.985468268394470215e-01 9.106519818305969238e-02 6.814647465944290161e-02
-1.959322243928909302e-01 -2.755824923515319824e-01 -5.436983704566955566e-01
1.157688796520233154e-01 -2.222077548503875732e-01 -6.867883205413818359e-01
2.821226418018341064e-01 -4.669856652617454529e-02 5.767059922218322754e-01
4.392608702182769775e-01 -1.862769573926925659e-02 -1.296118050813674927e-01
4.367641806602478027e-01 -5.462242662906646729e-02 -2.250007390975952148e-01
4.273570775985717773e-01 -2.665957808494567871e-02 1.390504986047744751e-01
-1.101888529956340790e-02 -3.109813928604125977e-01 4.967065155506134033e-01
2.681290209293365479e-01 1.238272339105606079e-01 -1.497394740581512451e-01
1.135504618287086487e-01 1.464527994394302368e-01 2.914480306208133698e-02
-1.281950175762176514e-01 7.688717544078826904e-02 -4.968576729297637939e-01
-3.153573572635650635e-01 3.251792490482330322e-02 -4.896805435419082642e-02
4.168545901775360107e-01 2.868948876857757568e-02 -3.132615238428115845e-02
3.880738914012908936e-01 -5.903290584683418274e-02 -4.662603735923767090e-01
9.111556573770940304e-04 -3.083539009094238281e-02 7.463748455047607422e-01
1.434191912412643433e-01 1.472155749797821045e-02 6.428891420364379883e-01
-2.566725313663482666e-01 8.178658783435821533e-03 4.429346621036529541e-01
3.222833573818206787e-02 -3.326337635517120361e-01 -3.083176910877227783e-01
1.338672339916229248e-01 -1.450213193893432617e-01 7.400451898574829102e-01
-3.648235499858856201e-01 -2.768959999084472656e-01 -1.771958172321319580e-01
8.900450915098190308e-02 -2.393342703580856323e-01 6.512426137924194336e-01
-3.017317950725555420e-01 3.208044171333312988e-02 -2.262962013483047485e-01
-6.592561490833759308e-03 1.107218712568283081e-01 3.375713229179382324e-01
3.666647672653198242e-01 -1.617597639560699463e-01 -3.798125982284545898e-01
4.064540863037109375e-01 -2.198179066181182861e-02 2.445135563611984253e-01
2.761417031288146973e-01 1.220891773700714111e-01 -7.465330511331558228e-02
2.215585112571716309e-01 -2.592825293540954590e-01 -4.205998778343200684e-01
3.329065144062042236e-01 9.047614037990570068e-02 8.276355266571044922e-02
3.775900006294250488e-01 -3.065379709005355835e-02 -4.911307990550994873e-01
-3.802880644798278809e-02 9.047694504261016846e-02 4.229347109794616699e-01
1.585670858621597290e-01 -2.861183285713195801e-01 4.099382758140563965e-01
-1.778095960617065430e-01 4.080757498741149902e-02 -5.578054189682006836e-01
-3.878055512905120850e-01 -2.042909562587738037e-01 -3.438895046710968018e-01
1.616949737071990967e-01 1.454961150884628296e-01 -5.659548565745353699e-02
-3.063977956771850586e-01 -2.729940414428710938e-01 4.389196038246154785e-01
-3.036294579505920410e-01 -2.685411870479583740e-01 -4.091331958770751953e-01
-2.114347070455551147e-01 6.531801819801330566e-02 2.799701988697052002e-01
1.050556600093841553e-01 -3.329598009586334229e-01 1.697037667036056519e-01
1.328861415386199951e-01 -2.339511960744857788e-01 6.220613121986389160e-01
3.837276101112365723e-01 -1.128539294004440308e-01 -4.344305098056793213e-01
2.187195420265197754e-01 1.245393604040145874e-01 1.554091274738311768e-01
1.796471923589706421e-01 1.435217410326004028e-01 -7.081211358308792114e-02
-5.804951861500740051e-02 -3.275338411331176758e-01 -3.942289352416992188e-01
-4.344286620616912842e-01 -1.298450976610183716e-01 -1.339838504791259766e-01
-1.168059036135673523e-01 -9.594125300645828247e-02 7.718244791030883789e-01
1.182515621185302734e-01 1.485027521848678589e-01 -1.146063879132270813e-01
-3.463978171348571777e-01 -4.226968437433242798e-02 -3.991347253322601318e-01
-5.879684910178184509e-02 -3.359858095645904541e-01 3.842676281929016113e-01
1.515458822250366211e-01 2.559114992618560791e-02 6.171516180038452148e-01
-1.554110944271087646e-01 1.095611304044723511e-01 -8.433853089809417725e-02
2.100805342197418213e-01 -2.926011085510253906e-01 2.168918848037719727e-01
2.310876846313476562e-01 1.341620236635208130e-01 -4.874629527330398560e-02
2.667592763900756836e-01 5.250397324562072754e-02 -5.844748616218566895e-01
-2.302865311503410339e-02 -5.646220967173576355e-02 7.717157602310180664e-01
-4.678798839449882507e-02 8.259949088096618652e-02 4.520637392997741699e-01
8.584222197532653809e-02 1.453525573015213013e-01 -2.235362380743026733e-01
-1.888744384050369263e-01 -9.356230497360229492e-03 -6.681842207908630371e-01
-7.597818225622177124e-02 2.399945259094238281e-02 6.243958473205566406e-01
-9.928406774997711182e-02 -8.688744902610778809e-02 -8.222920894622802734e-01
2.665431201457977295e-01 1.121117025613784790e-01 -3.213013410568237305e-01
-1.066950261592864990e-01 -2.858396768569946289e-01 5.982148051261901855e-01
1.808756887912750244e-01 -2.068722248077392578e-01 -6.595693826675415039e-01
9.009924530982971191e-02 1.228067576885223389e-01 2.883837521076202393e-01
2.823943737894296646e-03 1.405054926872253418e-01 -2.145679444074630737e-01
7.539621740579605103e-02 -1.492527425289154053e-01 -8.199514746665954590e-01
-4.826927185058593750e-02 -9.256006777286529541e-02 7.925520539283752441e-01
3.771392703056335449e-01 6.316490471363067627e-02 5.982057750225067139e-02
-3.513472378253936768e-01 -4.202129691839218140e-02 3.482415974140167236e-01
2.606455981731414795e-01 -2.449595481157302856e-01 -3.900773525238037109e-01
8.536022156476974487e-02 6.862829625606536865e-02 -6.665208935737609863e-01
-2.327861934900283813e-01 2.489881217479705811e-02 -5.058266520500183105e-01
-6.165238097310066223e-02 -2.437674552202224731e-01 -6.927251219749450684e-01
-1.239481419324874878e-01 2.297013998031616211e-02 -6.783763170242309570e-01
-4.271570146083831787e-01 -1.340992152690887451e-01 -2.034323811531066895e-01
-2.375976741313934326e-01 -3.073908984661102295e-01 4.281728863716125488e-01
-2.486854791641235352e-01 -1.631016284227371216e-02 -5.868363976478576660e-01
-2.799977064132690430e-01 -2.141285091638565063e-01 6.035242080688476562e-01
3.247016668319702148e-01 -2.396363466978073120e-01 -6.715662777423858643e-02
1.669388562440872192e-01 -8.001619577407836914e-02 -8.086418509483337402e-01
3.020136058330535889e-01 1.067519485950469971e-01 -2.408991307020187378e-01
4.323027729988098145e-01 2.567082643508911133e-03 -1.123679876327514648e-01
2.612357586622238159e-02 1.034517884254455566e-01 -5.314089655876159668e-01
2.066158950328826904e-01 -1.375427991151809692e-01 -7.435636520385742188e-01
-2.350098192691802979e-01 -3.229842185974121094e-01 3.498467504978179932e-01
1.342295110225677490e-01 6.892219185829162598e-02 5.162279009819030762e-01
2.930348217487335205e-01 6.032818555831909180e-02 -5.202317833900451660e-01
2.976274490356445312e-01 4.532432556152343750e-02 4.025154411792755127e-01
-2.425958961248397827e-01 -3.432213068008422852e-01 1.099261716008186340e-01
3.650983572006225586e-01 -1.625896543264389038e-01 3.039815127849578857e-01
-1.491283476352691650e-01 -3.474951386451721191e-01 2.774812877178192139e-01
3.321841061115264893e-01 -2.346223592758178711e-01 -6.326518952846527100e-03
3.239118754863739014e-01 -1.097739040851593018e-01 -5.980833172798156738e-01
-6.903800182044506073e-03 5.988611280918121338e-02 5.563192963600158691e-01
2.403493225574493408e-01 -2.708799242973327637e-01 2.753607928752899170e-01
-2.664395570755004883e-01 3.371275961399078369e-02 3.043170273303985596e-01
-1.686173379421234131e-01 -3.529175519943237305e-01 1.883305907249450684e-01
4.669852927327156067e-02 -3.261983394622802734e-01 3.652601540088653564e-01
-3.199318051338195801e-01 2.727168798446655273e-02 -1.209373772144317627e-01
1.754948794841766357e-01 -4.623010754585266113e-04 6.465767025947570801e-01
-4.934832081198692322e-02 -3.560541570186614990e-01 -1.412893831729888916e-01
3.044533729553222656e-01 1.055185198783874512e-01 6.818645447492599487e-02
-2.711181044578552246e-01 -2.648006081581115723e-01 -4.810006618499755859e-01
-3.133055567741394043e-02 2.780465781688690186e-02 6.362298130989074707e-01
-3.942937254905700684e-01 -4.047615826129913330e-02 6.529261916875839233e-02
-6.298311799764633179e-02 -1.826924383640289307e-01 7.779562473297119141e-01
2.565307170152664185e-02 1.220490783452987671e-01 -4.276056885719299316e-01
1.468234509229660034e-01 1.728984713554382324e-02 -7.564720511436462402e-01
-1.621425747871398926e-01 5.962564051151275635e-02 -5.147020816802978516e-01
3.851211071014404297e-01 -1.603097319602966309e-01 2.157660573720932007e-01
-3.667980665341019630e-03 7.032690942287445068e-02 -6.437715291976928711e-01
-1.393406987190246582e-01 -3.139255344867706299e-01 4.890425503253936768e-01
-5.166105180978775024e-02 6.097626686096191406e-02 5.318145155906677246e-01
1.749522984027862549e-01 1.181669831275939941e-01 -4.323405027389526367e-01
-1.345536708831787109e-01 7.985416054725646973e-02 -4.714737534523010254e-01
6.202313303947448730e-02 -3.368831276893615723e-01 -2.221238017082214355e-01
3.214708864688873291e-01 -2.065907418727874756e-01 -3.767675459384918213e-01
3.710915744304656982e-01 -1.073225811123847961e-01 3.823263347148895264e-01
1.619061976671218872e-01 -3.092913031578063965e-01 2.440594285726547241e-01
1.446761935949325562e-01 -3.228261470794677734e-01 1.461532562971115112e-01
2.288478910923004150e-01 1.340405941009521484e-01 -1.549039483070373535e-01
1.893492341041564941e-01 -1.391566991806030273e-01 6.934955716133117676e-01
4.483918473124504089e-02 1.199392676353454590e-01 3.044385015964508057e-01
-3.743881881237030029e-01 -1.833618432283401489e-02 6.184262037277221680e-02
2.299000769853591919e-01 -2.757525444030761719e-01 -2.974140644073486328e-01
-2.411144599318504333e-02 -3.281802237033843994e-01 4.174678921699523926e-01
2.045312151312828064e-02 -2.507051825523376465e-01 -6.692611575126647949e-01
1.746595054864883423e-01 -3.152382373809814453e-01 8.801210671663284302e-02
1.845209002494812012e-01 -8.035262674093246460e-02 7.084474563598632812e-01
-3.401386141777038574e-01 -2.097463309764862061e-01 -4.712620973587036133e-01
7.340162992477416992e-02 -3.077360987663269043e-01 4.386677443981170654e-01
-1.216800734400749207e-01 -3.462983369827270508e-01 -2.504276335239410400e-01
-1.445883363485336304e-01 -1.171515136957168579e-02 6.528032422065734863e-01
3.331266939640045166e-01 -1.294849663972854614e-01 4.653198122978210449e-01
3.807219564914703369e-01 -1.040360033512115479e-01 3.536852896213531494e-01
-3.441945314407348633e-01 -4.868704825639724731e-02 -4.233400225639343262e-01
-1.700465530157089233e-01 1.043870151042938232e-01 -1.507511362433433533e-02
-2.289560884237289429e-01 5.624756217002868652e-02 2.870957255363464355e-01
-4.075480103492736816e-01 -5.900284275412559509e-02 -9.692490845918655396e-02
4.219748377799987793e-01 1.847714185714721680e-03 -2.516849637031555176e-01
2.587125599384307861e-01 -6.663537770509719849e-02 -7.233226299285888672e-01
-5.936272442340850830e-03 -2.192472070455551147e-01 -7.434479594230651855e-01
4.208353161811828613e-02 9.777332842350006104e-02 -5.624143481254577637e-01
-2.507896721363067627e-01 -3.419396877288818359e-01 7.627202570438385010e-02
3.337453305721282959e-01 -1.058416813611984253e-02 4.467225670814514160e-01
-1.151961740106344223e-02 -7.186643034219741821e-02 7.848128080368041992e-01
-2.058209627866744995e-01 9.104360640048980713e-02 -6.515351682901382446e-02
-1.129247322678565979e-01 -2.948837578296661377e-01 5.688943862915039062e-01
-4.225541949272155762e-01 -1.392365097999572754e-01 -2.377831935882568359e-01
-3.860070407390594482e-01 -2.336897104978561401e-01 3.270391821861267090e-01
1.326825916767120361e-01 1.271128356456756592e-01 2.419697493314743042e-01
-3.595393002033233643e-01 -7.231695950031280518e-02 -4.226764738559722900e-01
2.415584474802017212e-01 5.257117748260498047e-02 4.703413844108581543e-01
3.992153406143188477e-01 -1.008401215076446533e-01 2.863840758800506592e-01
3.937557935714721680e-01 -7.683880627155303955e-03 2.723151743412017822e-01
1.642835736274719238e-01 -1.145936101675033569e-01 7.273039221763610840e-01
3.373207151889801025e-01 -4.393436014652252197e-02 4.732666313648223877e-01
-1.618292480707168579e-01 -2.147643566131591797e-01 -7.053933143615722656e-01
-9.739710390567779541e-02 -1.960153281688690186e-01 7.607533335685729980e-01
1.086307018995285034e-01 1.269397139549255371e-02 6.634590625762939453e-01
1.283923983573913574e-01 1.260241270065307617e-01 -4.125533699989318848e-01
-1.542183756828308105e-01 -2.878279089927673340e-01 -5.378970503807067871e-01
2.647778093814849854e-01 1.099630296230316162e-01 1.717536002397537231e-01
-8.034577220678329468e-02 -2.911564707756042480e-01 -5.565500855445861816e-01
-3.325709402561187744e-01 -2.855690121650695801e-01 -2.612266838550567627e-01
-3.843430578708648682e-01 -2.687688171863555908e-01 1.718873381614685059e-01
3.363989889621734619e-01 -9.017940610647201538e-02 -5.881070494651794434e-01
2.364778220653533936e-01 -2.897316217422485352e-01 -9.251893311738967896e-02
-1.294573545455932617e-01 -1.842398047447204590e-01 7.595435380935668945e-01
-2.057023197412490845e-01 2.393698692321777344e-02 -5.630219578742980957e-01
4.192754924297332764e-01 -2.254989743232727051e-02 -3.227684497833251953e-01
-1.166806276887655258e-02 1.329297721385955811e-01 1.522206217050552368e-01
-2.658846974372863770e-01 -2.228038907051086426e-01 6.116192340850830078e-01
-2.904585599899291992e-01 -9.694900363683700562e-02 -6.167375445365905762e-01
-2.411107718944549561e-01 -3.414251804351806641e-01 1.588426828384399414e-01
-1.090787649154663086e-01 1.184961348772048950e-01 -2.215548902750015259e-01
-2.998723089694976807e-01 4.263265430927276611e-02 -9.249323979020118713e-03
-1.083891559392213821e-02 1.408262401819229126e-01 2.022904343903064728e-02
-6.436673551797866821e-02 7.942800223827362061e-02 4.517633914947509766e-01
-4.052951931953430176e-01 -2.531334459781646729e-01 1.021233275532722473e-01
2.771657109260559082e-01 -2.104301154613494873e-01 -4.903275966644287109e-01
1.801576465368270874e-01 6.862545013427734375e-02 -6.312997937202453613e-01
5.240979045629501343e-02 -3.100316524505615234e-01 4.516137242317199707e-01
3.621652126312255859e-01 -2.069820761680603027e-01 -1.298578232526779175e-01
-2.850047647953033447e-01 -3.110476136207580566e-01 3.169154524803161621e-01
-4.312826395034790039e-01 -1.066141426563262939e-01 -9.719951450824737549e-02
1.798478066921234131e-01 -2.808818817138671875e-01 3.914526104927062988e-01
-6.988735496997833252e-02 1.076721400022506714e-01 -4.194738566875457764e-01
2.191687375307083130e-02 1.454525440931320190e-01 -1.864156499505043030e-02
3.975445628166198730e-01 -1.228031739592552185e-01 2.601236104965209961e-01
-2.650591731071472168e-01 -2.980527877807617188e-01 -3.695826232433319092e-01
-1.691861599683761597e-01 -3.277395963668823242e-01 4.032792448997497559e-01
4.260013997554779053e-01 -2.946846187114715576e-03 -2.353252768516540527e-01
1.848597526550292969e-01 -2.733973562717437744e-01 4.171526432037353516e-01
-1.447908580303192139e-01 -3.581604361534118652e-01 -6.871636956930160522e-02
-3.169473111629486084e-01 1.365917921066284180e-02 -2.830517292022705078e-01
-1.296686977148056030e-01 1.343591511249542236e-02 6.106083989143371582e-01
8.563119918107986450e-02 -3.096317946910858154e-01 -3.977994620800018311e-01
1.857865899801254272e-01 3.439699113368988037e-02 -7.058067917823791504e-01
1.935813128948211670e-01 9.546053409576416016e-02 3.726943731307983398e-01
-9.309923648834228516e-02 -3.616555929183959961e-01 8.541520684957504272e-02
-2.202104926109313965e-01 -3.120790719985961914e-01 -3.749874234199523926e-01
-2.119975239038467407e-01 4.769158363342285156e-02 3.784642815589904785e-01
2.157228589057922363e-01 3.753398358821868896e-02 5.387526750564575195e-01
4.051421880722045898e-01 -9.668016433715820312e-02 -3.748069703578948975e-01
1.522287577390670776e-01 -2.319288104772567749e-01 -6.292501091957092285e-01
3.670631349086761475e-01 -4.042812436819076538e-02 -5.248613953590393066e-01
3.271420896053314209e-01 9.923936426639556885e-02 -1.788655221462249756e-01
4.318523406982421875e-01 -7.067674398422241211e-02 -2.567349374294281006e-01
1.808047890663146973e-01 1.321314126253128052e-01 1.496887803077697754e-01
2.051348388195037842e-01 1.252927184104919434e-01 -3.444709479808807373e-01
-1.776409894227981567e-01 -3.548280596733093262e-01 1.295612752437591553e-01
8.045761287212371826e-02 1.130955219268798828e-01 -4.976001977920532227e-01
2.041908949613571167e-01 1.000686138868331909e-01 3.391197323799133301e-01
2.787995934486389160e-01 -1.306443810462951660e-01 -6.571935415267944336e-01
-3.278888761997222900e-01 -2.267267107963562012e-01 5.043046474456787109e-01
-1.109799593687057495e-01 1.200693994760513306e-01 -1.829911917448043823e-01
-2.389196306467056274e-01 -1.192405745387077332e-01 6.854996681213378906e-01
-1.527265012264251709e-01 -2.394933998584747314e-02 -7.335138320922851562e-01
-5.315608903765678406e-02 -3.607681989669799805e-01 8.438907563686370850e-02
-3.763955831527709961e-01 -1.991289108991622925e-02 -9.056483954191207886e-02
2.417532056570053101e-01 -1.116605550050735474e-01 6.441001296043395996e-01
1.484101414680480957e-01 1.337591111660003662e-01 1.734293401241302490e-01
2.005272060632705688e-01 -1.240668222308158875e-01 -7.620365619659423828e-01
-3.662583231925964355e-01 -1.416187137365341187e-01 4.693387448787689209e-01
-7.759373635053634644e-02 1.308225393295288086e-01 -7.056603580713272095e-02
-2.302295714616775513e-01 -1.743822395801544189e-01 -6.912258267402648926e-01
2.243372201919555664e-01 8.379042148590087891e-02 3.869367837905883789e-01
4.277774095535278320e-01 -5.816689878702163696e-02 -2.927193939685821533e-01
6.866884417831897736e-03 1.431000679731369019e-01 -1.649467796087265015e-01
3.498218357563018799e-01 -2.137596011161804199e-01 1.236501857638359070e-01
3.677440881729125977e-01 -1.980182230472564697e-01 -1.772318333387374878e-01
-3.598794639110565186e-01 -2.303279638290405273e-01 -3.794665634632110596e-01
-3.694142997264862061e-01 -2.873516380786895752e-01 -1.943760924041271210e-02
-1.492564231157302856e-01 -1.358481794595718384e-01 -7.879305481910705566e-01
2.987525165081024170e-01 1.513994485139846802e-02 4.720844626426696777e-01
-1.263764649629592896e-01 1.129846423864364624e-01 -2.308746129274368286e-01
-2.154605239629745483e-01 4.125669598579406738e-02 -4.828681349754333496e-01
-1.424204707145690918e-01 -3.501400947570800781e-01 2.564499080181121826e-01
2.060354948043823242e-01 7.122905552387237549e-02 -6.031386256217956543e-01
1.359716802835464478e-01 -1.042364314198493958e-01 7.499320507049560547e-01
-2.404392808675765991e-01 -1.036356464028358459e-01 6.749885678291320801e-01
1.347656548023223877e-01 1.231188774108886719e-01 -4.291045963764190674e-01
-3.402708470821380615e-01 -8.831090480089187622e-02 4.861451089382171631e-01
-3.430800735950469971e-01 -2.938442230224609375e-01 2.272254675626754761e-01
-2.876199781894683838e-01 -6.394928693771362305e-02 -5.921152830123901367e-01
3.265458643436431885e-01 -1.643444001674652100e-01 -5.014297366142272949e-01
-4.430062174797058105e-01 -1.453615427017211914e-01 5.217554047703742981e-03
-3.182468712329864502e-01 -4.790940880775451660e-02 4.634398818016052246e-01
-3.278627395629882812e-01 -2.729501426219940186e-01 -3.344931006431579590e-01
-3.058872818946838379e-01 -1.875146329402923584e-01 -5.699801445007324219e-01
-4.365085661411285400e-01 -1.588399857282638550e-01 1.591797471046447754e-01
-2.148370593786239624e-01 -1.668733954429626465e-01 7.122963070869445801e-01
9.175896644592285156e-02 -3.291308283805847168e-01 2.594833374023437500e-01
-3.025726675987243652e-01 -2.964284420013427734e-01 -2.935881316661834717e-01
-1.581806242465972900e-01 7.614578306674957275e-02 3.416202962398529053e-01
-1.808156073093414307e-01 -2.764383852481842041e-01 -5.545332431793212891e-01
-2.354719340801239014e-01 7.714894413948059082e-02 -1.097644045948982239e-01
1.112543046474456787e-01 -3.212848305702209473e-01 2.840508222579956055e-01
-3.103884756565093994e-01 1.458980888128280640e-02 2.499865740537643433e-01
1.098528280854225159e-01 -2.478354573249816895e-01 -6.255895495414733887e-01
1.523353159427642822e-01 5.805203318595886230e-02 -6.753405928611755371e-01
-3.198852837085723877e-01 -3.055039644241333008e-01 -1.746457666158676147e-01
3.694635927677154541e-01 4.340097308158874512e-02 -3.769440352916717529e-01
1.869594901800155640e-01 -2.052313387393951416e-01 6.166859865188598633e-01
4.623928666114807129e-02 1.476430147886276245e-01 -4.292858392000198364e-02
2.168273329734802246e-01 -2.401673644781112671e-01 4.817408025264739990e-01
-1.386362910270690918e-01 1.049304008483886719e-01 1.673569083213806152e-01
2.018326520919799805e-01 -3.042656183242797852e-01 -1.033282205462455750e-01
1.294625103473663330e-01 -3.061497211456298828e-01 3.556548058986663818e-01
2.744957208633422852e-01 -2.515535950660705566e-01 -3.043056726455688477e-01
3.383025228977203369e-01 -2.287730276584625244e-01 -9.223353862762451172e-02
-2.052299864590167999e-02 -3.540087342262268066e-01 -1.439074724912643433e-01
4.479023162275552750e-03 -3.126235008239746094e-01 4.802756011486053467e-01
1.203154623508453369e-01 -3.335147500038146973e-01 4.686447232961654663e-02
2.011210620403289795e-01 -2.510527074337005615e-01 -4.987402856349945068e-01
3.933066725730895996e-01 5.584676563739776611e-02 -1.287838816642761230e-01
1.506362259387969971e-01 1.435335427522659302e-01 -2.119204699993133545e-01
-2.026590853929519653e-01 9.182876348495483398e-02 -1.032692715525627136e-01
-3.199705183506011963e-01 -9.922299534082412720e-02 5.455050468444824219e-01
1.578663140535354614e-01 -2.037802934646606445e-01 -6.904404759407043457e-01
4.406690001487731934e-01 -3.029748052358627319e-02 1.314281113445758820e-02
2.702725529670715332e-01 -5.583792179822921753e-02 -7.080151438713073730e-01
-3.323744535446166992e-01 -8.544144779443740845e-02 -5.186759829521179199e-01
1.222586259245872498e-01 1.470471471548080444e-01 4.178076982498168945e-03
4.285303950309753418e-01 -1.792001724243164062e-02 1.120575889945030212e-01
3.840718045830726624e-02 -1.997032165527343750e-01 -7.688646316528320312e-01
6.566674262285232544e-02 -2.622420489788055420e-01 -6.155437231063842773e-01
3.576283156871795654e-01 -1.796219199895858765e-01 2.790712118148803711e-01
3.599458336830139160e-01 -1.492408812046051025e-01 3.565868437290191650e-01
-1.343082338571548462e-01 -3.588714599609375000e-01 1.325613856315612793e-01
-3.837388157844543457e-01 -2.666672766208648682e-01 1.935128420591354370e-01
-1.863873004913330078e-01 5.924935638904571533e-02 -4.688384830951690674e-01
-1.470246762037277222e-01 -3.384731113910675049e-01 -2.967084646224975586e-01
1.107441820204257965e-02 -3.186990022659301758e-01 -4.184126555919647217e-01
3.697353005409240723e-01 -9.426738321781158447e-02 -5.023754835128784180e-01
2.617339193820953369e-01 7.763627171516418457e-02 -5.152592062950134277e-01
7.439848035573959351e-02 1.226897388696670532e-01 -4.418977797031402588e-01
-3.081801235675811768e-01 -1.417313069105148315e-01 5.943343639373779297e-01
-3.146954774856567383e-01 -1.471323966979980469e-01 -5.799261927604675293e-01
1.974820494651794434e-01 -2.943987250328063965e-01 2.520262002944946289e-01
2.501423060894012451e-01 1.213497966527938843e-01 1.066058054566383362e-01
3.616862893104553223e-01 6.664538383483886719e-02 -2.967006266117095947e-01
-1.475402712821960449e-02 1.414039731025695801e-01 -2.023652195930480957e-02
-2.993940412998199463e-01 4.216939210891723633e-02 -9.717866778373718262e-02
-1.892385333776473999e-01 -2.435927391052246094e-01 6.559236049652099609e-01
-4.054890945553779602e-03 6.203937530517578125e-02 -6.682082414627075195e-01
-1.298079341650009155e-01 -3.177087008953094482e-01 -4.308871626853942871e-01
1.043343469500541687e-01 7.803678512573242188e-02 4.981175363063812256e-01
3.916031867265701294e-02 -1.741066426038742065e-01 -8.042068481445312500e-01
3.832498490810394287e-01 4.888115823268890381e-02 -2.898798286914825439e-01
-3.240851163864135742e-01 -2.234537005424499512e-01 -4.826205372810363770e-01
-3.985472917556762695e-01 -5.856675282120704651e-02 -1.944582313299179077e-01
-1.707970798015594482e-01 -3.430804014205932617e-01 -2.351900637149810791e-01
-3.146643042564392090e-01 -3.628836572170257568e-02 4.430522322654724121e-01
3.283271566033363342e-02 1.456762105226516724e-01 -1.615403890609741211e-01
-2.209984958171844482e-01 1.167002320289611816e-02 -5.704314708709716797e-01
-5.863535031676292419e-02 5.336719751358032227e-02 5.525859594345092773e-01
2.229931205511093140e-01 -2.856632471084594727e-01 2.263888567686080933e-01
3.251821398735046387e-01 -1.214850693941116333e-01 -5.821652412414550781e-01
1.151937916874885559e-01 -3.347052335739135742e-01 -3.928042203187942505e-02
-2.725425958633422852e-01 -1.385668665170669556e-02 4.788927733898162842e-01
-7.850137352943420410e-02 -9.083469212055206299e-02 -8.333361744880676270e-01
1.376327127218246460e-01 1.388151943683624268e-01 -2.955351471900939941e-01
-3.714261949062347412e-02 -2.438838630914688110e-01 -6.942995786666870117e-01
-1.192069351673126221e-01 -3.284373283386230469e-01 4.271166920661926270e-01
4.332674145698547363e-01 -3.884577006101608276e-02 1.130403503775596619e-01
-7.402203232049942017e-02 1.294510215520858765e-01 3.969697654247283936e-02
1.358803957700729370e-01 3.497572243213653564e-02 -7.318046092987060547e-01
-1.514217406511306763e-01 -2.808708548545837402e-01 -5.623651742935180664e-01
2.741570174694061279e-01 2.524138987064361572e-02 4.918657243251800537e-01
-4.923984408378601074e-02 -3.535080552101135254e-01 -1.781523525714874268e-01
1.314499080181121826e-01 -3.133808374404907227e-01 2.992880642414093018e-01
3.641964197158813477e-01 -1.998326927423477173e-01 1.277517080307006836e-01
3.963625729084014893e-01 -5.403257161378860474e-02 -4.385516345500946045e-01
-6.333294324576854706e-03 1.058350354433059692e-01 3.660348057746887207e-01
-5.366064980626106262e-02 -3.598316907882690430e-01 -6.666923314332962036e-02
1.508669648319482803e-02 6.064619123935699463e-02 -6.794331669807434082e-01
-3.152993917465209961e-01 -2.903939187526702881e-01 3.492059111595153809e-01
-1.256977766752243042e-01 -3.573811054229736328e-01 -1.133388355374336243e-01
-4.030527770519256592e-01 -2.272707074880599976e-01 2.679418325424194336e-01
-3.772341609001159668e-01 -1.410863101482391357e-01 -4.284585118293762207e-01
3.103452622890472412e-01 -2.192633152008056641e-01 3.068819642066955566e-01
-2.655613124370574951e-01 6.277741491794586182e-02 -6.116236001253128052e-02
-2.725999951362609863e-01 -3.338542580604553223e-01 1.277200877666473389e-01
-2.258896380662918091e-01 -3.281683325767517090e-01 3.316158056259155273e-01
-3.406674563884735107e-01 -1.066640019416809082e-03 1.986048817634582520e-01
1.662072241306304932e-01 -2.519575357437133789e-01 -5.503899455070495605e-01
-2.947592437267303467e-01 -2.153526693582534790e-01 -5.524422526359558105e-01
2.529024183750152588e-01 -1.222506761550903320e-01 6.238140463829040527e-01
-2.214166224002838135e-01 -2.835163474082946777e-01 -4.912779629230499268e-01
-2.077378332614898682e-01 -3.479263782501220703e-01 -1.057049036026000977e-01
-3.898553252220153809e-01 -8.417684584856033325e-02 -3.293235301971435547e-01
-3.123752176761627197e-01 2.633336186408996582e-02 -2.087518870830535889e-01
-1.057876572012901306e-01 -2.967104315757751465e-01 -5.301589965820312500e-01
-2.465100139379501343e-01 -3.109797835350036621e-01 3.973905742168426514e-01
3.471665978431701660e-01 -2.127885818481445312e-05 3.994568288326263428e-01
1.599215567111968994e-01 -1.595612317323684692e-01 -7.612350583076477051e-01
1.265946626663208008e-01 7.069101929664611816e-02 -6.525663733482360840e-01
-8.957696706056594849e-02 -3.618122935295104980e-01 -2.052921056747436523e-02
3.304841518402099609e-01 -2.260308116674423218e-01 -2.128927558660507202e-01
-3.858627676963806152e-01 -2.591570615768432617e-01 -1.718808561563491821e-01
1.188536882400512695e-01 -5.242424830794334412e-02 7.405576109886169434e-01
2.392836287617683411e-02 -3.054057955741882324e-01 -4.780887067317962646e-01
2.775023579597473145e-01 -1.068501025438308716e-01 5.928080677986145020e-01
9.412559121847152710e-02 -3.396268188953399658e-01 -5.504006519913673401e-02
3.097725808620452881e-01 7.729059457778930664e-02 2.564958333969116211e-01
-1.777545548975467682e-02 -3.390610218048095703e-01 3.417611122131347656e-01
3.709812760353088379e-01 1.040297001600265503e-02 3.133747875690460205e-01
-3.100785613059997559e-01 -3.058246970176696777e-01 2.757977545261383057e-01
1.794484257698059082e-01 -1.221865490078926086e-01 -7.822279334068298340e-01
-1.016192734241485596e-01 1.025846153497695923e-01 2.779674828052520752e-01
-2.773590683937072754e-01 -3.202984631061553955e-01 -2.065495401620864868e-01
-3.614760339260101318e-01 -2.028112113475799561e-02 -2.415214031934738159e-01
-3.068468868732452393e-01 2.780731022357940674e-02 1.678146421909332275e-01
1.542838513851165771e-01 1.372606009244918823e-01 1.300779581069946289e-01
2.286571413278579712e-01 -2.193645238876342773e-01 -5.597464442253112793e-01
2.758143246173858643e-01 -2.465546727180480957e-01 2.966431081295013428e-01
-5.650921538472175598e-02 -3.383733928203582764e-01 3.676185309886932373e-01
-2.143421955406665802e-02 -3.154068589210510254e-01 4.818892776966094971e-01
-2.206198573112487793e-01 -3.419287204742431641e-01 -1.540259718894958496e-01
-8.342926204204559326e-02 -3.377301692962646484e-01 -3.295254707336425781e-01
2.559116780757904053e-01 2.684070169925689697e-02 5.146445631980895996e-01
-2.971882559359073639e-02 -1.675581336021423340e-01 -8.150722384452819824e-01
1.269133836030960083e-01 -2.827104628086090088e-01 -4.814712107181549072e-01
6.402562558650970459e-02 -3.463020622730255127e-01 7.820045202970504761e-02
5.583281069993972778e-02 -3.332032859325408936e-01 2.977748811244964600e-01
9.318368881940841675e-02 3.547848761081695557e-02 -7.426053881645202637e-01
-1.671071648597717285e-01 -3.338869810104370117e-01 -3.112589418888092041e-01
-4.082227349281311035e-01 -1.316799521446228027e-01 -3.093860745429992676e-01
-4.075192511081695557e-01 -1.160959154367446899e-01 -2.990505695343017578e-01
1.308696717023849487e-01 -3.066647946834564209e-01 -3.421974778175354004e-01
-2.659402489662170410e-01 -3.088878989219665527e-01 3.728461861610412598e-01
-2.429979294538497925e-01 -1.853481829166412354e-01 6.751633286476135254e-01
4.194560945034027100e-01 -1.392880380153656006e-01 1.706090755760669708e-02
-3.071238398551940918e-01 -1.892704069614410400e-01 5.849825739860534668e-01
1.391740590333938599e-01 -3.233647942543029785e-01 -1.537636965513229370e-01
1.322460733354091644e-02 -1.233458146452903748e-01 -8.479644656181335449e-01
-1.872024536132812500e-01 -6.502500176429748535e-02 -7.412174344062805176e-01
-1.454748660326004028e-01 -7.503461837768554688e-02 -7.867770195007324219e-01
4.118583202362060547e-01 -1.329429596662521362e-01 -2.441005557775497437e-01
-9.947575628757476807e-02 -3.590815663337707520e-01 1.569971442222595215e-01
3.849094510078430176e-01 -1.332060545682907104e-01 2.953231632709503174e-01
3.659048378467559814e-01 6.816782057285308838e-02 -2.626573145389556885e-01
-1.580325961112976074e-01 -2.530620396137237549e-01 6.580114364624023438e-01
3.275952115654945374e-02 -3.256795406341552734e-01 3.856931328773498535e-01
8.100982755422592163e-02 -3.206182718276977539e-01 3.514715433120727539e-01
-2.605495154857635498e-01 6.202532351016998291e-02 -1.659083813428878784e-01
1.456242054700851440e-02 -3.249269723892211914e-01 4.086010158061981201e-01
-4.316694736480712891e-01 -1.349507868289947510e-01 -1.686019301414489746e-01
2.103386819362640381e-01 -2.897936999797821045e-01 2.425135225057601929e-01
-1.846010833978652954e-01 -2.535503506660461426e-01 6.406630277633666992e-01
-9.878159034997224808e-04 1.374645084142684937e-01 1.092882230877876282e-01
-3.057741560041904449e-02 1.213299781084060669e-01 2.408491820096969604e-01
-1.822469085454940796e-01 -2.389321178197860718e-01 -6.468195915222167969e-01
2.454130649566650391e-01 -1.987338066101074219e-01 5.383105874061584473e-01
-3.429393768310546875e-01 -2.276704013347625732e-01 4.696495234966278076e-01
2.631031274795532227e-01 1.139809936285018921e-02 -6.681268811225891113e-01
7.579157501459121704e-02 6.196387112140655518e-02 -6.850042939186096191e-01
-4.028098583221435547e-01 -1.571926027536392212e-01 -3.360303640365600586e-01
2.383856624364852905e-01 2.685102820396423340e-02 5.369703173637390137e-01
-2.088024914264678955e-01 -3.517042696475982666e-01 1.247263513505458832e-02
-4.244197309017181396e-01 -2.275093495845794678e-01 -2.247767336666584015e-02
-2.876647114753723145e-01 -1.123878881335258484e-01 -6.284521818161010742e-01
1.609811559319496155e-02 1.073826104402542114e-01 3.692142367362976074e-01
4.352293908596038818e-01 -1.039397418498992920e-01 -1.261737197637557983e-01
-2.495822608470916748e-01 -5.507829040288925171e-02 -6.488466262817382812e-01
-4.355236589908599854e-01 -1.100199446082115173e-01 1.467732898890972137e-02
2.472706437110900879e-01 -2.858147025108337402e-01 -4.680837690830230713e-02
-2.593906819820404053e-01 -3.388700485229492188e-01 -3.208420425653457642e-02
-1.986353695392608643e-01 4.998415708541870117e-02 -4.836122989654541016e-01
3.051398098468780518e-01 -2.107750028371810913e-01 3.606876432895660400e-01
-2.962121367454528809e-01 -3.159821629524230957e-01 2.457795888185501099e-01
3.791023418307304382e-02 1.075177192687988281e-01 3.757957816123962402e-01
1.441879421472549438e-01 -1.316670477390289307e-01 -8.009542226791381836e-01
1.489529907703399658e-01 8.028747141361236572e-02 -6.146212816238403320e-01
-1.520126760005950928e-01 7.428102195262908936e-02 3.637149035930633545e-01
-7.837129384279251099e-02 -3.307020664215087891e-01 -3.757541477680206299e-01
2.653520405292510986e-01 -2.546768188476562500e-01 -3.184144198894500732e-01
5.242205038666725159e-02 -3.440361022949218750e-01 -1.510048210620880127e-01
2.913321927189826965e-02 5.056351423263549805e-03 6.931154131889343262e-01
1.675658859312534332e-02 -2.367959618568420410e-01 6.988116502761840820e-01
1.983286738395690918e-01 1.290302276611328125e-01 -3.220124244689941406e-01
3.863008618354797363e-01 -1.793451607227325439e-01 9.572619199752807617e-02
-4.204044342041015625e-01 -7.855340838432312012e-02 6.413273513317108154e-02
-3.589033186435699463e-01 -2.012656182050704956e-01 -4.376761615276336670e-01
3.926515579223632812e-01 5.405022203922271729e-02 6.840569898486137390e-03
3.391050398349761963e-01 -2.245603799819946289e-01 1.041828915476799011e-01
-1.418979316949844360e-01 -2.596793174743652344e-01 -6.275991797447204590e-01
3.717332482337951660e-01 -1.517251878976821899e-02 -4.949874281883239746e-01
6.528043746948242188e-02 -1.580836474895477295e-01 7.730772495269775391e-01
-2.634018361568450928e-01 -1.801637411117553711e-01 6.541625857353210449e-01
-2.205827981233596802e-01 1.812232285737991333e-02 -5.527917742729187012e-01
-4.014415144920349121e-01 -2.419241815805435181e-01 2.213697582483291626e-01
1.761304140090942383e-01 7.061587274074554443e-02 4.836068451404571533e-01
3.393440544605255127e-01 9.509691596031188965e-02 -1.027672067284584045e-01
7.336100935935974121e-02 -7.906114310026168823e-02 -8.494833111763000488e-01
-4.507926106452941895e-02 -3.607144355773925781e-01 -1.163625065237283707e-02
1.994798332452774048e-01 1.400904208421707153e-01 -1.390452831983566284e-01
-4.401913583278656006e-01 -1.443221867084503174e-01 -8.222518861293792725e-02
3.847469985485076904e-01 -2.554232627153396606e-02 -4.658773839473724365e-01
2.167606055736541748e-01 -1.159545406699180603e-01 -7.520014047622680664e-01
3.543353974819183350e-01 7.918763160705566406e-02 6.690128892660140991e-02
2.218147069215774536e-01 -1.999267041683197021e-01 -6.223834156990051270e-01
1.692091673612594604e-01 4.297544062137603760e-02 5.667135119438171387e-01
3.931527733802795410e-01 -9.201262891292572021e-02 3.187569081783294678e-01
1.774564087390899658e-01 -3.044517636299133301e-01 2.344089299440383911e-01
-3.067129254341125488e-01 -1.477804183959960938e-01 -5.947838425636291504e-01
3.232750594615936279e-01 -2.168158143758773804e-01 2.651112377643585205e-01
2.076361179351806641e-01 -1.017150878906250000e-01 6.874050498008728027e-01
1.172221302986145020e-01 -2.735633850097656250e-01 -5.317876935005187988e-01
-1.690255478024482727e-02 -2.966541051864624023e-01 5.559492707252502441e-01
2.495516240596771240e-01 -2.848306894302368164e-01 2.050279267132282257e-02
-4.263550043106079102e-01 -1.003750190138816833e-01 -1.334860920906066895e-01
3.190936148166656494e-01 1.050167530775070190e-01 -5.358113348484039307e-02
-3.915536701679229736e-01 -6.690857559442520142e-02 2.582531273365020752e-01
4.105163514614105225e-01 3.818728029727935791e-02 -7.874438911676406860e-02
-3.532318025827407837e-02 -2.639286816120147705e-01 -6.440402269363403320e-01
3.693484663963317871e-01 6.281305849552154541e-02 -2.816712260246276855e-01
-3.751895725727081299e-01 -1.724519729614257812e-01 -4.237028360366821289e-01
-1.043770983815193176e-01 -3.521845042705535889e-01 -1.992073804140090942e-01
-4.873339831829071045e-02 -3.123896420001983643e-01 -4.718785583972930908e-01
-2.772224843502044678e-01 5.215770006179809570e-02 9.464673697948455811e-02
-3.260758817195892334e-01 8.477926254272460938e-03 -2.684547603130340576e-01
1.635451167821884155e-01 -2.828819751739501953e-01 -4.224061369895935059e-01
-2.066365331411361694e-01 7.293251156806945801e-02 2.393918186426162720e-01
-4.195680916309356689e-01 -1.704831421375274658e-01 2.768135964870452881e-01
-2.369032949209213257e-01 -2.573308944702148438e-01 -5.498157143592834473e-01
-2.270025014877319336e-01 2.100303769111633301e-02 4.584243595600128174e-01
1.734610646963119507e-01 -3.501217812299728394e-02 -7.940206527709960938e-01
-1.049606353044509888e-01 -3.117202222347259521e-02 7.143076658248901367e-01
4.206300973892211914e-01 -5.453871190547943115e-02 2.063104808330535889e-01
-3.276182711124420166e-01 -2.975085973739624023e-01 2.687818706035614014e-01
3.462196588516235352e-01 8.897921442985534668e-02 1.634467393159866333e-03
-8.577792905271053314e-03 -9.506635367870330811e-02 7.968351840972900391e-01
4.139684736728668213e-01 -1.215268820524215698e-01 -2.721423208713531494e-01
8.734738081693649292e-02 1.349177658557891846e-01 1.932443827390670776e-01
-6.462777405977249146e-02 1.213417202234268188e-01 1.868456006050109863e-01
-3.838004767894744873e-01 -2.593988180160522461e-02 -9.187694638967514038e-03
-3.358457088470458984e-01 -3.030517697334289551e-01 -1.140910312533378601e-01
4.230126440525054932e-01 1.177489757537841797e-02 -1.972841918468475342e-01
-3.774586319923400879e-01 -1.820695847272872925e-01 -4.084142446517944336e-01
-3.413280546665191650e-01 -9.692162275314331055e-04 -2.431069165468215942e-01
-3.817883729934692383e-01 -2.566726207733154297e-01 -2.081878930330276489e-01
-7.579357177019119263e-02 1.173912435770034790e-01 -3.335628211498260498e-01
1.768170744180679321e-01 -2.677695751190185547e-01 -4.716169238090515137e-01
-4.325697422027587891e-01 -1.140237227082252502e-01 -1.121521517634391785e-01
-1.630799770355224609e-01 2.790856361389160156e-02 -6.191536188125610352e-01
3.089782968163490295e-02 1.369985342025756836e-01 1.532582491636276245e-01
-3.170832991600036621e-01 -1.825285255908966064e-01 -5.540895462036132812e-01
-6.907942704856395721e-03 -3.182448744773864746e-01 -4.309312403202056885e-01
-4.165118336677551270e-01 -7.534682750701904297e-02 -1.115395799279212952e-01
4.265010058879852295e-01 1.179412007331848145e-02 -1.465382426977157593e-01
7.032152265310287476e-02 1.048302203416824341e-01 -5.371273159980773926e-01
-1.484643667936325073e-01 -3.563802242279052734e-01 -1.009882315993309021e-01
3.704319000244140625e-01 -1.358083635568618774e-01 -4.366577267646789551e-01
-9.938074648380279541e-02 -6.597138941287994385e-02 -8.142755627632141113e-01
4.525429382920265198e-02 8.578680455684661865e-02 4.760902225971221924e-01
2.690090835094451904e-01 -7.013162970542907715e-02 6.073159575462341309e-01
-6.931371986865997314e-02 -3.467510342597961426e-01 -2.576594650745391846e-01
-2.074369937181472778e-01 -3.486545681953430176e-01 1.613573580980300903e-01
2.523105144500732422e-01 -2.703696787357330322e-01 -2.516691684722900391e-01
3.790616393089294434e-01 1.570885628461837769e-02 -4.237121939659118652e-01
3.397095203399658203e-01 -6.478567421436309814e-02 -5.912588834762573242e-01
-5.476261675357818604e-02 4.146052896976470947e-02 -6.937325000762939453e-01
1.444243192672729492e-01 1.157438457012176514e-01 3.102591335773468018e-01
-9.892909228801727295e-02 1.079305857419967651e-01 -3.646529614925384521e-01
1.444946229457855225e-01 -3.065810203552246094e-01 3.181758821010589600e-01
4.424146115779876709e-01 -4.636050015687942505e-02 -1.542357206344604492e-01
1.061518192291259766e-01 -2.541202306747436523e-01 6.000511050224304199e-01
-5.473687499761581421e-02 1.066218614578247070e-01 3.190991282463073730e-01
-1.819056719541549683e-01 -1.771854758262634277e-01 7.344467639923095703e-01
-2.861915528774261475e-01 -2.503729760646820068e-01 5.351952314376831055e-01
-2.732965908944606781e-02 -3.332519233226776123e-01 -3.503699302673339844e-01
3.119159936904907227e-01 -2.296504676342010498e-01 -2.903712987899780273e-01
1.430719494819641113e-01 -2.871584892272949219e-01 4.340283274650573730e-01
-4.424206018447875977e-01 -1.477077007293701172e-01 5.972331762313842773e-02
