6.882508993148803711e-01 5.140319094061851501e-02 2.902473509311676025e-01
6.386915445327758789e-01 1.257936507463455200e-01 2.981356084346771240e-01
3.594151437282562256e-01 1.065300852060317993e-01 -7.570285350084304810e-02
6.254872679710388184e-01 1.436292231082916260e-01 -5.656490847468376160e-02
5.801802873611450195e-01 5.464059486985206604e-02 1.961120516061782837e-01
6.908293962478637695e-01 1.281207501888275146e-01 2.414560765027999878e-01
8.164300918579101562e-01 3.208626434206962585e-02 -1.240857094526290894e-01
7.477726340293884277e-01 1.293329298496246338e-01 1.257533878087997437e-01
6.537176370620727539e-01 4.271372407674789429e-02 -1.390168517827987671e-01
6.352877616882324219e-01 6.356690824031829834e-02 3.304324746131896973e-01
9.873261451721191406e-01 4.586374759674072266e-02 7.409433275461196899e-02
4.218102097511291504e-01 8.056087046861648560e-02 -7.028625905513763428e-02
4.801678061485290527e-01 8.094155788421630859e-02 -2.447308450937271118e-01
4.112585783004760742e-01 8.220263570547103882e-02 1.668728888034820557e-02
8.888777494430541992e-01 3.504967316985130310e-02 -1.450838148593902588e-01
7.342915534973144531e-01 1.285919249057769775e-01 -1.615244150161743164e-01
9.433802366256713867e-01 3.366466239094734192e-02 2.819479629397392273e-02
9.910658001899719238e-01 5.723306164145469666e-02 1.126007586717605591e-01
7.326231002807617188e-01 5.443901941180229187e-02 -3.108715116977691650e-01
4.131520092487335205e-01 8.698274940252304077e-02 -1.307682991027832031e-01
7.489202618598937988e-01 1.317229270935058594e-01 6.273627281188964844e-03
9.028051495552062988e-01 4.673304036259651184e-02 2.463337033987045288e-01
9.438795447349548340e-01 5.931928753852844238e-02 -2.112009525299072266e-01
4.639075994491577148e-01 7.538354396820068359e-02 -1.645238399505615234e-01
7.868388891220092773e-01 1.179659366607666016e-01 2.137038558721542358e-01
6.319875717163085938e-01 5.363360792398452759e-02 2.606666088104248047e-01
5.299634933471679688e-01 6.205901503562927246e-02 1.841878145933151245e-01
5.420383214950561523e-01 5.627458170056343079e-02 1.232510656118392944e-01
7.213534116744995117e-01 1.349211931228637695e-01 4.290609434247016907e-02
5.844140648841857910e-01 5.042146518826484680e-02 1.380860507488250732e-01
4.660935401916503906e-01 1.303141713142395020e-01 -2.524747550487518311e-01
6.299710273742675781e-01 4.980288445949554443e-02 -2.044561058282852173e-01
8.207803368568420410e-01 6.122046709060668945e-02 3.448273241519927979e-01
7.460491061210632324e-01 5.723567679524421692e-02 3.429036736488342285e-01
8.736343979835510254e-01 1.097896099090576172e-01 -5.482793599367141724e-02
4.623445272445678711e-01 1.414751708507537842e-01 1.709836721420288086e-01
8.537631034851074219e-01 8.936686813831329346e-02 -2.907239496707916260e-01
9.102435111999511719e-01 1.019558534026145935e-01 2.588594146072864532e-02
9.206811189651489258e-01 8.466874063014984131e-02 -2.032388746738433838e-01
5.600308179855346680e-01 1.133011206984519958e-01 -3.489621281623840332e-01
5.352387428283691406e-01 1.398183405399322510e-01 -2.046813964843750000e-01
8.325504660606384277e-01 3.551624715328216553e-02 -1.750641912221908569e-01
5.800260901451110840e-01 1.465527713298797607e-01 -4.668059200048446655e-02
7.545599937438964844e-01 9.794290363788604736e-02 -3.509190380573272705e-01
7.307775020599365234e-01 1.311551630496978760e-01 1.336253583431243896e-01
5.280525088310241699e-01 7.918188720941543579e-02 3.103654086589813232e-01
8.298617005348205566e-01 9.149412065744400024e-02 -3.101006150245666504e-01
5.234959125518798828e-01 5.836038663983345032e-02 9.535348415374755859e-02
9.296460747718811035e-01 9.611145406961441040e-02 -3.928534314036369324e-02
6.947252750396728516e-01 4.939141124486923218e-02 2.790953814983367920e-01
8.296260833740234375e-01 3.195809200406074524e-02 -1.234808862209320068e-01
7.216171026229858398e-01 1.294688284397125244e-01 1.831942796707153320e-01
4.658927917480468750e-01 6.860775500535964966e-02 -4.061419889330863953e-02
5.301675200462341309e-01 6.030509620904922485e-02 -1.477904915809631348e-01
3.940348625183105469e-01 1.405293941497802734e-01 7.825485616922378540e-02
8.892433047294616699e-01 7.006765902042388916e-02 3.054097294807434082e-01
8.840904235839843750e-01 8.018271625041961670e-02 2.975875437259674072e-01
8.985172510147094727e-01 8.613145351409912109e-02 2.569140493869781494e-01
7.297685742378234863e-01 1.195666864514350891e-01 -2.652959227561950684e-01
5.597321987152099609e-01 5.140694230794906616e-02 -4.543456807732582092e-02
6.564818620681762695e-01 6.487568467855453491e-02 3.486685156822204590e-01
8.605198860168457031e-01 3.650477901101112366e-02 1.995248049497604370e-01
5.216182470321655273e-01 7.851171493530273438e-02 -2.895506322383880615e-01
4.465377926826477051e-01 1.426426470279693604e-01 1.430431306362152100e-01
4.811604619026184082e-01 6.552773714065551758e-02 6.082821264863014221e-02
7.991310358047485352e-01 2.934020385146141052e-02 5.143497511744499207e-02
4.229769706726074219e-01 1.430867314338684082e-01 1.039821878075599670e-01
9.998337626457214355e-01 5.151329189538955688e-02 -2.573281526565551758e-04
4.792523980140686035e-01 1.239052265882492065e-01 2.932074368000030518e-01
4.677485823631286621e-01 7.883076369762420654e-02 2.158674299716949463e-01
7.924187183380126953e-01 3.622271120548248291e-02 1.995885521173477173e-01
4.846408963203430176e-01 1.469786316156387329e-01 9.630268067121505737e-02
4.431574940681457520e-01 1.308502256870269775e-01 -2.318074554204940796e-01
6.753585934638977051e-01 9.767930209636688232e-02 3.924906849861145020e-01
7.703712582588195801e-01 8.382087945938110352e-02 -3.660551309585571289e-01
7.753883004188537598e-01 1.043138802051544189e-01 -3.127420842647552490e-01
3.926505148410797119e-01 1.402150243520736694e-01 -7.663010060787200928e-02
4.371332526206970215e-01 1.469765305519104004e-01 9.886222891509532928e-03
6.784022450447082520e-01 1.090425029397010803e-01 3.648109436035156250e-01
8.232672214508056641e-01 1.170870512723922729e-01 -1.231609284877777100e-01
9.424575567245483398e-01 9.176878631114959717e-02 -5.133572220802307129e-02
8.952345252037048340e-01 2.954839169979095459e-02 -5.986667238175868988e-04
6.360138654708862305e-01 1.320371329784393311e-01 2.499479651451110840e-01
7.935495376586914062e-01 6.803849339485168457e-02 -3.502060472965240479e-01
4.916858077049255371e-01 1.274234503507614136e-01 -2.805470526218414307e-01
7.102271318435668945e-01 3.554900735616683960e-02 -9.093424677848815918e-02
7.748158574104309082e-01 1.242311894893646240e-01 1.521236300468444824e-01
9.252914190292358398e-01 9.350836277008056641e-02 1.355676949024200439e-01
8.014160990715026855e-01 1.220152750611305237e-01 1.114789098501205444e-01
7.431980371475219727e-01 1.150566861033439636e-01 -2.838100492954254150e-01
5.331572294235229492e-01 1.353171467781066895e-01 2.516595423221588135e-01
6.243652701377868652e-01 1.340647637844085693e-01 -2.293851524591445923e-01
4.465351700782775879e-01 1.474610269069671631e-01 2.234190329909324646e-02
7.171673178672790527e-01 1.255661994218826294e-01 -2.264923006296157837e-01
6.314578056335449219e-01 6.499293446540832520e-02 -3.212292492389678955e-01
8.421375155448913574e-01 1.168425828218460083e-01 -1.775915734469890594e-02
8.940372467041015625e-01 8.405356854200363159e-02 2.724491953849792480e-01
7.570400238037109375e-01 1.266473680734634399e-01 1.546428799629211426e-01
6.250550150871276855e-01 1.248848512768745422e-01 -3.002043366432189941e-01
7.681814432144165039e-01 6.515221297740936279e-02 3.677964806556701660e-01
6.063874959945678711e-01 1.384425163269042969e-01 2.001861631870269775e-01
4.568385779857635498e-01 1.466603130102157593e-01 -7.658458501100540161e-02
5.564113855361938477e-01 5.290181934833526611e-02 9.650301188230514526e-02
4.968951344490051270e-01 6.513075530529022217e-02 -1.229847818613052368e-01
5.218554139137268066e-01 7.694181054830551147e-02 2.923730015754699707e-01
5.907467603683471680e-01 7.810870558023452759e-02 -3.477426767349243164e-01
8.486793041229248047e-01 3.871026635169982910e-02 -2.045343220233917236e-01
4.071904122829437256e-01 1.356551349163055420e-01 1.631119251251220703e-01
6.272110939025878906e-01 1.421518027782440186e-01 1.109337732195854187e-01
5.555758476257324219e-01 1.451255381107330322e-01 -1.218953281641006470e-01
4.215058982372283936e-01 1.375630795955657959e-01 -1.646097302436828613e-01
7.741239666938781738e-01 3.118902072310447693e-02 9.295079857110977173e-02
5.256625413894653320e-01 5.872848629951477051e-02 -1.028263792395591736e-01
9.303177595138549805e-01 9.304849058389663696e-02 1.200874894857406616e-01
8.127461671829223633e-01 3.019537776708602905e-02 -7.961981743574142456e-02
5.496950149536132812e-01 8.125545829534530640e-02 3.392480313777923584e-01
5.464546084403991699e-01 7.454593479633331299e-02 3.088656663894653320e-01
6.522711515426635742e-01 1.264393925666809082e-01 2.865799963474273682e-01
6.231030225753784180e-01 4.266502335667610168e-02 4.983961954712867737e-02
5.939865708351135254e-01 1.352509707212448120e-01 -2.345911115407943726e-01
7.316633462905883789e-01 1.333408355712890625e-01 6.359582394361495972e-02
5.796155929565429688e-01 1.451339572668075562e-01 -9.937460720539093018e-02
9.300151467323303223e-01 6.131701916456222534e-02 2.548157870769500732e-01
4.143314063549041748e-01 1.447653472423553467e-01 3.472379595041275024e-02
7.594363093376159668e-01 4.553503543138504028e-02 2.790988981723785400e-01
9.985331296920776367e-01 6.567735970020294189e-02 5.108462180942296982e-03
8.153128027915954590e-01 7.913918793201446533e-02 3.612728714942932129e-01
5.404428839683532715e-01 5.561331659555435181e-02 -8.779334276914596558e-02
8.308488726615905762e-01 1.127102077007293701e-01 1.830121874809265137e-01
7.761992812156677246e-01 3.152360394597053528e-02 1.059169694781303406e-01
8.528164625167846680e-01 3.536880016326904297e-02 -1.689102500677108765e-01
7.575334906578063965e-01 4.001723602414131165e-02 -2.110236883163452148e-01
9.131904840469360352e-01 9.268846362829208374e-02 1.844027787446975708e-01
8.690963387489318848e-01 1.036063060164451599e-01 1.941341906785964966e-01
7.703970670700073242e-01 1.161270290613174438e-01 -2.443993836641311646e-01
7.812444567680358887e-01 3.536710143089294434e-02 -1.645894497632980347e-01
6.129162311553955078e-01 1.439473628997802734e-01 8.595245331525802612e-02
6.090656518936157227e-01 1.438146531581878662e-01 -9.081637114286422729e-02
8.698906898498535156e-01 2.898731455206871033e-02 -3.025953657925128937e-02
6.602796912193298340e-01 4.307062923908233643e-02 -1.570769101381301880e-01
5.555846691131591797e-01 1.398443728685379028e-01 -2.009814083576202393e-01
4.425370097160339355e-01 7.398424297571182251e-02 4.291186109185218811e-02
8.760196566581726074e-01 1.073750704526901245e-01 -1.036001741886138916e-01
4.705393910408020020e-01 7.538764923810958862e-02 1.915858685970306396e-01
9.386447072029113770e-01 7.990963011980056763e-02 2.055608779191970825e-01
7.126394510269165039e-01 1.330876052379608154e-01 -1.280004978179931641e-01
9.342510104179382324e-01 9.309172630310058594e-02 -8.055641502141952515e-02
6.138829588890075684e-01 5.080384761095046997e-02 2.070863842964172363e-01
6.911466717720031738e-01 1.066075190901756287e-01 3.684501945972442627e-01
6.057584881782531738e-01 4.613740742206573486e-02 1.044456213712692261e-01
5.651684403419494629e-01 7.315805554389953613e-02 3.210828602313995361e-01
9.013195037841796875e-01 3.054050356149673462e-02 -4.372613877058029175e-02
8.391736149787902832e-01 9.904946386814117432e-02 -2.670269310474395752e-01
8.977808952331542969e-01 1.051138937473297119e-01 -7.222197018563747406e-04
3.983701765537261963e-01 8.624438196420669556e-02 -4.472767468541860580e-03
4.231370687484741211e-01 8.834086358547210693e-02 -1.752051562070846558e-01
4.160755574703216553e-01 9.167291224002838135e-02 1.876820027828216553e-01
4.859231114387512207e-01 8.410231769084930420e-02 -2.704544663429260254e-01
8.115975260734558105e-01 7.467062771320343018e-02 -3.477773964405059814e-01
5.247532725334167480e-01 1.425034552812576294e-01 1.795241236686706543e-01
9.298629760742187500e-01 9.244395792484283447e-02 -1.125514060258865356e-01
8.299852013587951660e-01 4.701668024063110352e-02 2.884501218795776367e-01
7.422779202461242676e-01 3.900375217199325562e-02 2.088489532470703125e-01
7.306696176528930664e-01 3.618009760975837708e-02 -1.377604603767395020e-01
6.571820378303527832e-01 1.131410524249076843e-01 -3.458327054977416992e-01
8.799839615821838379e-01 3.114596381783485413e-02 -8.975347131490707397e-02
9.081555604934692383e-01 1.012388691306114197e-01 -6.525649130344390869e-02
5.981715321540832520e-01 5.233149975538253784e-02 1.997317820787429810e-01
9.915214776992797852e-01 4.698001220822334290e-02 5.942191183567047119e-02
3.971221745014190674e-01 8.971233665943145752e-02 1.006422638893127441e-01
8.691965341567993164e-01 4.331198334693908691e-02 -2.306284159421920776e-01
5.866780877113342285e-01 8.546924591064453125e-02 3.745488226413726807e-01
4.500555992126464844e-01 7.183197140693664551e-02 -6.513024214655160904e-03
4.336272478103637695e-01 7.840377837419509888e-02 -9.517050534486770630e-02
6.198466420173645020e-01 1.418758481740951538e-01 -1.222228854894638062e-01
5.662220716476440430e-01 7.454867660999298096e-02 -3.166769146919250488e-01
4.464908838272094727e-01 1.348071694374084473e-01 -2.118691504001617432e-01
4.424799978733062744e-01 8.250556141138076782e-02 1.864136606454849243e-01
6.276476979255676270e-01 1.362231373786926270e-01 -2.031947225332260132e-01
4.180807769298553467e-01 1.146872043609619141e-01 2.505913674831390381e-01
6.682707667350769043e-01 1.402767896652221680e-01 -4.795328900218009949e-02
7.382709383964538574e-01 5.855434387922286987e-02 -3.309055566787719727e-01
7.749012708663940430e-01 3.014628961682319641e-02 -2.602135576307773590e-02
6.103516817092895508e-01 4.589563608169555664e-02 -9.928291290998458862e-02
9.583827257156372070e-01 4.133286327123641968e-02 1.320256739854812622e-01
6.704007983207702637e-01 4.380833357572555542e-02 -1.829471737146377563e-01
9.950923323631286621e-01 6.831442564725875854e-02 -1.758847758173942566e-02
9.082407355308532715e-01 3.987843915820121765e-02 -1.759657710790634155e-01
8.076080083847045898e-01 1.173902824521064758e-01 -1.635407209396362305e-01
3.604364693164825439e-01 1.026429831981658936e-01 3.395168483257293701e-02
5.236446261405944824e-01 1.412874907255172729e-01 -1.888682395219802856e-01
7.383682727813720703e-01 3.303419053554534912e-02 -7.269495725631713867e-02
8.334560394287109375e-01 1.185507550835609436e-01 -3.592689055949449539e-03
4.289632439613342285e-01 1.363956034183502197e-01 1.871951967477798462e-01
5.158564448356628418e-01 7.489139586687088013e-02 2.726975083351135254e-01
7.028351426124572754e-01 5.221289768815040588e-02 -2.877233624458312988e-01
7.135810852050781250e-01 5.519584566354751587e-02 3.261016011238098145e-01
7.434639930725097656e-01 3.159330412745475769e-02 2.327072620391845703e-02
8.952583670616149902e-01 3.231362253427505493e-02 -9.799855202436447144e-02
7.900713086128234863e-01 5.248117074370384216e-02 -3.044745028018951416e-01
8.043144941329956055e-01 4.429856315255165100e-02 2.754716873168945312e-01
6.425702571868896484e-01 5.671855062246322632e-02 -2.802738547325134277e-01
8.223375678062438965e-01 1.173943132162094116e-01 1.344315856695175171e-01
6.718841195106506348e-01 4.293644055724143982e-02 1.888680309057235718e-01
6.372251510620117188e-01 1.356350928544998169e-01 2.104188650846481323e-01
6.494599580764770508e-01 4.469362646341323853e-02 -1.651218384504318237e-01
8.712465763092041016e-01 9.370288997888565063e-02 2.645225822925567627e-01
9.159297943115234375e-01 4.666350036859512329e-02 2.330274879932403564e-01
5.460188984870910645e-01 6.067622452974319458e-02 -1.903514862060546875e-01
7.437581419944763184e-01 5.567601695656776428e-02 -3.188615143299102783e-01
6.516172885894775391e-01 4.083437472581863403e-02 1.067032665014266968e-01
7.448779940605163574e-01 1.176462247967720032e-01 -2.637361288070678711e-01
8.483618497848510742e-01 4.214538633823394775e-02 2.524519264698028564e-01
9.259409904479980469e-01 3.941618278622627258e-02 -1.509585529565811157e-01
7.009571194648742676e-01 1.374016106128692627e-01 -1.453010365366935730e-02
7.061912417411804199e-01 1.159090548753738403e-01 3.208140134811401367e-01
7.417508959770202637e-01 3.221958875656127930e-02 6.611700356006622314e-02
6.516492366790771484e-01 4.508431628346443176e-02 1.901497393846511841e-01
4.877896904945373535e-01 1.458037346601486206e-01 -1.185412704944610596e-01
5.326715707778930664e-01 6.111982092261314392e-02 -1.663305759429931641e-01
5.742343664169311523e-01 1.379979401826858521e-01 2.221767008304595947e-01
7.886055707931518555e-01 1.027319803833961487e-01 -3.076042830944061279e-01
6.138074398040771484e-01 1.219296306371688843e-01 3.285005092620849609e-01
9.445020556449890137e-01 8.141263574361801147e-02 1.821681410074234009e-01
8.491960763931274414e-01 3.056709840893745422e-02 1.147236451506614685e-01
8.112475872039794922e-01 1.132046803832054138e-01 -2.055616229772567749e-01
7.566574215888977051e-01 5.204186215996742249e-02 -3.021183907985687256e-01
7.760059833526611328e-01 4.520266130566596985e-02 2.801255285739898682e-01
4.807600975036621094e-01 1.472256928682327271e-01 -8.339956402778625488e-02
8.830361366271972656e-01 9.805627912282943726e-02 -1.965061426162719727e-01
4.503061473369598389e-01 1.158344894647598267e-01 -2.823635339736938477e-01
5.258167982101440430e-01 5.725158378481864929e-02 -5.993726477026939392e-02
6.979100704193115234e-01 6.899487972259521484e-02 -3.613449633121490479e-01
6.425903439521789551e-01 5.602109059691429138e-02 2.899616062641143799e-01
7.645300626754760742e-01 1.191781014204025269e-01 -2.251304090023040771e-01
5.849777460098266602e-01 1.443668156862258911e-01 1.189250349998474121e-01
9.196239113807678223e-01 3.198137506842613220e-02 -4.766902327537536621e-02
6.871756315231323242e-01 1.302792876958847046e-01 2.222528308629989624e-01
7.648003101348876953e-01 3.045049309730529785e-02 2.825659140944480896e-02
8.433144092559814453e-01 1.100466549396514893e-01 1.853679418563842773e-01
4.478534460067749023e-01 7.310152053833007812e-02 6.214819476008415222e-02
5.742506980895996094e-01 1.371635496616363525e-01 -2.237090319395065308e-01
5.238227248191833496e-01 1.487789154052734375e-01 1.378592476248741150e-02
6.742385029792785645e-01 1.339431703090667725e-01 1.918259561061859131e-01
9.873520135879516602e-01 7.421325892210006714e-02 -3.793516661971807480e-03
7.858747243881225586e-01 3.119109943509101868e-02 -8.745457231998443604e-02
6.410307288169860840e-01 7.993404567241668701e-02 -3.740521371364593506e-01
5.518240332603454590e-01 5.753997713327407837e-02 1.744902580976486206e-01
9.418683052062988281e-01 5.193264782428741455e-02 2.207587659358978271e-01
7.720448970794677734e-01 9.317643940448760986e-02 3.667124509811401367e-01
7.101159095764160156e-01 1.319829970598220825e-01 1.645599752664566040e-01
6.399376392364501953e-01 5.321917682886123657e-02 -2.505472600460052490e-01
4.567699134349822998e-01 1.427707672119140625e-01 1.509090960025787354e-01
7.309566140174865723e-01 4.470325261354446411e-02 -2.438751608133316040e-01
6.561629176139831543e-01 5.629198253154754639e-02 3.025163114070892334e-01
7.377666234970092773e-01 9.505469352006912231e-02 -3.662261366844177246e-01
7.748722434043884277e-01 4.888522252440452576e-02 -2.858243584632873535e-01
4.586657285690307617e-01 1.479649841785430908e-01 2.900654636323451996e-02
8.382720351219177246e-01 1.176138594746589661e-01 2.657559514045715332e-02
6.867592930793762207e-01 3.615062311291694641e-02 5.546890944242477417e-02
6.868690848350524902e-01 4.427478462457656860e-02 2.240777611732482910e-01
8.861232995986938477e-01 1.073911115527153015e-01 -3.818486630916595459e-02
3.934855759143829346e-01 1.366691440343856812e-01 1.284777969121932983e-01
7.551283836364746094e-01 3.409828618168830872e-02 -1.246436983346939087e-01
7.657537460327148438e-01 1.233366355299949646e-01 1.872071325778961182e-01
4.099604189395904541e-01 1.445633620023727417e-01 1.080421544611454010e-02
8.650244474411010742e-01 1.074578538537025452e-01 1.586781144142150879e-01
7.335261702537536621e-01 1.266201734542846680e-01 -1.909012645483016968e-01
4.611172676086425781e-01 6.958305090665817261e-02 4.502600431442260742e-02
3.964914083480834961e-01 1.420631110668182373e-01 5.100002512335777283e-02
9.018568992614746094e-01 8.659180253744125366e-02 -2.310016751289367676e-01
8.966549038887023926e-01 1.008218824863433838e-01 -1.290167570114135742e-01
6.135862469673156738e-01 4.830121248960494995e-02 1.710122823715209961e-01
8.895558118820190430e-01 3.396362811326980591e-02 -1.302138268947601318e-01
6.178269386291503906e-01 1.444915682077407837e-01 -3.779980912804603577e-02
3.829400837421417236e-01 1.174588054418563843e-01 -1.829821765422821045e-01
5.242807865142822266e-01 1.339084059000015259e-01 -2.547802329063415527e-01
4.873990416526794434e-01 6.408000737428665161e-02 -4.265192151069641113e-02
8.987492322921752930e-01 5.792431905865669250e-02 2.870255708694458008e-01
8.818669319152832031e-01 2.967632189393043518e-02 6.786753982305526733e-02
7.968493103981018066e-01 3.376645967364311218e-02 -1.469507217407226562e-01
5.970686674118041992e-01 4.608141630887985229e-02 -4.420497268438339233e-02
7.107594609260559082e-01 3.913286700844764709e-02 -1.644680052995681763e-01
7.736877799034118652e-01 1.232028007507324219e-01 -1.595697402954101562e-01
4.978325366973876953e-01 1.488528251647949219e-01 -1.992900297045707703e-02
8.117368221282958984e-01 2.930803969502449036e-02 6.725116074085235596e-02
9.225481152534484863e-01 4.526609182357788086e-02 2.183483541011810303e-01
7.757536172866821289e-01 1.279707252979278564e-01 1.836309768259525299e-02
6.942984461784362793e-01 7.081750035285949707e-02 3.802762329578399658e-01
6.443674564361572266e-01 1.425857245922088623e-01 4.050475731492042542e-02
8.543484807014465332e-01 1.137286648154258728e-01 -5.834164842963218689e-02
4.599862694740295410e-01 8.918620645999908447e-02 2.634259164333343506e-01
6.888521313667297363e-01 6.176602840423583984e-02 -3.337623775005340576e-01
6.803117394447326660e-01 4.822169244289398193e-02 2.584670782089233398e-01
6.699787974357604980e-01 1.305029392242431641e-01 2.378960102796554565e-01
7.573206424713134766e-01 3.156739845871925354e-02 7.697177678346633911e-02
8.714358806610107422e-01 7.886759191751480103e-02 -2.970053851604461670e-01
4.972938895225524902e-01 7.905627787113189697e-02 -2.603870630264282227e-01
3.763865828514099121e-01 1.058854460716247559e-01 1.512305885553359985e-01
7.624633908271789551e-01 1.291344910860061646e-01 -5.982373282313346863e-02
5.718113183975219727e-01 1.430049538612365723e-01 -1.506813317537307739e-01
8.319323658943176270e-01 1.092281863093376160e-01 -2.047494947910308838e-01
8.231956958770751953e-01 9.671236574649810791e-02 3.135493993759155273e-01
6.694266796112060547e-01 1.348268389701843262e-01 -1.762549281120300293e-01
5.344380140304565430e-01 7.600128650665283203e-02 -2.918877601623535156e-01
8.733804225921630859e-01 3.912371024489402771e-02 -1.971020847558975220e-01
5.940287709236145020e-01 9.509324282407760620e-02 3.864607810974121094e-01
4.190880954265594482e-01 1.438478678464889526e-01 8.078494668006896973e-02
4.664135575294494629e-01 1.271864920854568481e-01 -2.667271792888641357e-01
7.438326478004455566e-01 6.876237690448760986e-02 3.781333267688751221e-01
7.095777392387390137e-01 3.929794952273368835e-02 1.830503195524215698e-01
7.165318727493286133e-01 4.713028669357299805e-02 2.740756273269653320e-01
9.218100309371948242e-01 9.683031588792800903e-02 9.848670661449432373e-02
9.648859500885009766e-01 3.789800032973289490e-02 -3.480138629674911499e-02
7.405762672424316406e-01 1.051123291254043579e-01 3.494228124618530273e-01
6.432895064353942871e-01 4.011644795536994934e-02 -9.651664644479751587e-03
6.590873003005981445e-01 3.960638493299484253e-02 9.238596260547637939e-02
4.901939928531646729e-01 1.193625852465629578e-01 3.135037720203399658e-01
8.757993578910827637e-01 8.654304593801498413e-02 2.896403074264526367e-01
7.274167537689208984e-01 3.900996968150138855e-02 1.971145272254943848e-01
4.996559023857116699e-01 1.241246163845062256e-01 3.038991987705230713e-01
5.070121288299560547e-01 1.457477360963821411e-01 -1.237968653440475464e-01
8.100739121437072754e-01 4.152502119541168213e-02 -2.352597862482070923e-01
7.259746789932250977e-01 5.393061414361000061e-02 3.231852352619171143e-01
5.424804687500000000e-01 5.797955393791198730e-02 -1.445948332548141479e-01
9.845594167709350586e-01 4.597694799304008484e-02 -6.707557290792465210e-02
9.790709018707275391e-01 5.077685415744781494e-02 -1.171151921153068542e-01
8.344555497169494629e-01 3.651982918381690979e-02 2.065524011850357056e-01
3.523858487606048584e-01 1.136658638715744019e-01 8.062587678432464600e-02
7.258259057998657227e-01 4.416956752538681030e-02 2.536626160144805908e-01
6.217837929725646973e-01 1.436288356781005859e-01 7.569938153028488159e-02
8.934581279754638672e-01 1.061594486236572266e-01 1.211436279118061066e-02
7.457015514373779297e-01 9.840391576290130615e-02 3.684518635272979736e-01
4.319014549255371094e-01 1.464823037385940552e-01 2.567890472710132599e-02
6.399092078208923340e-01 4.125760123133659363e-02 -6.176029518246650696e-02
5.451465845108032227e-01 1.416900902986526489e-01 -1.814437657594680786e-01
8.926589488983154297e-01 3.318915516138076782e-02 -1.158073395490646362e-01
6.599913239479064941e-01 1.385058462619781494e-01 1.358565241098403931e-01
4.724905490875244141e-01 1.404399722814559937e-01 1.886553466320037842e-01
6.399399042129516602e-01 1.095077097415924072e-01 3.720416128635406494e-01
7.704643607139587402e-01 1.146928369998931885e-01 2.688916027545928955e-01
7.967548966407775879e-01 1.028834953904151917e-01 3.131396174430847168e-01
7.508630156517028809e-01 1.246385052800178528e-01 1.981143653392791748e-01
6.023092269897460938e-01 1.219087094068527222e-01 -3.216322660446166992e-01
7.107837796211242676e-01 1.299520134925842285e-01 1.943972110748291016e-01
5.206245779991149902e-01 1.459104418754577637e-01 1.252889633178710938e-01
4.548465907573699951e-01 1.444333195686340332e-01 -1.208419948816299438e-01
8.381284475326538086e-01 2.943572029471397400e-02 -6.374330818653106689e-02
8.727664947509765625e-01 6.037122383713722229e-02 -2.943582236766815186e-01
9.553465843200683594e-01 8.642195910215377808e-02 8.850587904453277588e-02
5.252285599708557129e-01 1.253949403762817383e-01 -3.018092215061187744e-01
7.039631605148315430e-01 4.496638476848602295e-02 -2.296957224607467651e-01
7.216262817382812500e-01 3.314684331417083740e-02 -2.049538306891918182e-02
4.415001869201660156e-01 9.019224345684051514e-02 2.358676791191101074e-01
5.295013785362243652e-01 7.452531903982162476e-02 -2.781121432781219482e-01
8.623849749565124512e-01 2.876798436045646667e-02 4.739923402667045593e-02
9.068701863288879395e-01 3.159016370773315430e-02 -6.549338996410369873e-02
5.232765078544616699e-01 5.972994863986968994e-02 -1.154658868908882141e-01
8.072456121444702148e-01 1.168607249855995178e-01 1.852629184722900391e-01
9.738250970840454102e-01 8.109889924526214600e-02 -7.095836568623781204e-03
6.231171488761901855e-01 1.185426115989685059e-01 3.424898386001586914e-01
9.667532444000244141e-01 6.106970459222793579e-02 -1.670087426900863647e-01
8.402116298675537109e-01 2.903816476464271545e-02 -4.873657226562500000e-02
5.835064649581909180e-01 1.339966505765914917e-01 2.571160793304443359e-01
5.091172456741333008e-01 1.447465717792510986e-01 1.465382277965545654e-01
6.129736900329589844e-01 4.777961224317550659e-02 -1.462534815073013306e-01
8.463085293769836426e-01 1.156736761331558228e-01 5.743999779224395752e-02
3.617982268333435059e-01 1.041504740715026855e-01 7.318180054426193237e-02
7.245479226112365723e-01 3.279407694935798645e-02 6.115246098488569260e-03
8.327559232711791992e-01 1.147497072815895081e-01 -1.333163529634475708e-01
8.855612874031066895e-01 1.020389944314956665e-01 -1.502566784620285034e-01
4.996462464332580566e-01 7.495274394750595093e-02 2.477417886257171631e-01
5.455425977706909180e-01 1.362192034721374512e-01 2.445019632577896118e-01
8.696616888046264648e-01 3.728474676609039307e-02 -1.822590529918670654e-01
5.017389655113220215e-01 6.686417758464813232e-02 -1.643130332231521606e-01
6.123674511909484863e-01 5.881211161613464355e-02 -2.681583464145660400e-01
4.658621847629547119e-01 7.645414769649505615e-02 -1.810906231403350830e-01
5.785380601882934570e-01 1.434923559427261353e-01 -1.369642913341522217e-01
9.094592332839965820e-01 3.702866286039352417e-02 1.698400676250457764e-01
8.785776495933532715e-01 3.382031247019767761e-02 -1.366637200117111206e-01
8.457332849502563477e-01 2.857287973165512085e-02 -2.305490523576736450e-02
3.823869824409484863e-01 1.362892091274261475e-01 1.041503846645355225e-01
8.654187917709350586e-01 3.145457431674003601e-02 1.274183839559555054e-01
4.868466854095458984e-01 7.203273475170135498e-02 1.972535550594329834e-01
7.121948003768920898e-01 3.440488502383232117e-02 7.365688681602478027e-02
7.388532757759094238e-01 1.235795915126800537e-01 -2.180637717247009277e-01
4.381182789802551270e-01 7.907873392105102539e-02 -1.262614130973815918e-01
8.126730322837829590e-01 1.130320057272911072e-01 2.186430245637893677e-01
7.387605309486389160e-01 3.190129250288009644e-02 -8.078852668404579163e-03
8.291813731193542480e-01 3.106215968728065491e-02 1.264482140541076660e-01
8.610959053039550781e-01 1.016106531023979187e-01 -2.139567136764526367e-01
4.301685094833374023e-01 1.444484293460845947e-01 -8.777035772800445557e-02
6.864084005355834961e-01 3.732771798968315125e-02 1.029476597905158997e-01
5.879974961280822754e-01 1.464654207229614258e-01 2.974455058574676514e-02
4.640470743179321289e-01 1.456364095211029053e-01 1.115604862570762634e-01
8.687400221824645996e-01 1.043002083897590637e-01 -1.716634184122085571e-01
4.887588620185852051e-01 6.346470117568969727e-02 -1.977264508605003357e-02
8.663730621337890625e-01 1.109796166419982910e-01 8.279900252819061279e-02
7.738353013992309570e-01 4.040411114692687988e-02 -2.210052162408828735e-01
6.533002257347106934e-01 1.307447850704193115e-01 2.497907280921936035e-01
5.437672138214111328e-01 7.601122558116912842e-02 -3.020002841949462891e-01
6.686300635337829590e-01 1.044288873672485352e-01 3.807134926319122314e-01
8.539805412292480469e-01 1.013835147023200989e-01 2.448619753122329712e-01
5.375813245773315430e-01 5.744478851556777954e-02 -1.197332888841629028e-01
9.819453954696655273e-01 7.050448656082153320e-02 1.174069195985794067e-01
3.912209570407867432e-01 8.972960710525512695e-02 -5.306357145309448242e-02
8.552301526069641113e-01 2.842175960540771484e-02 2.026176080107688904e-02
5.061158537864685059e-01 1.293777823448181152e-01 2.834858596324920654e-01
4.877102971076965332e-01 7.322509586811065674e-02 -2.007946074008941650e-01
7.067142724990844727e-01 1.320384144783020020e-01 -1.597034484148025513e-01
7.966284155845642090e-01 1.247865855693817139e-01 -7.935632020235061646e-03
3.573000431060791016e-01 1.161609739065170288e-01 -1.073688268661499023e-01
7.641840577125549316e-01 3.075326606631278992e-02 5.325229465961456299e-02
6.501420736312866211e-01 7.870924472808837891e-02 3.873123228549957275e-01
5.335409045219421387e-01 1.329346895217895508e-01 2.690680325031280518e-01
6.757711768150329590e-01 1.261274516582489014e-01 2.731570601463317871e-01
8.478842377662658691e-01 1.072490587830543518e-01 -1.907371133565902710e-01
7.251885533332824707e-01 3.506806865334510803e-02 1.246788352727890015e-01
9.441642761230468750e-01 8.725249767303466797e-02 -1.157841607928276062e-01
7.508662939071655273e-01 4.860438406467437744e-02 2.982578575611114502e-01
5.156884193420410156e-01 6.258308142423629761e-02 -1.419306993484497070e-01
8.536909818649291992e-01 3.362039849162101746e-02 1.671500653028488159e-01
6.494121551513671875e-01 3.942046314477920532e-02 1.720304228365421295e-02
9.309802055358886719e-01 9.634394198656082153e-02 4.149448126554489136e-03
9.436872005462646484e-01 8.762020617723464966e-02 1.324129998683929443e-01
9.484353065490722656e-01 9.090536087751388550e-02 5.319428164511919022e-03
5.797795057296752930e-01 5.141763389110565186e-02 -1.309842020273208618e-01
9.754046797752380371e-01 7.184411585330963135e-02 -1.168222427368164062e-01
8.743927478790283203e-01 3.494584932923316956e-02 1.752714663743972778e-01
7.459504604339599609e-01 3.497187793254852295e-02 1.507122963666915894e-01
6.509754061698913574e-01 1.218897253274917603e-01 -3.072004318237304688e-01
8.809537887573242188e-01 1.018179208040237427e-01 -1.661543548107147217e-01
4.094866216182708740e-01 8.328710496425628662e-02 4.967297241091728210e-02
8.553682565689086914e-01 1.143933534622192383e-01 1.430818252265453339e-02
6.586876511573791504e-01 1.414165496826171875e-01 3.745608031749725342e-02
8.047454953193664551e-01 1.083952933549880981e-01 -2.566956281661987305e-01
4.986993968486785889e-01 6.141353026032447815e-02 1.818152703344821930e-02
5.625991225242614746e-01 5.052516981959342957e-02 2.124668285250663757e-02
9.367445707321166992e-01 3.806036710739135742e-02 1.428079903125762939e-01
9.027835726737976074e-01 3.672498092055320740e-02 -1.517702192068099976e-01
3.784864544868469238e-01 1.003895998001098633e-01 -1.220357716083526611e-01
9.881397485733032227e-01 7.137352228164672852e-02 -5.235587805509567261e-02
9.322419166564941406e-01 3.322676196694374084e-02 -4.751006886363029480e-02
5.145006179809570312e-01 9.074976295232772827e-02 -3.251409828662872314e-01
4.223724305629730225e-01 8.194179832935333252e-02 -1.013621389865875244e-01
6.338959336280822754e-01 1.436246037483215332e-01 9.482740424573421478e-03
9.517091512680053711e-01 3.494507074356079102e-02 -1.239129900932312012e-02
6.859865784645080566e-01 1.183803230524063110e-01 3.194484412670135498e-01
5.848792195320129395e-01 5.245964601635932922e-02 1.750951111316680908e-01
5.507810711860656738e-01 1.439495235681533813e-01 -1.465368270874023438e-01
7.553486824035644531e-01 4.237774387001991272e-02 -2.335630059242248535e-01
5.395399928092956543e-01 5.412708595395088196e-02 -1.755107659846544266e-03
8.230181336402893066e-01 3.790250793099403381e-02 2.218997329473495483e-01
9.644663333892822266e-01 4.139718785881996155e-02 -9.380910545587539673e-02
6.777167320251464844e-01 1.385312080383300781e-01 9.261271357536315918e-02
9.528996944427490234e-01 6.329979747533798218e-02 -1.964492201805114746e-01
4.580950736999511719e-01 7.110925018787384033e-02 -6.806185096502304077e-02
4.489241242408752441e-01 9.461472183465957642e-02 -2.592963874340057373e-01
4.683388471603393555e-01 7.328706979751586914e-02 -1.522227376699447632e-01
6.917603015899658203e-01 1.340828537940979004e-01 1.626464426517486572e-01
9.942015409469604492e-01 6.382156908512115479e-02 -6.512608379125595093e-02
4.566401541233062744e-01 8.332343399524688721e-02 -2.169318944215774536e-01
5.316829681396484375e-01 1.484023630619049072e-01 4.025558382272720337e-02
8.746273517608642578e-01 1.060184612870216370e-01 1.481080800294876099e-01
5.036923885345458984e-01 1.473032087087631226e-01 9.365045279264450073e-02
7.819092869758605957e-01 7.690913975238800049e-02 -3.624469935894012451e-01
5.024473667144775391e-01 7.352576404809951782e-02 -2.317571640014648438e-01
7.149864435195922852e-01 1.336076557636260986e-01 1.204968020319938660e-01
8.559306859970092773e-01 3.017236292362213135e-02 -8.198818564414978027e-02
4.682539105415344238e-01 1.162747964262962341e-01 3.041418492794036865e-01
9.124714732170104980e-01 7.319855690002441406e-02 -2.544526159763336182e-01
5.974158644676208496e-01 1.404858529567718506e-01 -1.714113056659698486e-01
8.357483148574829102e-01 2.997605130076408386e-02 1.009611934423446655e-01
4.721903204917907715e-01 7.986856251955032349e-02 2.326817363500595093e-01
7.671981453895568848e-01 1.213094964623451233e-01 2.104358375072479248e-01
6.093706488609313965e-01 4.441283270716667175e-02 -3.921678289771080017e-02
7.604774832725524902e-01 3.733874484896659851e-02 -1.808167845010757446e-01
6.346610784530639648e-01 1.435609161853790283e-01 -4.030636977404356003e-03
5.741984248161315918e-01 5.686043575406074524e-02 -1.990342587232589722e-01
3.536366522312164307e-01 1.070502549409866333e-01 -2.689653821289539337e-02
7.592827081680297852e-01 7.892996817827224731e-02 3.865820467472076416e-01
7.302880287170410156e-01 1.306081712245941162e-01 1.461113691329956055e-01
5.598880648612976074e-01 1.448126435279846191e-01 1.316207796335220337e-01
8.859788775444030762e-01 8.376371860504150391e-02 -2.673072218894958496e-01
5.709929466247558594e-01 5.859355628490447998e-02 2.256609201431274414e-01
6.604236960411071777e-01 5.205095931887626648e-02 -2.593232691287994385e-01
7.515643835067749023e-01 1.175836771726608276e-01 2.688858509063720703e-01
5.864281058311462402e-01 4.804230108857154846e-02 8.200050145387649536e-02
6.492066383361816406e-01 5.792811512947082520e-02 -2.933813333511352539e-01
6.722359657287597656e-01 4.628347605466842651e-02 2.314754724502563477e-01
9.174489378929138184e-01 9.907791763544082642e-02 -5.590240657329559326e-02
6.982699036598205566e-01 3.957563266158103943e-02 -1.561862230300903320e-01
8.642238378524780273e-01 5.943489074707031250e-02 3.180004358291625977e-01
7.822802066802978516e-01 2.990563958883285522e-02 5.036814883351325989e-02
5.640734434127807617e-01 1.318537443876266479e-01 -2.698166966438293457e-01
4.186333417892456055e-01 9.215087443590164185e-02 -1.901417672634124756e-01
7.905201911926269531e-01 1.229542046785354614e-01 1.301124840974807739e-01
9.514029026031494141e-01 3.533928096294403076e-02 5.573494359850883484e-02
7.103598117828369141e-01 1.165311634540557861e-01 -3.027732074260711670e-01
8.226090669631958008e-01 3.867740556597709656e-02 -2.095343470573425293e-01
6.611803174018859863e-01 1.254525482654571533e-01 -2.786720693111419678e-01
7.243670225143432617e-01 1.337321847677230835e-01 -7.385837286710739136e-02
5.919538140296936035e-01 1.459558159112930298e-01 5.248979106545448303e-02
5.681845545768737793e-01 9.098823368549346924e-02 -3.624953329563140869e-01
5.146923661231994629e-01 6.914333999156951904e-02 2.281548678874969482e-01
5.087714195251464844e-01 1.395737230777740479e-01 -2.056968957185745239e-01
6.008266806602478027e-01 4.956669732928276062e-02 1.643200516700744629e-01
3.667167425155639648e-01 1.289139837026596069e-01 1.169225722551345825e-01
8.357070088386535645e-01 4.259048029780387878e-02 2.592989206314086914e-01
8.804743885993957520e-01 2.932178229093551636e-02 5.388664454221725464e-02
5.816698670387268066e-01 6.065899506211280823e-02 2.606360912322998047e-01
8.248077630996704102e-01 1.072807163000106812e-01 -2.345982342958450317e-01
6.694028973579406738e-01 3.982288017868995667e-02 1.275374591350555420e-01
4.449494481086730957e-01 8.218006789684295654e-02 -1.816020905971527100e-01
3.758457005023956299e-01 1.389768123626708984e-01 3.616326255723834038e-03
4.477693438529968262e-01 1.458835750818252563e-01 8.790076524019241333e-02
7.864048480987548828e-01 3.000621125102043152e-02 -4.557259380817413330e-02
8.958715200424194336e-01 9.441385418176651001e-02 2.134337276220321655e-01
5.963665246963500977e-01 5.251748859882354736e-02 -1.849474757909774780e-01
8.006501793861389160e-01 1.155582964420318604e-01 2.146481424570083618e-01
4.117869138717651367e-01 1.031698286533355713e-01 2.288597524166107178e-01
6.586617231369018555e-01 1.361571550369262695e-01 1.799558252096176147e-01
5.629209280014038086e-01 1.368823051452636719e-01 -2.295913696289062500e-01
7.957565784454345703e-01 2.923753857612609863e-02 3.413520380854606628e-02
5.222286581993103027e-01 1.437267214059829712e-01 1.626233756542205811e-01
8.943989872932434082e-01 9.180880337953567505e-02 -2.170481532812118530e-01
3.586566448211669922e-01 1.326384842395782471e-01 4.397844523191452026e-02
8.030345439910888672e-01 1.071317642927169800e-01 2.817763984203338623e-01
4.465881586074829102e-01 1.231107264757156372e-01 -2.645317912101745605e-01
7.284461259841918945e-01 3.712639957666397095e-02 1.698570102453231812e-01
8.266384601593017578e-01 7.722626626491546631e-02 3.551469445228576660e-01
7.374204397201538086e-01 3.494383767247200012e-02 1.399674266576766968e-01
7.413597106933593750e-01 1.166441366076469421e-01 2.870857417583465576e-01
9.379564523696899414e-01 7.086703181266784668e-02 2.366417348384857178e-01
4.221956133842468262e-01 1.458227336406707764e-01 -3.723760601133108139e-03
4.348639249801635742e-01 1.462055742740631104e-01 -4.915443807840347290e-02
3.869377076625823975e-01 1.009479463100433350e-01 1.609969139099121094e-01
7.595745921134948730e-01 1.277036517858505249e-01 -1.146114319562911987e-01
5.366044044494628906e-01 1.445888727903366089e-01 1.466156542301177979e-01
4.495328366756439209e-01 8.473992347717285156e-02 2.202220112085342407e-01
6.728146076202392578e-01 1.273400783538818359e-01 -2.553614675998687744e-01
8.593690991401672363e-01 1.122325956821441650e-01 -7.387538999319076538e-02
7.421057820320129395e-01 4.572971537709236145e-02 2.749122679233551025e-01
5.736242532730102539e-01 1.446314007043838501e-01 1.245799958705902100e-01
8.307081460952758789e-01 1.177330315113067627e-01 9.016901254653930664e-02
8.415064215660095215e-01 1.170781478285789490e-01 1.217246241867542267e-02
5.451256632804870605e-01 1.397536247968673706e-01 2.104569375514984131e-01
3.707493841648101807e-01 1.358828246593475342e-01 -6.262087076902389526e-02
6.391782164573669434e-01 1.364027559757232666e-01 -1.902518421411514282e-01
5.716908574104309082e-01 5.206055566668510437e-02 1.335911452770233154e-01
8.242793083190917969e-01 1.113747209310531616e-01 2.131104618310928345e-01
6.475870013236999512e-01 1.014730334281921387e-01 3.891300261020660400e-01
4.686300456523895264e-01 8.802641183137893677e-02 -2.633333504199981689e-01
6.028837561607360840e-01 6.459897011518478394e-02 -2.977963685989379883e-01
6.631302237510681152e-01 1.322432309389114380e-01 -2.164054811000823975e-01
9.414973258972167969e-01 9.237199276685714722e-02 6.107678636908531189e-02
3.883616924285888672e-01 8.983936160802841187e-02 -1.663959585130214691e-02
7.471697330474853516e-01 4.368117079138755798e-02 2.599979043006896973e-01
7.864025831222534180e-01 1.115651354193687439e-01 -2.587721645832061768e-01
6.026892066001892090e-01 1.286326795816421509e-01 -2.838813066482543945e-01
4.588437676429748535e-01 9.339464455842971802e-02 -2.697403728961944580e-01
6.259922385215759277e-01 5.561949685215950012e-02 -2.568433284759521484e-01
7.870192527770996094e-01 1.242152452468872070e-01 -1.010088920593261719e-01
7.635090351104736328e-01 5.792013555765151978e-02 3.464263379573822021e-01
6.864581704139709473e-01 1.333167254924774170e-01 1.836379319429397583e-01
6.495733261108398438e-01 1.274627447128295898e-01 -2.710129618644714355e-01
6.965845823287963867e-01 9.799425303936004639e-02 3.880587220191955566e-01
9.980891942977905273e-01 5.495883151888847351e-02 -4.784587770700454712e-02
6.587841510772705078e-01 4.830099642276763916e-02 -2.229770272970199585e-01
5.724360346794128418e-01 5.115821585059165955e-02 -1.019723415374755859e-01
6.515052318572998047e-01 6.216722726821899414e-02 -3.190593719482421875e-01
5.363225936889648438e-01 5.591763928532600403e-02 8.872252702713012695e-02
7.933562994003295898e-01 1.178807467222213745e-01 -1.889687031507492065e-01
7.675300836563110352e-01 1.258636415004730225e-01 1.414982378482818604e-01
6.133184432983398438e-01 1.371016502380371094e-01 2.118530422449111938e-01
6.505292057991027832e-01 4.714793339371681213e-02 2.157792001962661743e-01
4.301292598247528076e-01 7.712449133396148682e-02 -3.030435182154178619e-02
5.408475399017333984e-01 1.428884118795394897e-01 1.722460687160491943e-01
4.480300545692443848e-01 1.414238959550857544e-01 -1.556615829467773438e-01
3.909620046615600586e-01 1.392296254634857178e-01 9.081816673278808594e-02
6.734076142311096191e-01 5.210139602422714233e-02 2.853538095951080322e-01
5.996689200401306152e-01 4.775908216834068298e-02 -1.114086881279945374e-01
8.559445142745971680e-01 3.312343358993530273e-02 -1.382624059915542603e-01
4.821979999542236328e-01 7.607570290565490723e-02 -2.141966819763183594e-01
4.939923286437988281e-01 1.105442717671394348e-01 3.310117125511169434e-01
7.795450687408447266e-01 1.255538761615753174e-01 1.084395945072174072e-01
5.956860184669494629e-01 6.787402927875518799e-02 -3.097846806049346924e-01
3.520053029060363770e-01 1.160984188318252563e-01 -8.164430409669876099e-02
4.775089621543884277e-01 6.588863581418991089e-02 -2.872837521135807037e-02
5.312565565109252930e-01 6.561365723609924316e-02 2.262605577707290649e-01
6.695796847343444824e-01 1.325775384902954102e-01 2.151830494403839111e-01
8.165988326072692871e-01 3.310984373092651367e-02 -1.417485475540161133e-01
5.925965309143066406e-01 6.859715282917022705e-02 3.235879540443420410e-01
5.702404379844665527e-01 1.415088325738906860e-01 -1.744729280471801758e-01
8.321421742439270020e-01 1.148888841271400452e-01 1.472650468349456787e-01
5.874745845794677734e-01 1.417717039585113525e-01 1.665223836898803711e-01
3.810445368289947510e-01 9.572494775056838989e-02 -8.820410072803497314e-02
3.852547407150268555e-01 1.409308761358261108e-01 -7.023765239864587784e-03
3.832197487354278564e-01 1.391045004129409790e-01 6.469704210758209229e-02
4.494578838348388672e-01 1.444552242755889893e-01 1.187914609909057617e-01
6.195796132087707520e-01 4.654129967093467712e-02 1.535020917654037476e-01
7.027481794357299805e-01 1.221292763948440552e-01 -2.716948986053466797e-01
7.322236895561218262e-01 1.337020546197891235e-01 3.499908745288848877e-02
6.960312128067016602e-01 1.308792233467102051e-01 -1.935593634843826294e-01
3.795832693576812744e-01 9.451001137495040894e-02 -5.838710442185401917e-02
7.271324396133422852e-01 1.208304911851882935e-01 2.696828842163085938e-01
4.776792824268341064e-01 9.443378448486328125e-02 -2.967261075973510742e-01
4.035049676895141602e-01 8.859931677579879761e-02 1.171807572245597839e-01
9.532488584518432617e-01 7.260217517614364624e-02 2.004777491092681885e-01
4.185673892498016357e-01 9.594092518091201782e-02 2.170841991901397705e-01
7.041813731193542480e-01 1.043410599231719971e-01 3.705720007419586182e-01
8.962135910987854004e-01 9.471610933542251587e-02 -1.930827051401138306e-01
6.030443906784057617e-01 7.825495302677154541e-02 3.672399818897247314e-01
5.463772416114807129e-01 1.264208555221557617e-01 3.085084557533264160e-01
9.257396459579467773e-01 3.203453496098518372e-02 5.059530213475227356e-02
3.630579710006713867e-01 1.167426407337188721e-01 1.336362212896347046e-01
8.348782062530517578e-01 2.865072339773178101e-02 4.833269119262695312e-02
8.508081436157226562e-01 4.613154008984565735e-02 2.765846848487854004e-01
6.905115842819213867e-01 4.876662418246269226e-02 -2.548776566982269287e-01
5.113985538482666016e-01 5.899804085493087769e-02 3.611154854297637939e-03
6.498901247978210449e-01 4.186506196856498718e-02 -1.128359884023666382e-01
8.366308212280273438e-01 3.215542063117027283e-02 1.475552171468734741e-01
8.031870126724243164e-01 1.209125742316246033e-01 -1.167893856763839722e-01
4.892197549343109131e-01 6.897649914026260376e-02 -1.576106548309326172e-01
5.605419278144836426e-01 5.153852328658103943e-02 7.083465158939361572e-02
8.189841508865356445e-01 1.204761266708374023e-01 6.599047780036926270e-02
8.809158802032470703e-01 1.090222373604774475e-01 1.533237099647521973e-02
3.584115505218505859e-01 1.180858165025711060e-01 1.171458140015602112e-01
7.240967750549316406e-01 4.785060510039329529e-02 -2.664776444435119629e-01
5.098930001258850098e-01 6.130027025938034058e-02 1.070796474814414978e-01
4.227667450904846191e-01 1.387932598590850830e-01 1.586439758539199829e-01
4.770407974720001221e-01 1.075239256024360657e-01 3.190420567989349365e-01
7.454159855842590332e-01 5.273762345314025879e-02 3.214363455772399902e-01
8.604770898818969727e-01 1.100734770298004150e-01 -1.172243878245353699e-01
7.024753093719482422e-01 8.611450344324111938e-02 3.979981839656829834e-01
