-3.186480402946472168e-01 -8.692891150712966919e-02 5.856396630406379700e-02
-3.232568502426147461e-01 4.710718989372253418e-02 3.273022174835205078e-02
-3.326888978481292725e-01 -7.619217038154602051e-03 -3.371227532625198364e-02
-4.412260651588439941e-01 -1.545032709836959839e-01 -5.790720134973526001e-02
-2.236517965793609619e-01 -4.212498664855957031e-02 2.801452297717332840e-03
-3.922886252403259277e-01 -5.911260843276977539e-03 -4.311720654368400574e-02
-2.898395657539367676e-01 -2.882007360458374023e-01 -5.243390332907438278e-03
-2.689406573772430420e-01 -6.813378632068634033e-02 4.639864712953567505e-02
-2.641488313674926758e-01 -1.121043711900711060e-01 4.762617871165275574e-02
-6.557727456092834473e-01 -2.612643539905548096e-01 -5.170501023530960083e-02
-7.302149534225463867e-01 -2.457672655582427979e-01 -4.751601442694664001e-02
-5.844058990478515625e-01 4.188400506973266602e-02 -4.381826147437095642e-02
-8.858073949813842773e-01 -1.323704421520233154e-01 -1.928556524217128754e-02
-3.073790371417999268e-01 -2.469655126333236694e-01 4.395137727260589600e-02
-5.296653509140014648e-01 9.008097648620605469e-02 -2.759765647351741791e-02
-8.684767484664916992e-01 -1.338486075401306152e-01 -2.744396217167377472e-02
-3.688627779483795166e-01 -6.117322295904159546e-02 -4.739793762564659119e-02
-6.516618728637695312e-01 8.457271754741668701e-02 -2.569306455552577972e-02
-3.355172276496887207e-01 -8.973771333694458008e-02 6.135504692792892456e-02
-5.206378102302551270e-01 4.396502673625946045e-02 -4.276489093899726868e-02
-3.678407073020935059e-01 -1.643946468830108643e-01 -4.997130110859870911e-02
-5.339755415916442871e-01 -2.744948267936706543e-01 -5.147352442145347595e-02
-4.537943899631500244e-01 -2.830698490142822266e-01 -4.541591182351112366e-02
-5.673279762268066406e-01 -3.128153979778289795e-01 -4.350908473134040833e-02
-6.652919054031372070e-01 -1.825129240751266479e-02 6.352554261684417725e-02
-7.419548034667968750e-01 -3.720683604478836060e-02 5.696375295519828796e-02
-7.398152947425842285e-01 -1.367567330598831177e-01 -5.424629151821136475e-02
-7.232606410980224609e-01 3.650918602943420410e-03 -4.288713634014129639e-02
-6.471229791641235352e-01 9.358870983123779297e-02 -2.147506363689899445e-02
-6.184171438217163086e-01 7.275758683681488037e-02 4.725996777415275574e-02
-4.905672073364257812e-01 -2.346355170011520386e-01 -5.563554912805557251e-02
-6.682397127151489258e-01 -1.588199883699417114e-01 6.883502006530761719e-02
-2.239776253700256348e-01 -4.353263974189758301e-02 1.869872026145458221e-02
-7.024737000465393066e-01 -1.972756236791610718e-01 6.320367753505706787e-02
-7.605037093162536621e-01 -2.818056344985961914e-01 4.008946940302848816e-02
-3.685320615768432617e-01 -2.344658374786376953e-01 -4.387991130352020264e-02
-5.789763927459716797e-01 3.811010718345642090e-02 5.893939733505249023e-02
-8.952550888061523438e-01 -8.219340443611145020e-02 -4.262907896190881729e-03
-6.749351024627685547e-01 -4.351988434791564941e-02 -5.477197095751762390e-02
-4.129956960678100586e-01 -9.679844975471496582e-02 6.999750435352325439e-02
-5.274530053138732910e-01 2.203910052776336670e-02 6.285018473863601685e-02
-7.439686059951782227e-01 -3.425702750682830811e-01 -6.822079885751008987e-03
-3.748251199722290039e-01 4.604569077491760254e-02 -2.753853239119052887e-02
-6.928662061691284180e-01 -2.671445012092590332e-01 -4.789280891418457031e-02
-4.831277132034301758e-01 -1.627922505140304565e-01 7.291238754987716675e-02
-2.425934374332427979e-01 -8.566938340663909912e-03 1.575508341193199158e-02
-4.187738299369812012e-01 1.420830190181732178e-02 -4.238950088620185852e-02
-4.412362575531005859e-01 -3.649869561195373535e-01 -8.032636716961860657e-03
-5.108053684234619141e-01 7.436090707778930664e-02 -3.318752348423004150e-02
-8.545268177986145020e-01 -2.566559910774230957e-01 -8.548019453883171082e-03
-5.749972462654113770e-01 -1.459932923316955566e-01 7.388453185558319092e-02
-8.051155805587768555e-01 -1.117074191570281982e-01 -4.405994340777397156e-02
-7.832762598991394043e-01 -3.462582826614379883e-02 -4.062949120998382568e-02
-5.803215503692626953e-01 -3.490613698959350586e-01 -3.090106137096881866e-02
-6.056632995605468750e-01 4.879027605056762695e-02 -4.148720204830169678e-02
-6.819365024566650391e-01 -2.884294092655181885e-02 -5.246211588382720947e-02
-4.153321683406829834e-01 -3.662346303462982178e-02 -5.023992061614990234e-02
-2.403302788734436035e-01 -4.002883285284042358e-02 3.069633617997169495e-02
-7.703965902328491211e-01 -2.580223977565765381e-01 4.420475289225578308e-02
-4.063577055931091309e-01 1.032461524009704590e-01 1.814470067620277405e-02
-5.360783934593200684e-01 -3.633766174316406250e-01 -2.297403290867805481e-02
-7.385183572769165039e-01 8.146668970584869385e-02 1.898200623691082001e-02
-7.252168655395507812e-01 -3.403759002685546875e-01 -1.777133159339427948e-02
-3.058683872222900391e-01 -2.042832225561141968e-01 -3.617221862077713013e-02
-4.408801794052124023e-01 -1.330625265836715698e-01 7.201153784990310669e-02
-6.285444498062133789e-01 -3.405574858188629150e-01 3.904796391725540161e-02
-4.493913650512695312e-01 -2.798926830291748047e-01 5.685660243034362793e-02
-3.970995545387268066e-01 -3.429879248142242432e-01 -1.487101987004280090e-02
-8.362818956375122070e-01 -1.090644299983978271e-02 -2.048587985336780548e-02
-8.306032419204711914e-01 3.064811229705810547e-03 2.580210752785205841e-02
-2.757025063037872314e-01 -2.618843913078308105e-01 2.807074412703514099e-02
-2.188182175159454346e-01 -1.102449744939804077e-01 2.961674891412258148e-02
-4.013795256614685059e-01 -2.795901894569396973e-01 5.247958377003669739e-02
-5.834357738494873047e-01 -2.592722773551940918e-01 6.318899244070053101e-02
-3.441689610481262207e-01 -1.879349201917648315e-01 6.005904451012611389e-02
-6.534526348114013672e-01 -2.080250531435012817e-02 6.481117010116577148e-02
-7.078130245208740234e-01 -3.596180081367492676e-01 3.155483864247798920e-04
-8.003287315368652344e-01 -5.440104007720947266e-02 4.818878322839736938e-02
-5.281779766082763672e-01 -2.091363072395324707e-01 7.038245350122451782e-02
-4.196280241012573242e-01 -2.549738287925720215e-01 5.953466892242431641e-02
-4.120142459869384766e-01 -3.097431659698486328e-01 -3.363056108355522156e-02
-6.756090521812438965e-01 -2.060202956199645996e-01 6.495111435651779175e-02
-3.427582979202270508e-01 -2.423495650291442871e-01 5.224254727363586426e-02
-6.284276247024536133e-01 -4.947847127914428711e-02 -5.781178176403045654e-02
-8.523712158203125000e-01 -2.208180278539657593e-01 -2.459861710667610168e-02
-4.653751254081726074e-01 -3.647402524948120117e-01 2.390732616186141968e-02
-3.154861927032470703e-01 -2.851361036300659180e-01 3.380841389298439026e-02
-4.193376302719116211e-01 4.493851959705352783e-02 -3.485013172030448914e-02
-8.466964960098266602e-01 -2.440845966339111328e-02 -2.047817036509513855e-02
-3.238590955734252930e-01 2.091056108474731445e-02 4.331139847636222839e-02
-4.950028955936431885e-01 1.144094616174697876e-01 2.768994122743606567e-02
-7.323010563850402832e-01 -3.475467562675476074e-01 -7.193273399025201797e-03
-3.427840471267700195e-01 -4.799667745828628540e-02 5.947048589587211609e-02
-4.356936812400817871e-01 -1.997658610343933105e-01 -5.528619140386581421e-02
-6.181507706642150879e-01 1.082664281129837036e-01 -1.513920724391937256e-02
-6.297971606254577637e-01 6.989544630050659180e-02 -3.368750214576721191e-02
-2.729213535785675049e-01 -1.672292649745941162e-01 4.806786030530929565e-02
-3.836002945899963379e-01 -1.888012886047363281e-02 -4.414482414722442627e-02
-4.073163866996765137e-01 5.135492980480194092e-02 -3.123362921178340912e-02
-3.022045493125915527e-01 -1.506391018629074097e-01 -3.925472497940063477e-02
-2.942728698253631592e-01 -1.648985445499420166e-01 -3.690786287188529968e-02
-4.498513936996459961e-01 1.076905429363250732e-02 6.231087073683738708e-02
-2.545576095581054688e-01 -2.407022118568420410e-01 2.620608545839786530e-02
-8.085647821426391602e-01 4.312442243099212646e-02 -1.028123777359724045e-03
-4.116337895393371582e-01 -2.394271492958068848e-01 -4.878959804773330688e-02
-3.882367014884948730e-01 -1.683523505926132202e-02 6.147136166691780090e-02
-5.489476323127746582e-01 -1.720219552516937256e-01 7.319967448711395264e-02
-8.046328425407409668e-01 -5.925021320581436157e-02 -3.993766754865646362e-02
-7.968372106552124023e-01 -2.885743081569671631e-01 -2.351143211126327515e-02
-7.055547237396240234e-01 -1.802886128425598145e-01 6.422777473926544189e-02
-7.153981328010559082e-01 -1.437951326370239258e-01 6.486195325851440430e-02
-4.976484775543212891e-01 -2.856878042221069336e-01 -4.792706668376922607e-02
-3.203268647193908691e-01 -6.378194689750671387e-02 -3.973899409174919128e-02
-8.186810016632080078e-01 -2.616795897483825684e-01 3.000171482563018799e-02
-8.400517106056213379e-01 -2.513892650604248047e-01 2.469220757484436035e-02
-4.402651786804199219e-01 8.331300318241119385e-02 4.106846824288368225e-02
-7.339617013931274414e-01 -6.843069195747375488e-02 -5.193469300866127014e-02
-5.522586107254028320e-01 -5.488596856594085693e-03 -5.331169068813323975e-02
-6.389933228492736816e-01 -3.034889101982116699e-01 -4.399711638689041138e-02
-3.877288103103637695e-01 -1.429865360260009766e-01 6.781114637851715088e-02
-3.107981383800506592e-01 2.123598754405975342e-02 3.967534378170967102e-02
-3.474269509315490723e-01 -9.547989070415496826e-02 -4.673878103494644165e-02
-5.306103229522705078e-01 -6.055527180433273315e-02 -5.941979587078094482e-02
-7.720106244087219238e-01 -2.737405896186828613e-01 3.984635695815086365e-02
-5.153165459632873535e-01 -1.074885949492454529e-01 -6.163787096738815308e-02
-5.389566421508789062e-01 -1.364197283983230591e-01 -6.266669929027557373e-02
-2.514755725860595703e-01 -1.592785120010375977e-01 -2.507591620087623596e-02
-2.447906136512756348e-01 -3.721976280212402344e-02 -1.270036399364471436e-02
-8.891306519508361816e-01 -1.799955666065216064e-01 1.678625680506229401e-02
-3.237821161746978760e-01 -2.823938131332397461e-01 -2.376670204102993011e-02
-3.618007004261016846e-01 -2.457730174064636230e-01 -4.103384539484977722e-02
-4.106170237064361572e-01 1.064506173133850098e-01 5.432384088635444641e-03
-5.292767286300659180e-01 -3.830960690975189209e-01 7.963871583342552185e-03
-3.846243619918823242e-01 -2.445836216211318970e-01 -4.468720406293869019e-02
-5.487488508224487305e-01 -9.372013062238693237e-02 -6.184652447700500488e-02
-7.825024127960205078e-01 -5.902974307537078857e-02 5.241056159138679504e-02
-2.913004755973815918e-01 -2.714670300483703613e-01 -1.627600938081741333e-02
-5.413274765014648438e-01 9.523566067218780518e-02 4.136772081255912781e-02
-8.208477497100830078e-01 -1.432633399963378906e-01 -4.125112295150756836e-02
-6.434196233749389648e-01 1.180583983659744263e-01 5.870913155376911163e-03
-8.067278265953063965e-01 -1.418436318635940552e-01 5.051746591925621033e-02
-8.250313997268676758e-01 -8.489849418401718140e-02 -3.810184448957443237e-02
-3.350882530212402344e-01 3.786760568618774414e-02 4.042015224695205688e-02
-7.247540950775146484e-01 -1.393518149852752686e-01 6.387442350387573242e-02
-5.658023953437805176e-01 -1.925632357597351074e-01 7.162967324256896973e-02
-2.980677187442779541e-01 -1.516269892454147339e-02 4.601319134235382080e-02
-2.892630398273468018e-01 4.054932296276092529e-02 2.822514856234192848e-03
-7.507399320602416992e-01 -1.376121491193771362e-02 -4.249394685029983521e-02
-5.802534818649291992e-01 -1.692246347665786743e-01 -6.239389628171920776e-02
-3.956164717674255371e-01 -1.241413801908493042e-01 6.885310262441635132e-02
-7.468753457069396973e-01 -2.815992832183837891e-01 -3.785911947488784790e-02
-3.987758755683898926e-01 -3.248803615570068359e-01 -2.556925453245639801e-02
-7.794748544692993164e-01 -1.608015298843383789e-01 -4.857888072729110718e-02
-6.167349219322204590e-01 8.258494734764099121e-02 -2.953910641372203827e-02
-6.783595085144042969e-01 -4.170279949903488159e-02 6.501960754394531250e-02
-3.619620203971862793e-01 6.438973546028137207e-02 3.579648211598396301e-02
-5.585155487060546875e-01 -3.663598597049713135e-01 -2.162977680563926697e-02
-4.951337873935699463e-01 8.603778481483459473e-02 -2.767588756978511810e-02
-5.039605498313903809e-01 -2.125077396631240845e-01 6.972963362932205200e-02
-7.202745676040649414e-01 -3.221002221107482910e-01 -2.905446477234363556e-02
-3.689898550510406494e-01 -1.282372921705245972e-01 6.617211550474166870e-02
-2.166857123374938965e-01 -1.569423228502273560e-01 2.620813250541687012e-02
-3.007370531558990479e-01 3.186073899269104004e-02 -1.205718517303466797e-02
-7.933810949325561523e-01 3.804405033588409424e-02 2.612879499793052673e-02
-4.544141888618469238e-01 -1.335142403841018677e-01 7.270604372024536133e-02
-3.032887578010559082e-01 -5.738353729248046875e-02 -3.548384830355644226e-02
-5.743353962898254395e-01 4.368655383586883545e-02 -4.348514601588249207e-02
-4.526744484901428223e-01 -8.053255826234817505e-02 -5.728828907012939453e-02
-4.648349881172180176e-01 1.004134714603424072e-01 -1.728466898202896118e-02
-6.979747414588928223e-01 -3.611108660697937012e-01 -5.660786759108304977e-03
-7.001094818115234375e-01 -7.990364730358123779e-02 6.570560485124588013e-02
-7.507010102272033691e-01 -1.407975554466247559e-01 6.042874976992607117e-02
-6.341808438301086426e-01 -1.558093726634979248e-01 -6.166208535432815552e-02
-2.440649867057800293e-01 -2.649597078561782837e-02 -8.671306073665618896e-03
-2.470741569995880127e-01 -8.012299239635467529e-02 -2.176705002784729004e-02
-5.022981762886047363e-01 -3.030791878700256348e-01 -4.423822835087776184e-02
-2.493160665035247803e-01 -2.291642427444458008e-01 -1.179225370287895203e-02
-4.642791748046875000e-01 -1.712936162948608398e-01 7.178334891796112061e-02
-6.514008045196533203e-01 -2.335244417190551758e-01 -5.579808354377746582e-02
-4.968290328979492188e-01 -3.262919783592224121e-01 -3.726243600249290466e-02
-7.453149557113647461e-01 3.917463123798370361e-02 4.050020873546600342e-02
-4.154792129993438721e-01 -8.348569273948669434e-03 -4.623658955097198486e-02
-5.667694211006164551e-01 -2.116864770650863647e-01 -5.992496758699417114e-02
-4.794557690620422363e-01 -3.196628689765930176e-01 -3.813906759023666382e-02
-5.344963073730468750e-01 -1.251569837331771851e-01 -6.251116842031478882e-02
-4.347071647644042969e-01 1.103082746267318726e-01 2.003702335059642792e-02
-4.807195663452148438e-01 -3.717859983444213867e-01 -1.056200079619884491e-02
-7.193667292594909668e-01 -3.210318088531494141e-01 3.462084382772445679e-02
-6.342184543609619141e-01 -3.709177970886230469e-01 1.904438994824886322e-02
-7.406328916549682617e-01 8.607022464275360107e-02 6.558508146554231644e-03
-5.874415040016174316e-01 -2.288659512996673584e-01 6.749149411916732788e-02
-8.998774886131286621e-01 -1.211704760789871216e-01 -7.436744403094053268e-03
-5.084240436553955078e-01 5.273531377315521240e-02 5.577912926673889160e-02
-7.875906229019165039e-01 9.168803691864013672e-03 3.932796791195869446e-02
-6.552299857139587402e-01 -1.160048916935920715e-01 -6.069495528936386108e-02
-8.006382584571838379e-01 -3.064535856246948242e-01 1.399599760770797729e-02
-2.748595476150512695e-01 -2.811112701892852783e-01 6.685161963105201721e-03
-6.019917130470275879e-01 1.824466884136199951e-02 -4.874814301729202271e-02
-2.985647916793823242e-01 2.337369322776794434e-02 3.479406982660293579e-02
-6.031135320663452148e-01 -7.036420702934265137e-02 7.201788574457168579e-02
-3.902661204338073730e-01 -4.526808112859725952e-02 6.500171869993209839e-02
-7.064523696899414062e-01 -2.606224119663238525e-01 -4.773603007197380066e-02
-8.622452020645141602e-01 -2.402474880218505859e-01 1.590541377663612366e-02
-6.922340989112854004e-01 -5.341985076665878296e-02 6.474372744560241699e-02
-7.520656585693359375e-01 -1.664368957281112671e-01 -5.224544182419776917e-02
-2.404675483703613281e-01 -6.410904228687286377e-02 -1.670446991920471191e-02
-2.294191122055053711e-01 -2.191985547542572021e-01 1.570622995495796204e-02
-2.052880823612213135e-01 -1.199782565236091614e-01 1.292064785957336426e-03
-7.471561431884765625e-01 -3.031971156597137451e-01 -3.117865882813930511e-02
-2.903885841369628906e-01 -2.536033987998962402e-01 3.723127767443656921e-02
-3.731749057769775391e-01 -2.900530695915222168e-01 4.562887549400329590e-02
-5.439744591712951660e-01 -1.996242403984069824e-01 7.127459347248077393e-02
-3.659147620201110840e-01 7.084369659423828125e-02 -1.429742388427257538e-02
-8.403692245483398438e-01 -3.273054212331771851e-02 -2.544454298913478851e-02
-8.473424911499023438e-01 -6.790559738874435425e-02 3.667456656694412231e-02
-5.278797745704650879e-01 5.834154784679412842e-02 5.456416681408882141e-02
-3.489646315574645996e-01 -1.497983932495117188e-03 5.371349677443504333e-02
-3.915619254112243652e-01 -2.283345162868499756e-01 -4.788561910390853882e-02
-2.996773421764373779e-01 -2.528136968612670898e-02 4.835666716098785400e-02
-8.482509255409240723e-01 -1.223841235041618347e-01 -3.412259742617607117e-02
-5.791934728622436523e-01 -2.771299481391906738e-01 -5.144155025482177734e-02
-8.386813402175903320e-01 -4.048693925142288208e-02 3.529636561870574951e-02
-8.860460519790649414e-01 -1.436175107955932617e-01 2.367829903960227966e-02
-4.080366492271423340e-01 -2.924678325653076172e-01 4.989132657647132874e-02
-7.096543312072753906e-01 1.352664828300476074e-02 -4.241364449262619019e-02
-6.156573891639709473e-01 -2.309106588363647461e-01 -5.749865621328353882e-02
-5.930865406990051270e-01 -1.087418198585510254e-01 7.366190105676651001e-02
-3.283724784851074219e-01 -3.379957377910614014e-02 -3.752585873007774353e-02
-5.492879152297973633e-01 1.117804497480392456e-01 -1.579649187624454498e-02
-6.243038177490234375e-01 -2.853581309318542480e-01 5.635747686028480530e-02
-3.825483918190002441e-01 7.727459073066711426e-03 5.674747005105018616e-02
-5.017057061195373535e-01 -2.839585393667221069e-02 -5.522104725241661072e-02
-7.272615432739257812e-01 -5.587140470743179321e-02 -5.148003622889518738e-02
-3.145883083343505859e-01 3.518591821193695068e-02 3.544544801115989685e-02
-7.801177501678466797e-01 -8.711837232112884521e-02 -4.713609069585800171e-02
-4.261253774166107178e-01 -1.939496248960494995e-01 -5.487361922860145569e-02
-3.961274027824401855e-01 -1.822658628225326538e-01 -5.258741229772567749e-02
-6.638080477714538574e-01 -8.727064728736877441e-02 -5.910096317529678345e-02
-8.932428359985351562e-01 -1.699707657098770142e-01 -1.120048016309738159e-02
-6.676051616668701172e-01 -2.643933892250061035e-01 5.741753056645393372e-02
-5.541044473648071289e-01 -3.074145615100860596e-01 5.338117480278015137e-02
-4.850920736789703369e-01 -8.517357707023620605e-02 7.334236800670623779e-02
-8.064258694648742676e-01 -2.901406884193420410e-01 -1.894625276327133179e-02
-7.037045359611511230e-01 -2.530737221240997314e-01 5.573961511254310608e-02
-3.289455175399780273e-01 -7.861566543579101562e-02 5.980730801820755005e-02
-6.609783768653869629e-01 7.828426361083984375e-02 -2.756080590188503265e-02
-8.167387247085571289e-01 -2.667511701583862305e-01 -2.500483766198158264e-02
-2.520869970321655273e-01 -2.495866864919662476e-01 1.899614743888378143e-02
-5.523234605789184570e-01 1.125643104314804077e-01 3.120847232639789581e-02
-6.198742389678955078e-01 6.214517354965209961e-02 -3.691881895065307617e-02
-7.127317190170288086e-01 7.808022201061248779e-02 3.104864247143268585e-02
-4.319068789482116699e-01 1.043022572994232178e-01 -8.065443485975265503e-03
-5.555600523948669434e-01 -2.695573568344116211e-01 -5.271368846297264099e-02
-7.085617184638977051e-01 -8.571755141019821167e-02 -5.577683448791503906e-02
-5.978294014930725098e-01 -1.211064085364341736e-01 7.357281446456909180e-02
-5.223692059516906738e-01 -2.557068467140197754e-01 -5.418497323989868164e-02
-6.042554378509521484e-01 1.231077313423156738e-01 1.437309011816978455e-02
-3.880555927753448486e-01 -2.735369801521301270e-01 5.229427292943000793e-02
-7.099735736846923828e-01 9.883894026279449463e-02 3.738986561074852943e-03
-4.183971881866455078e-01 5.125883221626281738e-02 5.043026059865951538e-02
-5.713874101638793945e-01 -1.776842027902603149e-02 6.847158819437026978e-02
-4.212649464607238770e-01 -1.970373690128326416e-01 6.740324944257736206e-02
-3.057718575000762939e-01 -6.840722262859344482e-02 -3.722956031560897827e-02
-3.704901635646820068e-01 1.480856537818908691e-02 5.367464572191238403e-02
-8.687713742256164551e-01 -1.548352390527725220e-01 3.168330714106559753e-02
-5.952648520469665527e-01 -3.701644241809844971e-01 -1.807468943297863007e-02
-2.452920675277709961e-01 -1.324423551559448242e-01 -2.379120327532291412e-02
-5.390073657035827637e-01 -1.861818134784698486e-02 6.898383796215057373e-02
-5.711639523506164551e-01 7.227016985416412354e-02 4.989681765437126160e-02
-7.158799767494201660e-01 -2.995453178882598877e-01 4.312293231487274170e-02
-2.845937311649322510e-01 -2.852641344070434570e-01 1.784522458910942078e-02
-6.019847989082336426e-01 -2.633382678031921387e-01 -5.349515751004219055e-02
-3.832055926322937012e-01 -1.290853321552276611e-01 6.765040010213851929e-02
-7.392776012420654297e-01 -5.585335195064544678e-02 5.929354205727577209e-02
-4.858293533325195312e-01 1.076458096504211426e-01 3.220893442630767822e-02
-5.680480003356933594e-01 -1.206672936677932739e-01 7.437562942504882812e-02
-4.145532250404357910e-01 8.208118379116058350e-02 -1.974020898342132568e-02
-6.967114806175231934e-01 -1.398245990276336670e-02 5.982896685600280762e-02
-3.518434166908264160e-01 -1.573571562767028809e-01 -4.794517531991004944e-02
-5.433484911918640137e-01 -1.256429404020309448e-01 -6.267785280942916870e-02
-8.428810834884643555e-01 -2.465912401676177979e-01 -2.138534002006053925e-02
-3.677049577236175537e-01 -1.335261017084121704e-02 -4.098422825336456299e-02
-8.346671462059020996e-01 -5.029178410768508911e-02 3.840496763586997986e-02
-5.219340324401855469e-01 -9.301952272653579712e-02 -6.127956509590148926e-02
-5.131675004959106445e-01 -2.971964478492736816e-01 5.572833493351936340e-02
-6.153616309165954590e-01 -1.236497387290000916e-01 7.285893708467483521e-02
-8.465410470962524414e-01 2.762988209724426270e-03 1.500518247485160828e-02
-8.488706350326538086e-01 -1.793029010295867920e-01 3.700327873229980469e-02
-5.304857492446899414e-01 1.016580611467361450e-01 -2.182611264288425446e-02
-5.402420163154602051e-01 -3.545754551887512207e-01 3.600960224866867065e-02
-3.721968531608581543e-01 -8.907620608806610107e-02 -4.990382492542266846e-02
-8.278372287750244141e-01 -9.716784954071044922e-02 4.505159333348274231e-02
-4.934141635894775391e-01 -7.662548124790191650e-02 -5.935414880514144897e-02
-8.923619985580444336e-01 -7.717551290988922119e-02 1.222527772188186646e-02
-5.049348473548889160e-01 -2.563684582710266113e-01 6.388371437788009644e-02
-8.775601387023925781e-01 -8.993213623762130737e-02 -2.065474167466163635e-02
-8.284941315650939941e-01 -2.155217230319976807e-01 -3.372966498136520386e-02
-6.467549800872802734e-01 -3.432361781597137451e-01 -2.998073957860469818e-02
-8.131048083305358887e-01 3.113335371017456055e-02 1.987583935260772705e-02
-7.893974781036376953e-01 -2.201449275016784668e-01 4.739249125123023987e-02
-7.451204061508178711e-01 7.229404151439666748e-02 2.435972355306148529e-02
-5.117242336273193359e-01 -3.304845094680786133e-01 4.573126137256622314e-02
-6.754253506660461426e-01 8.038267493247985840e-02 3.760291263461112976e-02
-8.690370321273803711e-01 -2.213124930858612061e-01 1.942026615142822266e-02
-4.287636876106262207e-01 -2.070536017417907715e-01 6.696323305368423462e-02
-7.842111587524414062e-01 -1.857430338859558105e-01 5.252281576395034790e-02
-4.711657762527465820e-01 -1.017515063285827637e-01 -5.949302017688751221e-02
-4.507513046264648438e-01 -3.283269107341766357e-01 -3.236659243702888489e-02
-6.360889077186584473e-01 -3.742712140083312988e-01 -8.636621758341789246e-03
-7.553182840347290039e-01 -1.443665772676467896e-01 -5.234811455011367798e-02
-4.793378710746765137e-01 4.985491931438446045e-02 -3.915669396519660950e-02
-4.809015989303588867e-01 -6.886720657348632812e-04 6.565997749567031860e-02
-6.948664188385009766e-01 -1.134997829794883728e-01 6.723259389400482178e-02
-5.989377498626708984e-01 -2.903164029121398926e-01 -4.858076199889183044e-02
-4.744102954864501953e-01 -6.960635632276535034e-02 7.227895408868789673e-02
-8.587229251861572266e-01 -7.761158049106597900e-02 -2.724666707217693329e-02
-7.777571082115173340e-01 -1.530936807394027710e-01 5.576591193675994873e-02
-7.542008161544799805e-01 -7.563843578100204468e-02 -5.005782097578048706e-02
-7.548549175262451172e-01 2.770006656646728516e-03 -3.840954974293708801e-02
-3.553795218467712402e-01 -1.418113410472869873e-01 -4.879243671894073486e-02
-6.706656217575073242e-01 5.281750857830047607e-02 4.861636832356452942e-02
-3.404663205146789551e-01 1.923371851444244385e-02 4.748776182532310486e-02
-8.758561611175537109e-01 -2.304481267929077148e-01 6.077313330024480820e-03
-7.503405809402465820e-01 -2.681463360786437988e-01 -4.051364958286285400e-02
-3.025082349777221680e-01 -1.315751969814300537e-01 -3.959034383296966553e-02
-7.425955533981323242e-01 -2.089929580688476562e-02 -4.492845013737678528e-02
-6.633615493774414062e-01 -1.089778169989585876e-01 -6.007597595453262329e-02
-5.890941619873046875e-01 -3.026832938194274902e-01 5.387349799275398254e-02
-6.012173295021057129e-01 -7.497996091842651367e-03 6.618163734674453735e-02
-2.699120640754699707e-01 1.706370711326599121e-02 -3.083182033151388168e-03
-6.763536930084228516e-01 -1.204827204346656799e-01 -5.959735810756683350e-02
-8.764984607696533203e-01 -1.768235117197036743e-01 -2.151180431246757507e-02
-4.076991975307464600e-01 -1.806637942790985107e-01 6.768588721752166748e-02
-4.239017963409423828e-01 3.522300720214843750e-02 -3.807064890861511230e-02
-4.377693533897399902e-01 1.120983064174652100e-01 3.082863986492156982e-05
-3.578501343727111816e-01 -1.127565652132034302e-01 6.489911675453186035e-02
-3.174386620521545410e-01 4.482206702232360840e-02 -1.217417977750301361e-02
-7.513395547866821289e-01 -1.189631596207618713e-01 -5.266787856817245483e-02
-3.032057881355285645e-01 -2.022287249565124512e-01 5.131888762116432190e-02
-3.103659749031066895e-01 -6.281431019306182861e-02 5.545410886406898499e-02
-5.811056494712829590e-01 -2.494230866432189941e-01 6.483563780784606934e-02
-6.471942663192749023e-01 -6.883956491947174072e-02 6.958469003438949585e-02
-4.546573460102081299e-01 -1.097810566425323486e-01 7.277731597423553467e-02
-5.343510508537292480e-01 1.225169897079467773e-01 -5.144521128386259079e-03
-2.686507105827331543e-01 2.068212628364562988e-02 1.839908212423324585e-02
-5.888186693191528320e-01 -3.277408480644226074e-01 4.639496654272079468e-02
-5.897500514984130859e-01 -1.135332733392715454e-01 -6.257990747690200806e-02
-4.982567131519317627e-01 1.188782006502151489e-01 -6.257417146116495132e-03
-6.501128077507019043e-01 -3.046246469020843506e-01 4.965825378894805908e-02
-2.653348147869110107e-01 -8.691421896219253540e-02 4.694743826985359192e-02
-5.954137444496154785e-01 -1.867301613092422485e-01 -6.148389726877212524e-02
-6.121785640716552734e-01 -3.606989383697509766e-01 -2.361240237951278687e-02
-6.411750316619873047e-01 -2.637222409248352051e-03 -5.109139904379844666e-02
-5.967032313346862793e-01 -2.080597579479217529e-01 6.947852671146392822e-02
-8.339983224868774414e-01 -1.939943432807922363e-01 3.994922712445259094e-02
-3.859388232231140137e-01 1.372146606445312500e-02 -3.834655880928039551e-02
-4.017778635025024414e-01 -1.603223085403442383e-01 6.841501593589782715e-02
-4.169690012931823730e-01 -1.566828489303588867e-01 -5.578638240694999695e-02
-7.710690498352050781e-01 -1.191423386335372925e-01 -5.001404881477355957e-02
-2.678443193435668945e-01 -9.734247624874114990e-02 4.819761961698532104e-02
-7.352536916732788086e-01 -9.155359864234924316e-02 -5.345645174384117126e-02
-4.796309769153594971e-01 1.159176528453826904e-01 -6.724607665091753006e-03
-6.913466453552246094e-01 -1.355341076850891113e-01 -5.873063206672668457e-02
-5.363631844520568848e-01 -1.902685463428497314e-01 7.204914838075637817e-02
-4.883664250373840332e-01 -7.144514471292495728e-02 7.281582802534103394e-02
-6.071125268936157227e-01 -3.016280233860015869e-01 -4.581296071410179138e-02
-3.341248631477355957e-01 -2.219658195972442627e-01 5.432121828198432922e-02
-8.774802088737487793e-01 -3.583040088415145874e-02 -1.173965632915496826e-03
-4.815617799758911133e-01 -3.197398185729980469e-01 4.809286072850227356e-02
-6.764295101165771484e-01 -5.585908889770507812e-02 6.643258780241012573e-02
-4.654365777969360352e-01 -2.463220655918121338e-01 -5.264435335993766785e-02
-5.964908003807067871e-01 6.183995306491851807e-02 -3.796134889125823975e-02
-8.587651848793029785e-01 -7.135524600744247437e-02 3.281478956341743469e-02
-7.674784064292907715e-01 -1.523503810167312622e-01 5.752284824848175049e-02
-5.604038834571838379e-01 1.216330230236053467e-01 2.260665781795978546e-02
-4.064831137657165527e-01 -3.533374667167663574e-01 1.951543986797332764e-02
-3.171566128730773926e-01 -2.944775223731994629e-01 -1.631169579923152924e-02
-7.865242362022399902e-01 -5.325508862733840942e-02 -4.272764176130294800e-02
-4.774078726768493652e-01 7.473489642143249512e-02 -3.094892762601375580e-02
-3.285169005393981934e-01 -2.324594408273696899e-01 5.155960470438003540e-02
-6.079869866371154785e-01 -2.012498676776885986e-01 6.967776268720626831e-02
-2.296970188617706299e-01 -1.377659738063812256e-01 3.527857363224029541e-02
-7.436966896057128906e-01 6.617203354835510254e-03 -3.934789821505546570e-02
-5.920873284339904785e-01 -3.046379238367080688e-02 -5.664331465959548950e-02
-7.957918643951416016e-01 -3.052147477865219116e-02 -3.740841150283813477e-02
-6.554149389266967773e-01 -2.182623744010925293e-02 -5.327484011650085449e-02
3.303067386150360107e-02 2.663174271583557129e-01 -3.260514885187149048e-02
7.087339460849761963e-02 2.030994445085525513e-01 -5.123019218444824219e-02
1.449470967054367065e-01 3.453432321548461914e-01 -1.782123744487762451e-02
1.488370299339294434e-01 3.459971547126770020e-01 -3.327672928571701050e-02
2.569833397865295410e-01 3.446212708950042725e-01 2.210870757699012756e-02
1.230557337403297424e-01 2.659465074539184570e-01 5.603509768843650818e-02
2.450608313083648682e-01 3.247015178203582764e-01 4.240475222468376160e-02
1.515045613050460815e-01 1.785810589790344238e-01 1.621097698807716370e-02
3.078830838203430176e-01 3.370700478553771973e-01 -1.442920323461294174e-02
5.035410076379776001e-02 2.327103912830352783e-01 -5.811701714992523193e-02
1.980821639299392700e-01 3.109662532806396484e-01 -7.896814495325088501e-02
1.830737590789794922e-01 2.531961798667907715e-01 6.550932675600051880e-02
1.329785883426666260e-01 2.403817623853683472e-01 6.098945811390876770e-02
9.391655027866363525e-02 1.901059001684188843e-01 -4.306811839342117310e-02
1.739186346530914307e-01 3.481445908546447754e-01 4.943863488733768463e-03
2.143314182758331299e-01 3.597413301467895508e-01 -2.428043633699417114e-02
1.264495551586151123e-01 2.900979220867156982e-01 -8.065734058618545532e-02
1.743268072605133057e-01 2.777858674526214600e-01 -8.409281075000762939e-02
1.801197230815887451e-01 1.834912002086639404e-01 1.074672583490610123e-02
1.284228563308715820e-01 1.767969578504562378e-01 -1.708134077489376068e-02
1.128894984722137451e-01 2.490952312946319580e-01 5.631639435887336731e-02
1.393004357814788818e-01 2.771527171134948730e-01 5.680994316935539246e-02
3.217660188674926758e-01 3.133119046688079834e-01 2.610487863421440125e-03
3.235980272293090820e-01 3.030740618705749512e-01 -4.618320148438215256e-03
2.187324762344360352e-01 2.960358262062072754e-01 5.833459272980690002e-02
7.746123522520065308e-02 3.070366382598876953e-01 -4.299543797969818115e-04
2.144148051738739014e-01 3.553732633590698242e-01 3.982713446021080017e-03
1.506958603858947754e-01 3.329273760318756104e-01 -6.160651519894599915e-02
1.371207982301712036e-01 3.288797438144683838e-01 1.824349910020828247e-02
8.261049538850784302e-02 2.764239311218261719e-01 -7.164809107780456543e-02
9.458771347999572754e-02 2.990266978740692139e-01 -6.708191335201263428e-02
9.309437125921249390e-02 2.391949295997619629e-01 5.090454593300819397e-02
2.813697159290313721e-01 2.822041809558868408e-01 4.705487936735153198e-02
1.861026734113693237e-01 2.325297594070434570e-01 -6.911729276180267334e-02
1.086412817239761353e-01 2.327806502580642700e-01 -7.444291561841964722e-02
1.509785652160644531e-01 3.208240866661071777e-01 3.398816287517547607e-02
1.957884430885314941e-01 2.041503787040710449e-01 -4.137475416064262390e-02
2.869647145271301270e-01 3.224251270294189453e-01 3.305163979530334473e-02
1.029571369290351868e-01 2.629231214523315430e-01 5.053586140275001526e-02
1.180909499526023865e-01 3.256692886352539062e-01 9.835592471063137054e-03
1.477389037609100342e-01 2.174952030181884766e-01 5.817796662449836731e-02
7.490570098161697388e-02 2.898381650447845459e-01 2.068497240543365479e-02
2.712602615356445312e-01 3.512681424617767334e-01 -3.443081304430961609e-02
2.838501930236816406e-01 2.736721038818359375e-01 -4.835207015275955200e-02
7.205551862716674805e-02 2.002910375595092773e-01 3.396691381931304932e-02
2.567627429962158203e-01 2.670343518257141113e-01 -6.139553338289260864e-02
5.175662785768508911e-02 2.908921241760253906e-01 -2.943627908825874329e-02
1.913453638553619385e-01 1.866203546524047852e-01 -2.388114109635353088e-03
3.121139109134674072e-01 2.681516110897064209e-01 -4.414514172822237015e-03
6.892000138759613037e-02 2.703079283237457275e-01 3.073323518037796021e-02
1.740067899227142334e-01 3.318982720375061035e-01 -6.797128170728683472e-02
2.683212757110595703e-01 3.442943096160888672e-01 -4.609955102205276489e-02
2.453123778104782104e-01 2.098546177148818970e-01 1.341018546372652054e-02
3.110250234603881836e-01 2.827968597412109375e-01 2.455511689186096191e-02
2.205428779125213623e-01 3.555103242397308350e-01 -4.215820878744125366e-02
1.032015606760978699e-01 1.828027814626693726e-01 2.803301438689231873e-02
3.048383593559265137e-01 3.230719864368438721e-01 2.147141098976135254e-02
6.698950380086898804e-02 1.820663660764694214e-01 8.664811961352825165e-03
2.503368854522705078e-01 3.501238226890563965e-01 1.519846078008413315e-02
2.960739731788635254e-01 2.813380956649780273e-01 -4.210423305630683899e-02
1.973012834787368774e-01 2.623822987079620361e-01 -7.889379560947418213e-02
1.244981661438941956e-01 1.887477785348892212e-01 -4.183659330010414124e-02
1.958557069301605225e-01 2.303187847137451172e-01 -6.526974588632583618e-02
2.911206483840942383e-01 2.551165521144866943e-01 3.147197142243385315e-02
1.906941831111907959e-01 2.654761075973510742e-01 6.513329595327377319e-02
4.265068471431732178e-02 2.283435463905334473e-01 -5.224940180778503418e-02
2.098039388656616211e-01 3.474711775779724121e-01 1.863306015729904175e-02
3.406593203544616699e-02 1.982996314764022827e-01 -1.375672407448291779e-02
8.444440364837646484e-02 3.169049322605133057e-01 -2.553668245673179626e-02
2.842583656311035156e-01 2.626262307167053223e-01 4.173375293612480164e-02
2.852767705917358398e-01 2.545345127582550049e-01 -3.418902307748794556e-02
2.710316777229309082e-01 2.811950445175170898e-01 5.141688138246536255e-02
1.339584141969680786e-01 3.410358130931854248e-01 -1.501232385635375977e-02
1.112436503171920776e-01 1.823778748512268066e-01 -3.261000290513038635e-02
1.080235317349433899e-01 3.269411027431488037e-01 -4.254479706287384033e-02
4.156590998172760010e-02 2.684092819690704346e-01 6.196816451847553253e-03
7.283505797386169434e-02 1.878602057695388794e-01 -3.486672043800354004e-02
1.609709560871124268e-01 3.476271331310272217e-01 -3.356738947331905365e-03
2.452707588672637939e-01 3.512625992298126221e-01 -4.611615836620330811e-02
1.156108528375625610e-01 3.019536733627319336e-01 3.563161939382553101e-02
8.558500558137893677e-02 2.302996218204498291e-01 -6.999553740024566650e-02
1.365685462951660156e-01 2.282064259052276611e-01 6.015798076987266541e-02
1.755677461624145508e-01 3.402986526489257812e-01 -6.005932763218879700e-02
1.516205519437789917e-01 3.042587041854858398e-01 -8.023384958505630493e-02
1.383371055126190186e-01 2.672772109508514404e-01 5.936271324753761292e-02
1.875339746475219727e-01 3.314473032951354980e-01 -6.957698613405227661e-02
5.511217564344406128e-02 1.848312467336654663e-01 -1.340693142265081406e-02
2.229986637830734253e-01 3.231808841228485107e-01 4.459473490715026855e-02
1.255698204040527344e-01 1.793818473815917969e-01 2.452266588807106018e-02
3.063346743583679199e-01 3.114786446094512939e-01 2.702311798930168152e-02
2.235889136791229248e-01 2.850649654865264893e-01 6.102045997977256775e-02
1.058478578925132751e-01 3.039287626743316650e-01 -6.912168115377426147e-02
1.774426698684692383e-01 2.654848098754882812e-01 6.475400179624557495e-02
1.868320256471633911e-01 1.918739378452301025e-01 3.157690167427062988e-02
1.936743110418319702e-01 1.895126104354858398e-01 2.100363373756408691e-02
2.108960449695587158e-01 3.125875294208526611e-01 5.099761113524436951e-02
3.139010667800903320e-01 3.165974020957946777e-01 -2.776240557432174683e-02
9.032442420721054077e-02 2.068184167146682739e-01 -5.851249769330024719e-02
1.162765994668006897e-01 3.018978834152221680e-01 -7.404487580060958862e-02
2.314265072345733643e-01 3.604309856891632080e-01 -2.105364203453063965e-02
2.156390398740768433e-01 2.203934192657470703e-01 5.168974772095680237e-02
1.375694721937179565e-01 1.813975423574447632e-01 2.772976458072662354e-02
1.113884001970291138e-01 3.318775594234466553e-01 -2.359464950859546661e-02
1.944923400878906250e-01 3.426077067852020264e-01 2.256693318486213684e-02
1.651171296834945679e-01 2.055386304855346680e-01 -5.382120609283447266e-02
1.315962970256805420e-01 3.402730226516723633e-01 -3.061585873365402222e-02
7.091255486011505127e-02 2.154602110385894775e-01 -5.966548621654510498e-02
8.177911490201950073e-02 2.647230327129364014e-01 -7.342818379402160645e-02
1.472346782684326172e-01 1.862352788448333740e-01 -3.377212211489677429e-02
1.025434657931327820e-01 3.248744308948516846e-01 -6.739076226949691772e-03
7.876019179821014404e-02 1.791118830442428589e-01 1.064450386911630630e-02
2.035087794065475464e-01 3.038380444049835205e-01 5.517819151282310486e-02
2.003494948148727417e-01 3.354462981224060059e-01 3.234742581844329834e-02
6.460413336753845215e-02 2.961356639862060547e-01 1.475959084928035736e-03
2.174328565597534180e-01 2.041167914867401123e-01 -2.756297588348388672e-02
1.772660315036773682e-01 3.545146286487579346e-01 -2.082915976643562317e-02
1.564704775810241699e-01 2.733054459095001221e-01 6.119048967957496643e-02
1.092021316289901733e-01 2.937152087688446045e-01 3.867388889193534851e-02
2.176115810871124268e-01 2.867000997066497803e-01 -7.866273820400238037e-02
1.478139758110046387e-01 2.919609248638153076e-01 5.285922437906265259e-02
2.950386703014373779e-02 2.169523239135742188e-01 -3.511131554841995239e-02
2.089100778102874756e-01 1.954967379570007324e-01 -1.545277889817953110e-02
7.272487878799438477e-02 2.389157414436340332e-01 -6.896286457777023315e-02
6.298062205314636230e-02 1.897248923778533936e-01 1.966684311628341675e-02
2.409169971942901611e-01 2.894062101840972900e-01 5.806592479348182678e-02
5.951663851737976074e-02 2.969144880771636963e-01 -3.459968045353889465e-02
1.059908866882324219e-01 2.600069940090179443e-01 -7.973184436559677124e-02
1.982901990413665771e-01 2.819840610027313232e-01 -8.182627707719802856e-02
1.451199948787689209e-01 1.954249143600463867e-01 4.512480273842811584e-02
8.214670419692993164e-02 1.765031814575195312e-01 1.274006441235542297e-03
1.685229092836380005e-01 1.870605051517486572e-01 3.077389672398567200e-02
1.669620573520660400e-01 1.984739154577255249e-01 4.590824991464614868e-02
2.092255949974060059e-01 2.115543335676193237e-01 4.699950665235519409e-02
3.174200654029846191e-02 2.535005509853363037e-01 4.598565399646759033e-03
2.644627094268798828e-01 2.343454658985137939e-01 3.746060654520988464e-02
1.243040040135383606e-01 2.537703812122344971e-01 -8.132061362266540527e-02
3.257748484611511230e-02 2.028907835483551025e-01 1.507568173110485077e-03
1.343362182378768921e-01 1.750627607107162476e-01 7.356022484600543976e-03
2.750389575958251953e-01 2.323917150497436523e-01 -1.516337506473064423e-02
1.521126031875610352e-01 3.328336477279663086e-01 2.070027962327003479e-02
1.258369684219360352e-01 1.858088970184326172e-01 3.493420407176017761e-02
2.436340749263763428e-01 2.228292524814605713e-01 4.090441390872001648e-02
2.945725321769714355e-01 2.574536502361297607e-01 -2.637189254164695740e-02
2.354356050491333008e-01 2.101392745971679688e-01 2.987859770655632019e-02
1.389710009098052979e-01 1.887839734554290771e-01 3.857402130961418152e-02
1.472964137792587280e-01 2.497823089361190796e-01 6.314386427402496338e-02
1.725588142871856689e-01 3.045886456966400146e-01 5.146231502294540405e-02
8.148027956485748291e-02 2.133680582046508789e-01 4.365156963467597961e-02
1.134283542633056641e-01 3.289174735546112061e-01 -2.083281520754098892e-03
1.449411511421203613e-01 3.115962147712707520e-01 3.987873345613479614e-02
1.188450306653976440e-01 2.284900248050689697e-01 -7.343322038650512695e-02
2.658548355102539062e-01 2.218279540538787842e-01 6.778760813176631927e-03
1.310529410839080811e-01 2.957933247089385986e-01 4.602342471480369568e-02
1.182958036661148071e-01 2.924306392669677734e-01 4.338080435991287231e-02
1.386137157678604126e-01 3.367256522178649902e-01 5.599425174295902252e-03
3.016690909862518311e-02 2.635217308998107910e-01 -1.265557669103145599e-02
1.728015989065170288e-01 1.851483285427093506e-01 -1.948132179677486420e-02
1.161733418703079224e-01 1.911574602127075195e-01 3.990129381418228149e-02
3.219719231128692627e-01 3.026947975158691406e-01 7.990586571395397186e-03
2.197843790054321289e-02 2.217228561639785767e-01 -2.365849912166595459e-02
2.434345483779907227e-01 2.391529977321624756e-01 5.260643362998962402e-02
2.991931438446044922e-01 2.556445002555847168e-01 -1.617422699928283691e-02
1.161146163940429688e-01 1.749002486467361450e-01 -1.197539549320936203e-02
2.346865534782409668e-01 3.357896804809570312e-01 3.416968882083892822e-02
2.072641253471374512e-01 2.277817875146865845e-01 -5.984458699822425842e-02
2.328696399927139282e-01 2.040114700794219971e-01 -7.632466498762369156e-03
9.703370928764343262e-02 2.746510803699493408e-01 4.388507083058357239e-02
2.191160023212432861e-01 1.982892453670501709e-01 -1.038085203617811203e-02
2.439858466386795044e-01 2.238495349884033203e-01 -3.667780384421348572e-02
2.642343938350677490e-01 2.281876206398010254e-01 -2.316849865019321442e-02
4.067935049533843994e-02 2.794541418552398682e-01 -2.485419437289237976e-02
2.637119293212890625e-01 2.995170652866363525e-01 -6.499255448579788208e-02
1.189469471573829651e-01 3.206853866577148438e-01 -6.132972240447998047e-02
2.379882335662841797e-01 3.029432296752929688e-01 5.447359755635261536e-02
1.209985762834548950e-01 3.358122110366821289e-01 -3.122621029615402222e-02
3.853547573089599609e-02 2.717646658420562744e-01 -3.564403392374515533e-03
1.889620721340179443e-01 2.525454163551330566e-01 -7.751339673995971680e-02
8.624631166458129883e-02 3.058693706989288330e-01 -5.607915297150611877e-02
2.019253373146057129e-01 3.561169803142547607e-01 -3.798164054751396179e-02
3.112111985683441162e-01 2.954958975315093994e-01 -3.162956982851028442e-02
3.041803240776062012e-01 3.308637440204620361e-01 1.470197830349206924e-02
1.914280056953430176e-01 2.164362072944641113e-01 5.513434484601020813e-02
1.806920766830444336e-01 3.499903976917266846e-01 -4.632499068975448608e-02
2.335890829563140869e-01 2.941834628582000732e-01 -7.510930299758911133e-02
2.125954627990722656e-01 2.716602087020874023e-01 -7.783649116754531860e-02
1.015545651316642761e-01 2.969315648078918457e-01 3.243720903992652893e-02
1.885483562946319580e-01 3.541586697101593018e-01 -3.880007937550544739e-02
4.549990594387054443e-02 2.640290856361389160e-01 -5.301481112837791443e-02
1.528932601213455200e-01 2.590484917163848877e-01 -8.291400223970413208e-02
1.851559579372406006e-01 2.949070036411285400e-01 5.776463076472282410e-02
2.132043093442916870e-01 2.687809467315673828e-01 6.404577195644378662e-02
2.791319787502288818e-01 3.327124118804931641e-01 2.850798517465591431e-02
5.858719348907470703e-02 2.901424169540405273e-01 -4.634616896510124207e-02
3.551386296749114990e-02 2.204741537570953369e-01 1.676326245069503784e-02
1.106344461441040039e-01 1.996399462223052979e-01 4.553071036934852600e-02
7.582217454910278320e-02 3.095365166664123535e-01 -1.070110779255628586e-02
4.829763621091842651e-02 2.171010375022888184e-01 2.716892585158348083e-02
2.024229764938354492e-01 2.206048071384429932e-01 5.533978715538978577e-02
6.127730011940002441e-02 2.301443368196487427e-01 -6.257459521293640137e-02
2.110324203968048096e-01 2.109271883964538574e-01 -4.212516546249389648e-02
4.106464982032775879e-02 1.957093179225921631e-01 -2.406327240169048309e-02
7.528245449066162109e-02 2.335161715745925903e-01 4.396938160061836243e-02
8.939667046070098877e-02 2.048632949590682983e-01 4.309812933206558228e-02
2.490000128746032715e-01 3.596027493476867676e-01 -1.714878715574741364e-02
2.373234331607818604e-01 2.821684479713439941e-01 -7.305494695901870728e-02
7.908082753419876099e-02 3.108267784118652344e-01 -3.924060612916946411e-02
2.224785983562469482e-01 2.682271897792816162e-01 -7.454171031713485718e-02
1.493089646100997925e-01 2.888749539852142334e-01 -8.362431079149246216e-02
2.601860761642456055e-01 2.567815780639648438e-01 5.256913974881172180e-02
2.974446117877960205e-01 2.926365137100219727e-01 3.784847259521484375e-02
1.588237434625625610e-01 2.890221476554870605e-01 5.648082867264747620e-02
7.299228012561798096e-02 2.789407074451446533e-01 -6.627731770277023315e-02
2.645721435546875000e-01 2.271506041288375854e-01 2.804169431328773499e-02
2.555105984210968018e-01 2.367706000804901123e-01 -4.248614609241485596e-02
1.039006561040878296e-01 2.261336594820022583e-01 5.353176966309547424e-02
3.186526298522949219e-01 2.939599752426147461e-01 -1.934276893734931946e-02
2.589879930019378662e-01 2.772549390792846680e-01 -6.380211561918258667e-02
1.400589495897293091e-01 3.213063478469848633e-01 2.908945083618164062e-02
5.166121572256088257e-02 2.274069935083389282e-01 3.091394901275634766e-02
1.694305092096328735e-01 3.447875678539276123e-01 -5.200896039605140686e-02
3.141158819198608398e-01 3.210250139236450195e-01 1.280647050589323044e-02
1.897802650928497314e-01 2.140503823757171631e-01 -5.464353784918785095e-02
2.489872872829437256e-01 3.574797809123992920e-01 -1.638351008296012878e-03
9.996076673269271851e-02 1.923064887523651123e-01 3.791355341672897339e-02
5.547197163105010986e-02 2.943511307239532471e-01 -1.545298658311367035e-02
2.585431933403015137e-02 2.544242739677429199e-01 -1.075195521116256714e-02
2.538784742355346680e-01 3.569833040237426758e-01 -3.096713125705718994e-02
9.006727486848831177e-02 2.818603515625000000e-01 3.671508654952049255e-02
2.764988541603088379e-01 2.460904568433761597e-01 -3.439282625913619995e-02
1.590785533189773560e-01 3.160740137100219727e-01 4.073610529303550720e-02
2.548505365848541260e-02 2.276047021150588989e-01 4.188201390206813812e-03
2.489707767963409424e-01 2.547261118888854980e-01 -5.941212549805641174e-02
9.520030766725540161e-02 1.797767281532287598e-01 -2.620528638362884521e-02
1.041852533817291260e-01 3.169601857662200928e-01 -5.660410970449447632e-02
1.571314036846160889e-01 2.325610220432281494e-01 6.275181472301483154e-02
2.942212224006652832e-01 3.215099871158599854e-01 -4.566860571503639221e-02
2.329336851835250854e-01 2.152515202760696411e-01 3.935588523745536804e-02
7.758149504661560059e-02 1.802279502153396606e-01 -2.137696370482444763e-02
2.552056014537811279e-01 2.151920944452285767e-01 1.025217864662408829e-02
2.813364267349243164e-01 3.195228576660156250e-01 -5.433537065982818604e-02
