-2.526687383651733398e-01 -5.586713552474975586e-03 2.021268010139465332e-01
3.907013833522796631e-01 5.970944166183471680e-01 -1.321404725313186646e-01
1.134729236364364624e-01 5.218098759651184082e-01 -5.679275989532470703e-01
-4.883789122104644775e-01 4.300423264503479004e-01 -1.392492353916168213e-01
2.221426665782928467e-01 6.645364761352539062e-01 -2.605393826961517334e-01
4.346172213554382324e-01 4.919773340225219727e-01 2.672927677631378174e-01
2.547889351844787598e-01 6.618946790695190430e-02 3.114564418792724609e-01
-3.263278603553771973e-01 7.841444015502929688e-02 -3.574812412261962891e-01
4.706041216850280762e-01 4.139401316642761230e-01 -2.546954154968261719e-01
-3.173875212669372559e-01 2.483492493629455566e-01 5.287446379661560059e-01
-1.041095182299613953e-01 1.389911174774169922e-01 -5.926070809364318848e-01
-4.114089012145996094e-01 4.011290967464447021e-01 4.165920019149780273e-01
1.411868035793304443e-01 8.872105181217193604e-02 -5.130240321159362793e-01
1.813746690750122070e-01 -2.023825049400329590e-02 -1.904922723770141602e-01
-3.688064962625503540e-02 7.345810532569885254e-01 1.921254955232143402e-02
1.014535576105117798e-01 6.692291498184204102e-01 -3.343265354633331299e-01
-3.376038074493408203e-01 6.226706504821777344e-01 -7.719404250383377075e-02
-1.182261779904365540e-01 6.478692293167114258e-01 4.142308533191680908e-01
-4.400535523891448975e-01 3.253014087677001953e-01 3.850985169410705566e-01
-1.235225871205329895e-01 2.447781562805175781e-01 -6.447364687919616699e-01
-2.955550551414489746e-01 2.790052592754364014e-01 5.595412254333496094e-01
3.214400112628936768e-01 2.137227356433868408e-01 -4.899391531944274902e-01
3.217251896858215332e-01 4.488901197910308838e-01 -4.947726428508758545e-01
-4.781127870082855225e-01 1.421032696962356567e-01 1.129454653710126877e-02
-5.078985691070556641e-01 2.173121273517608643e-01 9.712508320808410645e-02
-1.463334411382675171e-01 -3.541946411132812500e-02 1.988774687051773071e-01
-2.641609311103820801e-01 5.957334041595458984e-01 3.950053751468658447e-01
2.679965198040008545e-01 2.108323574066162109e-02 -2.038800865411758423e-01
-9.293252229690551758e-02 6.550428271293640137e-02 4.736559092998504639e-01
-3.159326687455177307e-02 -6.800353527069091797e-03 -3.865645527839660645e-01
-2.988126277923583984e-01 1.891675591468811035e-02 -2.529268562793731689e-01
-1.628022342920303345e-01 6.932662129402160645e-01 2.281620502471923828e-01
1.314225345849990845e-01 2.067124694585800171e-01 5.924307703971862793e-01
-3.450735211372375488e-01 5.891218185424804688e-01 -2.077520936727523804e-01
-4.720577970147132874e-02 5.411039590835571289e-01 5.909650325775146484e-01
-7.688453886657953262e-03 6.217491030693054199e-01 -4.471496641635894775e-01
-3.817487359046936035e-01 3.321498334407806396e-01 4.774005711078643799e-01
4.143937826156616211e-01 3.724887967109680176e-01 -4.024506509304046631e-01
1.756947338581085205e-01 2.094393968582153320e-01 5.716964602470397949e-01
1.176643744111061096e-01 8.771152794361114502e-02 -5.234134197235107422e-01
-5.221495032310485840e-01 3.666436076164245605e-01 2.570190839469432831e-02
-2.723812758922576904e-01 6.454697847366333008e-01 -1.726600825786590576e-01
-2.892884016036987305e-01 -1.655289530754089355e-02 -4.810318350791931152e-03
-1.085154339671134949e-01 7.081162929534912109e-01 2.213684618473052979e-01
3.947025239467620850e-01 5.581405162811279297e-01 -2.470433115959167480e-01
1.508971005678176880e-01 7.049349546432495117e-01 2.291281372308731079e-01
-5.088053941726684570e-01 3.371448814868927002e-01 1.880200803279876709e-01
-2.824265658855438232e-01 3.044369220733642578e-01 -5.643456578254699707e-01
2.948343157768249512e-01 5.089393258094787598e-02 1.941050738096237183e-01
-5.259551480412483215e-02 3.100150823593139648e-01 6.679321527481079102e-01
4.901951551437377930e-01 4.004141390323638916e-01 -1.906556785106658936e-01
-3.763927519321441650e-01 3.552025556564331055e-02 -6.366579979658126831e-02
-4.375721886754035950e-02 -6.148478388786315918e-02 9.367013722658157349e-02
9.257732331752777100e-02 6.411439180374145508e-02 4.473447799682617188e-01
4.311548471450805664e-01 2.980704903602600098e-01 -3.658193945884704590e-01
2.430952340364456177e-01 3.145986795425415039e-02 2.321076840162277222e-01
-3.825554251670837402e-01 4.871761798858642578e-02 -1.371342837810516357e-01
4.335395693778991699e-01 5.041933655738830566e-01 -2.536330521106719971e-01
1.378052979707717896e-01 3.583393394947052002e-01 6.419313549995422363e-01
3.373242914676666260e-01 5.140502452850341797e-01 -4.187692999839782715e-01
4.006704092025756836e-01 4.068072438240051270e-01 -4.141856729984283447e-01
1.590134352445602417e-01 7.182658910751342773e-01 -7.515438646078109741e-02
3.283908963203430176e-01 3.502207994461059570e-01 5.031839013099670410e-01
-4.560489654541015625e-01 2.053547054529190063e-01 -2.844407856464385986e-01
-2.975420653820037842e-02 6.807410120964050293e-01 -3.087868392467498779e-01
-2.276688367128372192e-01 6.577241420745849609e-01 -2.119959443807601929e-01
-3.610322475433349609e-01 1.795654892921447754e-01 -4.374857544898986816e-01
-3.277073502540588379e-01 4.808368384838104248e-01 -4.340966939926147461e-01
-4.292645752429962158e-01 8.047580718994140625e-02 2.108823321759700775e-02
-2.248835712671279907e-01 6.470354199409484863e-01 3.194458186626434326e-01
4.003306329250335693e-01 6.012002825736999512e-01 5.082215741276741028e-02
-2.409957498311996460e-01 6.454951167106628418e-01 -2.343318015336990356e-01
-4.081106781959533691e-01 1.939513832330703735e-01 -3.763813972473144531e-01
-2.782884836196899414e-01 6.313414573669433594e-01 -2.158151715993881226e-01
4.204446971416473389e-01 2.010530829429626465e-01 -3.086920678615570068e-01
3.703691661357879639e-01 5.980070829391479492e-01 -1.997171193361282349e-01
2.597840428352355957e-01 5.239225625991821289e-01 -4.881762266159057617e-01
-1.351628080010414124e-02 3.009952306747436523e-01 6.671606302261352539e-01
4.966888427734375000e-01 2.659806907176971436e-01 -7.820750027894973755e-02
4.492397308349609375e-01 5.460578799247741699e-01 3.883731737732887268e-02
1.973651796579360962e-01 2.971691191196441650e-01 -6.235305666923522949e-01
-2.482511252164840698e-01 -1.417803764343261719e-02 -2.146556377410888672e-01
1.174467355012893677e-01 -4.665082693099975586e-02 5.370697006583213806e-02
4.700317978858947754e-01 4.424174427986145020e-01 -2.298069894313812256e-01
-2.866984903812408447e-02 -1.572689414024353027e-02 3.039425313472747803e-01
1.497420817613601685e-01 2.074119448661804199e-01 5.842882394790649414e-01
-2.495015263557434082e-01 1.521286368370056152e-02 -3.182412683963775635e-01
8.764795958995819092e-02 2.041697055101394653e-01 6.072666049003601074e-01
2.149686664342880249e-01 6.000828742980957031e-02 -4.090757668018341064e-01
4.248332977294921875e-01 2.953951060771942139e-01 3.422324657440185547e-01
-3.545294702053070068e-01 1.892271637916564941e-02 -5.687898024916648865e-03
-2.313119471073150635e-01 -3.018897771835327148e-02 -1.573960185050964355e-01
-4.970714449882507324e-01 3.498217165470123291e-01 2.332122176885604858e-01
3.641571104526519775e-01 5.253626108169555664e-01 -3.659807145595550537e-01
4.415192827582359314e-02 7.235735058784484863e-01 -1.418266594409942627e-01
-8.678022772073745728e-02 7.152729034423828125e-01 2.028347104787826538e-01
4.469470381736755371e-01 2.370461970567703247e-01 -2.829159498214721680e-01
4.844633489847183228e-02 5.801754593849182129e-01 -5.126094818115234375e-01
3.088568449020385742e-01 6.642590761184692383e-01 9.946403652429580688e-02
-5.117713809013366699e-01 2.526550590991973877e-01 1.391069591045379639e-01
-4.427729845046997070e-01 4.885119795799255371e-01 -1.978388130664825439e-01
1.674413830041885376e-01 -1.923805475234985352e-02 1.526905298233032227e-01
2.129276245832443237e-01 6.686751842498779297e-01 2.984011769294738770e-01
3.057302534580230713e-01 6.523059606552124023e-01 1.907773166894912720e-01
-3.191981911659240723e-01 4.872486591339111328e-01 4.822511076927185059e-01
1.731806397438049316e-01 2.362453341484069824e-01 -6.196832060813903809e-01
1.655814051628112793e-02 4.940010905265808105e-01 -6.053883433341979980e-01
-4.578817784786224365e-01 1.364738941192626953e-01 1.554519832134246826e-01
-1.358842551708221436e-01 1.949015259742736816e-01 6.042559742927551270e-01
-7.060635834932327271e-02 4.551420807838439941e-01 6.464515328407287598e-01
-2.837559878826141357e-01 2.188503742218017578e-03 -2.180424630641937256e-01
4.079371094703674316e-01 5.691310167312622070e-01 1.882472038269042969e-01
3.904539942741394043e-01 1.557551026344299316e-01 2.521588206291198730e-01
-4.852202236652374268e-01 3.813327252864837646e-01 2.573103606700897217e-01
-3.411924093961715698e-02 7.099230289459228516e-01 2.650608718395233154e-01
-2.794871032238006592e-01 2.607640624046325684e-02 2.722640931606292725e-01
-2.725208997726440430e-01 6.671396493911743164e-01 8.196324855089187622e-02
4.406061470508575439e-01 1.839278638362884521e-01 1.573513448238372803e-01
2.604938447475433350e-01 6.522947549819946289e-01 2.840518951416015625e-01
5.410995334386825562e-02 9.205494821071624756e-02 -5.502611398696899414e-01
-4.783222377300262451e-01 1.483975201845169067e-01 -7.672724872827529907e-02
1.955359578132629395e-01 6.920368671417236328e-01 2.331651002168655396e-01
-4.151900708675384521e-01 9.428763389587402344e-02 1.852656751871109009e-01
-4.051613211631774902e-01 4.252304136753082275e-01 -3.728932142257690430e-01
2.592386677861213684e-03 -6.668922305107116699e-02 -7.518047839403152466e-02
-2.372792512178421021e-01 3.971846401691436768e-01 6.028538942337036133e-01
3.296585381031036377e-01 4.918666481971740723e-01 4.552626311779022217e-01
-4.428963959217071533e-01 4.616683721542358398e-01 -2.482992559671401978e-01
3.224800340831279755e-03 -4.358541965484619141e-02 -2.605319917201995850e-01
-3.652168810367584229e-01 2.880644202232360840e-01 -4.783703386783599854e-01
-5.187430977821350098e-01 2.627653777599334717e-01 -8.075223863124847412e-02
3.175629079341888428e-01 4.131432473659515381e-01 -5.182749629020690918e-01
7.429999299347400665e-03 7.208570241928100586e-01 -1.583135873079299927e-01
-1.813060790300369263e-01 -1.451820135116577148e-03 2.954539358615875244e-01
3.891366422176361084e-01 1.608780771493911743e-01 -3.213273584842681885e-01
2.431281656026840210e-01 6.817809939384460449e-01 -1.579359173774719238e-01
2.279159128665924072e-01 7.032440900802612305e-01 5.798059701919555664e-02
-1.951375901699066162e-01 1.450426131486892700e-01 -5.601949691772460938e-01
2.632942795753479004e-01 4.061921238899230957e-01 -5.687262415885925293e-01
2.537908852100372314e-01 5.329014062881469727e-01 4.984099268913269043e-01
4.324057996273040771e-01 4.536921679973602295e-01 3.127436935901641846e-01
-5.144306421279907227e-01 3.917011022567749023e-01 8.237583190202713013e-02
-3.020191565155982971e-02 1.751554012298583984e-01 6.046107411384582520e-01
1.019566878676414490e-01 1.972945183515548706e-01 5.975371003150939941e-01
4.124418795108795166e-01 4.604970812797546387e-01 3.501842021942138672e-01
2.556448578834533691e-01 7.593286037445068359e-02 -3.938205242156982422e-01
2.147644907236099243e-01 1.289740055799484253e-01 -5.145822763442993164e-01
-3.475537300109863281e-01 5.012474060058593750e-01 -3.825681805610656738e-01
4.096797406673431396e-01 1.497691124677658081e-01 -2.410543262958526611e-01
2.416824698448181152e-01 6.510022878646850586e-01 3.147735297679901123e-01
-3.216829150915145874e-02 1.291892379522323608e-01 5.618729591369628906e-01
3.348755240440368652e-01 3.219089210033416748e-01 -5.164650082588195801e-01
1.772710233926773071e-01 3.651690483093261719e-02 -3.960818946361541748e-01
-3.549066781997680664e-01 1.164465993642807007e-01 -3.769371211528778076e-01
-3.755643367767333984e-01 5.648128390312194824e-01 2.639677524566650391e-01
4.083521664142608643e-01 2.579382658004760742e-01 -3.907671272754669189e-01
-3.998791873455047607e-01 6.809470057487487793e-02 1.394228339195251465e-01
-3.937571048736572266e-01 5.337211489677429199e-02 -1.062694042921066284e-01
3.092660605907440186e-01 6.184849739074707031e-01 -2.719746530055999756e-01
2.722337096929550171e-02 3.014375567436218262e-01 -6.731175184249877930e-01
-2.836740612983703613e-01 1.491986066102981567e-01 4.843317866325378418e-01
4.966925382614135742e-01 3.571996390819549561e-01 1.480248868465423584e-01
-1.635133475065231323e-01 9.487825632095336914e-02 4.951214492321014404e-01
2.934168279170989990e-01 9.920339286327362061e-02 3.269284665584564209e-01
1.693740338087081909e-01 -2.284118533134460449e-02 1.278174221515655518e-01
1.369236260652542114e-01 7.251137495040893555e-01 9.884943068027496338e-02
-2.633885294198989868e-02 3.083432316780090332e-01 -6.730468869209289551e-01
3.557571768760681152e-01 6.576013565063476562e-02 -9.635236114263534546e-02
3.110915422439575195e-01 3.155925869941711426e-02 -6.169341504573822021e-02
3.045959025621414185e-02 -1.346379518508911133e-03 -3.929144144058227539e-01
2.989884614944458008e-01 6.670109033584594727e-01 -8.943910151720046997e-02
5.600317940115928650e-02 -1.488348841667175293e-02 -3.466029763221740723e-01
-6.489001214504241943e-02 6.491402387619018555e-01 4.342542588710784912e-01
1.752302050590515137e-01 7.038351893424987793e-01 -1.545655876398086548e-01
-3.368227481842041016e-01 6.867894530296325684e-02 2.966211736202239990e-01
3.938727974891662598e-01 5.790306925773620605e-01 -1.917860805988311768e-01
-1.427183896303176880e-01 3.385454416275024414e-03 -3.804448246955871582e-01
-2.551897168159484863e-01 2.761310935020446777e-01 -5.836411714553833008e-01
-4.250088930130004883e-01 5.057420730590820312e-01 -2.154639512300491333e-01
-4.385991096496582031e-01 4.441662132740020752e-01 -2.843352258205413818e-01
4.680844545364379883e-01 4.741106033325195312e-01 -1.904053688049316406e-01
-1.275120079517364502e-01 4.309171736240386963e-01 -6.204336881637573242e-01
-1.267686188220977783e-01 2.320928871631622314e-01 6.291033029556274414e-01
2.349465638399124146e-01 6.729887127876281738e-01 2.528608441352844238e-01
-2.261147499084472656e-01 -1.580196619033813477e-02 -2.445366978645324707e-01
2.529295980930328369e-01 1.401513814926147461e-03 -1.155751869082450867e-01
-3.069366514682769775e-01 8.753953874111175537e-02 -3.995881974697113037e-01
-7.822485268115997314e-02 -3.372195363044738770e-02 -2.976011633872985840e-01
-5.240024328231811523e-01 3.303298652172088623e-01 8.298282325267791748e-02
1.010081544518470764e-01 -5.269083380699157715e-02 -9.205383062362670898e-02
2.497878819704055786e-01 2.406510412693023682e-01 -5.738590359687805176e-01
-3.359384238719940186e-01 3.633788228034973145e-01 -5.036317110061645508e-01
-3.382939398288726807e-01 3.390113115310668945e-01 -5.072864294052124023e-01
3.303130865097045898e-01 9.060172736644744873e-02 2.387841492891311646e-01
-1.353905797004699707e-01 2.584939002990722656e-01 -6.442167162895202637e-01
-1.064263731241226196e-01 6.501284241676330566e-02 -5.099828839302062988e-01
-2.677863538265228271e-01 7.958272099494934082e-02 4.038523137569427490e-01
4.055992960929870605e-01 1.237230896949768066e-01 1.066220328211784363e-01
-3.818897902965545654e-01 5.927658081054687500e-01 -3.945652395486831665e-02
-1.456841528415679932e-01 3.794467449188232422e-01 6.503934860229492188e-01
-1.099720895290374756e-01 6.632611751556396484e-01 3.821030855178833008e-01
-3.308506011962890625e-01 1.084125041961669922e-02 8.806972950696945190e-02
-4.283418357372283936e-01 1.441858112812042236e-01 2.695915699005126953e-01
1.237174645066261292e-01 6.338391304016113281e-01 4.480095207691192627e-01
-3.628166615962982178e-01 1.189465969800949097e-01 3.537288606166839600e-01
2.730676904320716858e-02 7.105398178100585938e-02 -5.280409455299377441e-01
-2.221966534852981567e-01 4.525384008884429932e-01 5.902212262153625488e-01
2.890233397483825684e-01 3.164787292480468750e-01 -5.614975690841674805e-01
-2.873074710369110107e-01 6.302686929702758789e-01 -2.007427215576171875e-01
3.365035727620124817e-02 3.206523656845092773e-01 6.669898033142089844e-01
-4.824592471122741699e-01 1.585854142904281616e-01 -9.172087907791137695e-02
-4.723679125308990479e-01 4.902826547622680664e-01 -2.327331714332103729e-02
-3.357595205307006836e-01 6.057005524635314941e-01 -1.735793203115463257e-01
2.742176353931427002e-01 2.001723647117614746e-01 4.879526793956756592e-01
-5.692812427878379822e-02 -6.158709526062011719e-02 -1.553791165351867676e-01
7.654974609613418579e-02 3.522031903266906738e-01 6.616038680076599121e-01
1.449640840291976929e-01 1.064229458570480347e-01 4.844954609870910645e-01
-1.384711861610412598e-01 4.565155506134033203e-02 4.270709455013275146e-01
-4.926005750894546509e-02 3.979249000549316406e-01 6.675963997840881348e-01
-3.762569427490234375e-01 4.995754957199096680e-01 3.883630633354187012e-01
-5.198653340339660645e-01 2.437392771244049072e-01 -5.508160218596458435e-03
-4.573580622673034668e-01 3.332524299621582031e-01 3.491303920745849609e-01
1.054228395223617554e-01 2.230113893747329712e-01 -6.405503153800964355e-01
4.320980012416839600e-01 5.229222774505615234e-01 -2.213718891143798828e-01
-3.185669705271720886e-02 4.246635437011718750e-01 6.620957851409912109e-01
-1.281252354383468628e-01 2.915702760219573975e-01 -6.516035795211791992e-01
-1.771643571555614471e-02 6.651368141174316406e-01 4.090416729450225830e-01
-1.767974644899368286e-01 7.022904157638549805e-01 -6.334383040666580200e-02
-7.218909263610839844e-02 1.397708505392074585e-01 -6.003413200378417969e-01
2.243440896272659302e-01 1.996755599975585938e-05 1.360635608434677124e-01
5.156741663813591003e-02 4.236579537391662598e-01 -6.474055051803588867e-01
4.429814815521240234e-01 1.562868952751159668e-01 1.413838192820549011e-02
2.669435143470764160e-01 5.476060509681701660e-01 -4.538609981536865234e-01
3.851191997528076172e-01 2.607761919498443604e-01 3.937535583972930908e-01
-2.406513839960098267e-01 6.699842214584350586e-01 1.965303421020507812e-01
2.163213640451431274e-01 3.050478994846343994e-01 -6.136776208877563477e-01
-3.235691785812377930e-02 2.557268738746643066e-02 4.066107869148254395e-01
-4.741641283035278320e-01 1.578664034605026245e-01 -1.436715722084045410e-01
2.641931772232055664e-01 1.722607016563415527e-02 1.222012117505073547e-01
5.094608068466186523e-01 3.437792658805847168e-01 -8.065432310104370117e-02
-2.169854752719402313e-02 7.304497957229614258e-01 1.431541740894317627e-01
4.252274036407470703e-01 4.028525948524475098e-01 -3.722680509090423584e-01
2.682267427444458008e-01 1.619534790515899658e-01 -5.027750134468078613e-01
3.063491731882095337e-02 1.298374235630035400e-01 5.564383268356323242e-01
-1.278833448886871338e-01 4.066953063011169434e-01 -6.319025754928588867e-01
2.638086080551147461e-01 6.615277528762817383e-01 2.468864917755126953e-01
-2.946586012840270996e-01 4.709939360618591309e-01 5.217261910438537598e-01
-3.271962404251098633e-01 1.540724486112594604e-01 -4.577980935573577881e-01
4.271590709686279297e-02 3.249302506446838379e-02 -4.629538357257843018e-01
-3.468577265739440918e-01 2.929791808128356934e-02 1.442074328660964966e-01
-4.567904472351074219e-01 2.366406023502349854e-01 3.183962106704711914e-01
1.804401725530624390e-01 5.710956454277038574e-01 5.110892653465270996e-01
-5.656791105866432190e-02 3.381730616092681885e-01 -6.682473421096801758e-01
2.601538598537445068e-01 5.978986024856567383e-01 -3.820612728595733643e-01
9.817314893007278442e-02 7.321442365646362305e-01 -1.719290204346179962e-02
-1.608620434999465942e-01 4.259440898895263672e-01 6.332515478134155273e-01
-1.096717044711112976e-01 2.083350718021392822e-01 -6.354297399520874023e-01
8.760300278663635254e-02 3.561044037342071533e-01 -6.624627113342285156e-01
-1.752357631921768188e-01 -5.147621035575866699e-02 4.806297644972801208e-02
-3.919582366943359375e-01 6.483507156372070312e-02 1.554825007915496826e-01
3.939028680324554443e-01 6.012531518936157227e-01 -9.113895148038864136e-02
-3.346067667007446289e-02 7.262805700302124023e-01 -1.058503091335296631e-01
2.861038744449615479e-01 2.691859304904937744e-01 5.236746072769165039e-01
-5.134139060974121094e-01 3.815711736679077148e-01 1.189252659678459167e-01
-1.239682082086801529e-02 -6.769222021102905273e-02 -6.703376024961471558e-02
-1.212899684906005859e-01 -5.429482460021972656e-02 -1.704517304897308350e-01
-3.660674989223480225e-01 4.508833885192871094e-01 4.539412260055541992e-01
-3.502842187881469727e-01 6.078643202781677246e-01 -1.138748899102210999e-01
3.227076530456542969e-01 5.857100486755371094e-01 -3.275844752788543701e-01
7.730945944786071777e-02 -1.430565118789672852e-02 2.722784876823425293e-01
-1.025831326842308044e-02 7.147803306579589844e-01 2.496718466281890869e-01
3.053181171417236328e-01 6.698942184448242188e-01 2.421685028821229935e-03
7.214172929525375366e-02 7.309975624084472656e-01 -7.054839283227920532e-02
2.298819571733474731e-01 4.536131322383880615e-01 5.720864534378051758e-01
-3.826103806495666504e-01 5.091165900230407715e-01 -3.109961152076721191e-01
-3.176110386848449707e-01 6.384164094924926758e-01 -5.501572042703628540e-02
1.116104722023010254e-01 3.574331998825073242e-01 -6.565535068511962891e-01
-4.179922640323638916e-01 9.313948452472686768e-02 -1.867007762193679810e-01
1.612514257431030273e-01 5.838593244552612305e-01 5.062528848648071289e-01
3.378198742866516113e-01 1.284212768077850342e-01 -3.682331442832946777e-01
3.517436981201171875e-01 2.904470562934875488e-01 4.595704674720764160e-01
4.928937554359436035e-01 3.988915383815765381e-01 1.564343720674514771e-01
-3.899036049842834473e-01 5.841745138168334961e-01 -5.445779860019683838e-02
3.181330263614654541e-01 5.625662207603454590e-01 -3.762530386447906494e-01
5.315757170319557190e-02 8.466950058937072754e-02 4.943061470985412598e-01
4.844001531600952148e-01 2.978621721267700195e-01 -2.125637531280517578e-01
-1.981677114963531494e-02 4.232043027877807617e-02 4.387167096138000488e-01
-6.979744136333465576e-02 -6.768041849136352539e-02 -8.348152972757816315e-03
1.806112527847290039e-01 7.345518469810485840e-02 -4.644618332386016846e-01
5.183010920882225037e-02 6.279218792915344238e-01 -4.362269937992095947e-01
-3.959565758705139160e-01 5.836917757987976074e-01 2.342771552503108978e-02
5.039390921592712402e-01 2.866183519363403320e-01 -1.865757256746292114e-02
-2.871796786785125732e-01 6.509888172149658203e-01 -9.887063503265380859e-02
5.057131648063659668e-01 4.201311767101287842e-01 9.540701285004615784e-03
2.156144753098487854e-02 3.972872793674468994e-01 -6.598848104476928711e-01
-4.296124875545501709e-01 4.935440421104431152e-01 2.809929549694061279e-01
-6.601591408252716064e-02 6.338179111480712891e-03 -4.146596789360046387e-01
-4.563706517219543457e-01 5.162209272384643555e-01 4.652498289942741394e-02
-2.242552489042282104e-01 2.191369831562042236e-01 5.822650790214538574e-01
2.373701632022857666e-01 4.164704680442810059e-02 -3.390831053256988525e-01
-1.186325177550315857e-01 6.424814462661743164e-01 -3.679824173450469971e-01
1.055447757244110107e-01 -4.952475428581237793e-02 -1.250501126050949097e-01
1.431105136871337891e-01 2.334398925304412842e-01 -6.319018602371215820e-01
1.934323608875274658e-01 3.915703296661376953e-02 3.227154016494750977e-01
1.517925318330526352e-02 6.275767087936401367e-01 4.847914576530456543e-01
-2.482412606477737427e-01 -2.910253405570983887e-02 6.790746748447418213e-02
2.254961282014846802e-01 2.734867036342620850e-01 -6.023963093757629395e-01
-2.138502895832061768e-01 -4.351422190666198730e-02 1.735635660588741302e-02
2.531850636005401611e-01 -1.447737216949462891e-03 -1.654153130948543549e-02
-5.013269782066345215e-01 2.327470630407333374e-01 -1.562978476285934448e-01
3.181308805942535400e-01 6.586437225341796875e-01 -6.980820745229721069e-02
1.494256127625703812e-02 7.707977294921875000e-02 -5.377669334411621094e-01
-6.242362037301063538e-02 -1.970884203910827637e-02 2.908241450786590576e-01
-2.152617424726486206e-01 3.201357722282409668e-01 6.214736104011535645e-01
-4.160072505474090576e-01 4.936800599098205566e-01 3.162088096141815186e-01
-5.133106708526611328e-01 2.434481978416442871e-01 -9.747918695211410522e-02
-1.287174075841903687e-01 6.579104065895080566e-01 -3.231016695499420166e-01
1.574687063694000244e-01 -2.055984735488891602e-02 -2.344067245721817017e-01
-4.052760899066925049e-01 1.226640194654464722e-01 2.824557721614837646e-01
-1.529102623462677002e-01 2.637576162815093994e-01 -6.387140154838562012e-01
2.805789411067962646e-01 5.693916082382202148e-01 -4.095682203769683838e-01
3.585413992404937744e-01 6.725609302520751953e-02 1.581878587603569031e-02
-2.768434882164001465e-01 9.838806092739105225e-02 -4.490216076374053955e-01
-6.086495518684387207e-02 2.127180099487304688e-01 -6.478065252304077148e-01
3.698458671569824219e-01 1.170577704906463623e-01 2.138359695672988892e-01
-4.863517284393310547e-01 1.656568348407745361e-01 9.171833097934722900e-02
-2.502043545246124268e-01 1.329889148473739624e-01 -5.123440027236938477e-01
-1.892619431018829346e-01 6.966719031333923340e-01 -7.840418815612792969e-02
3.606460988521575928e-01 1.041386425495147705e-01 2.018858492374420166e-01
3.877824246883392334e-01 9.512740373611450195e-02 -1.069129258394241333e-01
4.782555997371673584e-02 1.892098635435104370e-01 -6.361109018325805664e-01
-1.447155177593231201e-01 6.486655473709106445e-01 -3.352237343788146973e-01
-3.068778812885284424e-01 5.644937753677368164e-01 -3.404134213924407959e-01
-9.023776650428771973e-02 5.904315710067749023e-01 5.257862210273742676e-01
4.128564298152923584e-01 3.278740346431732178e-01 3.784503340721130371e-01
2.026394009590148926e-02 3.805616497993469238e-02 4.249268174171447754e-01
-5.021276473999023438e-01 3.873628675937652588e-01 -1.432880759239196777e-01
-4.526417851448059082e-01 4.692275822162628174e-01 2.554837167263031006e-01
6.615147739648818970e-02 7.109653949737548828e-01 -2.037017196416854858e-01
9.488693624734878540e-02 4.446593225002288818e-01 -6.300091743469238281e-01
3.787619993090629578e-02 6.539344787597656250e-01 -3.841561675071716309e-01
-1.468237191438674927e-01 6.864317655563354492e-01 2.798455655574798584e-01
1.111843734979629517e-01 4.904805421829223633e-01 -5.957810282707214355e-01
2.585334181785583496e-01 6.802948713302612305e-01 1.702810674905776978e-01
1.967849582433700562e-02 -4.834437370300292969e-02 -2.313848137855529785e-01
3.840548992156982422e-01 3.658871650695800781e-01 -4.522160887718200684e-01
-2.623686790466308594e-01 5.962350368499755859e-01 -3.369618952274322510e-01
1.213112100958824158e-01 3.389450907707214355e-02 -4.327180087566375732e-01
3.850469589233398438e-01 5.775570273399353027e-01 -2.221858352422714233e-01
-2.068818807601928711e-01 3.562059998512268066e-02 3.700578212738037109e-01
-3.757698237895965576e-01 6.003916859626770020e-01 7.133259624242782593e-02
-3.288120627403259277e-01 1.689849644899368286e-01 4.608583152294158936e-01
2.615215480327606201e-01 1.533505022525787354e-01 4.516356587409973145e-01
4.316282272338867188e-01 2.488213181495666504e-01 -3.351204097270965576e-01
-5.156953930854797363e-01 3.813497722148895264e-01 9.731590747833251953e-02
-3.047240972518920898e-01 1.262163966894149780e-01 -4.543452560901641846e-01
-3.045657873153686523e-01 1.864254325628280640e-01 5.008617043495178223e-01
-3.003118336200714111e-01 1.064250171184539795e-01 4.143849909305572510e-01
-4.730359911918640137e-01 2.605329751968383789e-01 2.942275404930114746e-01
2.878004908561706543e-01 6.537168025970458984e-01 2.288731485605239868e-01
-3.607947826385498047e-01 2.686777710914611816e-02 -9.466467052698135376e-02
-1.855245232582092285e-01 4.347805082798004150e-01 -5.917205214500427246e-01
-2.439920306205749512e-01 4.967875182628631592e-01 -5.035461187362670898e-01
1.559774111956357956e-02 -6.087785959243774414e-02 7.754353433847427368e-02
-2.799247503280639648e-01 3.961937129497528076e-01 -5.457951426506042480e-01
4.080476164817810059e-01 4.247963428497314453e-01 3.795405030250549316e-01
-1.938225775957107544e-01 6.561405658721923828e-01 -2.662663757801055908e-01
1.920396983623504639e-01 1.821009963750839233e-01 5.395795702934265137e-01
-8.287150412797927856e-02 7.282001376152038574e-01 7.578947395086288452e-02
-9.429225698113441467e-03 1.184881031513214111e-01 5.490984916687011719e-01
-1.216090470552444458e-01 7.202275991439819336e-01 -1.943474449217319489e-02
-1.349326074123382568e-01 1.416260898113250732e-01 -5.850659012794494629e-01
1.064886897802352905e-01 5.494228601455688477e-01 5.684463381767272949e-01
1.354779303073883057e-01 2.026140689849853516e-03 2.785632312297821045e-01
8.380134403705596924e-02 7.321875095367431641e-01 1.031226217746734619e-01
4.318191111087799072e-01 4.177087247371673584e-01 -3.511846065521240234e-01
-2.901543080806732178e-01 5.372828245162963867e-02 -3.592113554477691650e-01
5.138992518186569214e-02 4.883074164390563965e-01 6.290900111198425293e-01
2.828193604946136475e-01 1.528184115886688232e-01 -4.779750108718872070e-01
-8.223081380128860474e-02 6.790133118629455566e-01 3.538556694984436035e-01
4.746064245700836182e-01 2.908387184143066406e-01 -2.455172687768936157e-01
-1.976088136434555054e-01 -4.733672738075256348e-02 2.975142374634742737e-02
3.837988078594207764e-01 4.459681808948516846e-01 -4.178622364997863770e-01
-2.051923125982284546e-01 7.884195446968078613e-02 4.505075812339782715e-01
-4.802033603191375732e-01 4.603904187679290771e-01 1.560692042112350464e-01
-4.634188115596771240e-01 4.537357091903686523e-01 2.459759414196014404e-01
-1.813841611146926880e-01 -3.327047824859619141e-02 -2.266336381435394287e-01
1.411607861518859863e-01 7.205747365951538086e-01 -8.741832524538040161e-02
-3.979703783988952637e-01 9.945537149906158447e-02 2.483674585819244385e-01
-2.793264016509056091e-02 7.296496629714965820e-01 -8.022864162921905518e-02
1.766694635152816772e-01 6.616844534873962402e-01 3.547875285148620605e-01
-4.125430807471275330e-02 -4.732170701026916504e-02 1.844693422317504883e-01
-3.339369595050811768e-01 5.380588173866271973e-01 -3.474271297454833984e-01
-3.830200135707855225e-01 3.049379289150238037e-01 -4.555471539497375488e-01
9.778980165719985962e-02 2.782875001430511475e-01 -6.594464182853698730e-01
-3.137942031025886536e-02 -1.485076546669006348e-02 -3.649287819862365723e-01
2.707355618476867676e-01 3.740684390068054199e-01 -5.725311636924743652e-01
2.805083394050598145e-01 1.682069450616836548e-01 4.489519298076629639e-01
-1.838437318801879883e-01 -9.712785482406616211e-03 -3.151537179946899414e-01
-2.100091129541397095e-01 9.538660943508148193e-02 -5.002843141555786133e-01
2.834163308143615723e-01 6.094571948051452637e-01 -3.321187496185302734e-01
-4.824673533439636230e-01 1.492756307125091553e-01 -1.288070436567068100e-02
7.128109037876129150e-02 6.400446295738220215e-01 -4.098948538303375244e-01
-1.574676036834716797e-01 -5.527952313423156738e-02 4.464759677648544312e-02
-1.146543994545936584e-01 7.101852297782897949e-01 2.016247361898422241e-01
5.015921592712402344e-01 4.152531921863555908e-01 8.469765633344650269e-02
-1.970243155956268311e-01 5.948811769485473633e-03 3.045486807823181152e-01
-2.773818373680114746e-01 5.868800878524780273e-01 -3.370542824268341064e-01
4.940711259841918945e-01 2.737968564033508301e-01 -1.285722255706787109e-01
2.417081296443939209e-01 6.587127447128295898e-01 -2.547824978828430176e-01
-2.834088206291198730e-01 6.135942935943603516e-01 -2.626921236515045166e-01
-2.759844064712524414e-02 6.950476169586181641e-01 3.240199387073516846e-01
4.801620543003082275e-01 4.934977889060974121e-01 -4.529761150479316711e-02
-2.405016422271728516e-01 1.593605279922485352e-01 5.271595716476440430e-01
-2.085855603218078613e-01 2.248994112014770508e-01 5.939631462097167969e-01
2.998591363430023193e-01 1.658133119344711304e-01 -4.728002250194549561e-01
8.481989055871963501e-02 6.521426439285278320e-01 -3.810746669769287109e-01
-3.553665876388549805e-01 1.631802469491958618e-01 4.234744012355804443e-01
-2.048586308956146240e-01 3.447357416152954102e-01 6.280975341796875000e-01
-2.073756456375122070e-01 6.064549684524536133e-01 -3.766911625862121582e-01
-4.007751941680908203e-01 3.534908592700958252e-01 -4.216380715370178223e-01
-1.944666355848312378e-01 1.807634979486465454e-01 -5.863752961158752441e-01
-2.038421779870986938e-01 6.653169393539428711e-01 2.879854738712310791e-01
-1.225542742758989334e-03 -6.131878495216369629e-02 -1.528065502643585205e-01
3.946768343448638916e-01 4.698503613471984863e-01 3.762727379798889160e-01
8.668180555105209351e-02 6.449502706527709961e-01 -3.963528573513031006e-01
1.800770908594131470e-01 3.264988064765930176e-01 6.194171905517578125e-01
-1.128591373562812805e-01 3.632508814334869385e-01 -6.510256528854370117e-01
-5.003111958503723145e-01 1.891558170318603516e-01 6.415809690952301025e-02
-3.756943345069885254e-02 4.913185536861419678e-01 6.307153105735778809e-01
3.294291496276855469e-01 5.657377839088439941e-02 -1.823043525218963623e-01
-2.274928428232669830e-02 1.249781548976898193e-01 -5.924158096313476562e-01
4.975546598434448242e-01 3.351679742336273193e-01 -1.706610769033432007e-01
-2.744395732879638672e-01 6.628624200820922852e-01 1.274881362915039062e-01
3.880511224269866943e-01 1.397699713706970215e-01 -2.820736467838287354e-01
6.719720363616943359e-02 7.286460399627685547e-01 -9.666486084461212158e-02
-3.548172414302825928e-01 3.904100358486175537e-01 -4.703752100467681885e-01
2.659950852394104004e-01 7.521718740463256836e-03 3.430274873971939087e-02
-3.449293673038482666e-01 4.638150334358215332e-01 -4.293684959411621094e-01
-2.919802665710449219e-01 5.766802430152893066e-01 -3.378539979457855225e-01
1.969083845615386963e-01 9.422054886817932129e-02 4.291560053825378418e-01
3.792577385902404785e-01 5.443893671035766602e-01 3.185257315635681152e-01
8.755986392498016357e-02 5.615571737289428711e-01 -5.309404730796813965e-01
-4.143964648246765137e-01 2.726876139640808105e-01 -4.049437940120697021e-01
1.285150647163391113e-01 3.121525943279266357e-01 -6.542701125144958496e-01
1.301540527492761612e-02 -5.263355374336242676e-02 -2.099863141775131226e-01
-1.175031289458274841e-01 6.978319883346557617e-01 2.626540064811706543e-01
3.022988438606262207e-01 3.157408833503723145e-01 -5.493584871292114258e-01
2.413070350885391235e-01 6.886767148971557617e-01 1.630078703165054321e-01
-4.161644577980041504e-01 4.837226271629333496e-01 3.311735391616821289e-01
-3.160741329193115234e-01 5.888692140579223633e-01 -2.711154520511627197e-01
-4.701869487762451172e-01 1.977755725383758545e-01 2.410998493432998657e-01
-3.550882339477539062e-01 5.940536260604858398e-01 2.263599783182144165e-01
-2.529059648513793945e-01 4.381898045539855957e-02 -3.826249241828918457e-01
4.063400030136108398e-01 4.535419046878814697e-01 3.668906688690185547e-01
-4.838470220565795898e-01 3.185947835445404053e-01 -2.554082870483398438e-01
-1.060956865549087524e-01 7.060288190841674805e-01 -1.675268113613128662e-01
-7.630486041307449341e-02 5.861423015594482422e-01 -4.898926317691802979e-01
3.238496184349060059e-01 6.173298358917236328e-01 2.735674977302551270e-01
2.506089508533477783e-01 1.163473725318908691e-02 1.309014260768890381e-01
-3.929266929626464844e-01 3.261374533176422119e-01 4.621578156948089600e-01
3.320960998535156250e-01 4.283727109432220459e-01 -4.956216216087341309e-01
2.112010419368743896e-01 6.623326539993286133e-01 -2.797670662403106689e-01
1.259418725967407227e-01 4.478926658630371094e-01 6.294655203819274902e-01
1.919350177049636841e-01 6.186558008193969727e-01 -4.005527496337890625e-01
4.271031022071838379e-01 3.165625631809234619e-01 3.472486436367034912e-01
-7.026199251413345337e-02 8.989933133125305176e-02 5.126860737800598145e-01
3.461851775646209717e-01 9.551586210727691650e-02 2.147752195596694946e-01
-1.800133734941482544e-01 6.421785950660705566e-01 -3.211607038974761963e-01
8.359202742576599121e-02 8.273389935493469238e-02 4.809647798538208008e-01
2.297067642211914062e-01 -1.291602849960327148e-03 -1.860960721969604492e-01
4.726827442646026611e-01 4.052335023880004883e-01 2.338218390941619873e-01
1.584252864122390747e-01 5.361360907554626465e-01 -5.375903248786926270e-01
3.568341732025146484e-01 6.010603904724121094e-01 2.455528676509857178e-01
4.918062090873718262e-01 4.162656068801879883e-01 1.485156118869781494e-01
-1.910834908485412598e-01 2.851334810256958008e-01 -6.243896484375000000e-01
2.002847641706466675e-01 1.055596470832824707e-01 4.439400136470794678e-01
4.817697703838348389e-01 4.530777931213378906e-01 -1.661346852779388428e-01
-7.228679209947586060e-02 7.268329262733459473e-01 1.253734827041625977e-01
4.258432388305664062e-01 5.607194900512695312e-01 1.413596421480178833e-01
-3.579167127609252930e-01 4.405512213706970215e-01 4.723669886589050293e-01
3.310582637786865234e-01 6.360234022140502930e-01 -1.640435010194778442e-01
-4.086232185363769531e-01 3.589020967483520508e-01 4.360752999782562256e-01
3.200467526912689209e-01 5.264884829521179199e-01 -4.252086281776428223e-01
1.197558119893074036e-01 4.903737902641296387e-01 6.103340387344360352e-01
-1.486941892653703690e-02 -6.598672270774841309e-02 -1.054060831665992737e-01
2.650588452816009521e-01 1.865049004554748535e-01 -5.277873277664184570e-01
4.773391410708427429e-02 7.360947132110595703e-01 -1.200288347899913788e-02
7.791231572628021240e-02 -4.777392745018005371e-02 -1.890019476413726807e-01
1.705418825149536133e-01 4.726226329803466797e-01 -5.880454182624816895e-01
-1.883676052093505859e-01 6.320438385009765625e-01 3.988879323005676270e-01
-3.967499434947967529e-01 5.328909158706665039e-01 2.888271212577819824e-01
-4.999033808708190918e-01 3.966536521911621094e-01 1.822516173124313354e-01
-3.122513890266418457e-01 6.297060847282409668e-01 -1.372215449810028076e-01
7.203735411167144775e-02 7.326704263687133789e-01 -5.016956478357315063e-02
-5.044961571693420410e-01 3.732591271400451660e-01 1.862095445394515991e-01
1.355842351913452148e-01 6.596612334251403809e-01 3.884512782096862793e-01
3.031785041093826294e-02 3.245523273944854736e-01 -6.732047796249389648e-01
-3.697730004787445068e-01 4.644668102264404297e-01 4.372441470623016357e-01
1.217332705855369568e-01 2.213193029165267944e-01 -6.346225738525390625e-01
-2.612130343914031982e-01 4.916377067565917969e-01 -4.938246309757232666e-01
-3.181247711181640625e-01 1.235886365175247192e-01 4.195108413696289062e-01
4.488348960876464844e-01 1.739419996738433838e-01 7.867667824029922485e-02
4.423495531082153320e-01 5.454252362251281738e-01 1.127500981092453003e-01
-4.692922234535217285e-01 1.289987415075302124e-01 2.046327292919158936e-02
-3.066879808902740479e-01 6.101810932159423828e-02 -3.518378138542175293e-01
-4.489699006080627441e-01 5.152292847633361816e-01 1.421690136194229126e-01
3.935119807720184326e-01 5.385956168174743652e-01 2.978519201278686523e-01
2.424487620592117310e-01 5.306236743927001953e-01 -4.945088922977447510e-01
-3.237193524837493896e-01 5.787069797515869141e-01 3.425165712833404541e-01
-7.891903072595596313e-02 4.280892312526702881e-01 -6.366326212882995605e-01
3.777416944503784180e-01 6.020238399505615234e-01 -1.613876074552536011e-01
-3.275826275348663330e-01 6.364531517028808594e-01 1.969942823052406311e-02
-4.234403073787689209e-01 5.535336732864379883e-01 -3.113008849322795868e-02
2.189908772706985474e-01 6.407682895660400391e-01 -3.308880329132080078e-01
-7.419943064451217651e-02 3.294169902801513672e-03 3.536707162857055664e-01
-4.803344309329986572e-01 4.681208133697509766e-01 1.276161670684814453e-01
2.292871922254562378e-01 5.326669216156005859e-01 5.186751484870910645e-01
-4.968601465225219727e-01 4.188208878040313721e-01 -1.167598962783813477e-01
7.062808424234390259e-02 1.406030952930450439e-01 5.580253601074218750e-01
-9.841001778841018677e-02 4.187414646148681641e-01 6.549684405326843262e-01
-3.014247417449951172e-01 -1.041403412818908691e-02 -5.297471210360527039e-02
6.434778124094009399e-02 7.355692982673645020e-01 6.569280475378036499e-02
4.942927956581115723e-01 2.670012414455413818e-01 6.541304290294647217e-02
-2.187935113906860352e-01 4.273032248020172119e-01 -5.760652422904968262e-01
-3.398154377937316895e-01 5.805830955505371094e-01 3.070145249366760254e-01
2.156766802072525024e-01 6.727827787399291992e-01 2.813909649848937988e-01
3.906934335827827454e-02 -6.352308392524719238e-02 3.430306678637862206e-03
-4.808222651481628418e-01 4.414560198783874512e-01 -1.517045348882675171e-01
-1.034006476402282715e-01 6.963384151458740234e-01 2.814699709415435791e-01
-4.313844442367553711e-01 4.551286697387695312e-01 3.338507115840911865e-01
4.222823306918144226e-03 6.851910352706909180e-01 -3.019829392433166504e-01
-4.619208276271820068e-01 3.828769028186798096e-01 -2.869699597358703613e-01
-5.238395333290100098e-01 2.765873670578002930e-01 -4.043042287230491638e-02
-2.670628130435943604e-01 5.337152481079101562e-01 4.879957735538482666e-01
-7.992129772901535034e-02 7.025363445281982422e-01 -2.078544646501541138e-01
4.027604162693023682e-01 6.001698970794677734e-01 3.398188157007098198e-03
-1.442062556743621826e-01 6.997185945510864258e-01 2.216832786798477173e-01
4.507006108760833740e-01 5.367698073387145996e-01 9.551424533128738403e-02
2.048736959695816040e-01 5.786374807357788086e-01 4.854924082756042480e-01
5.025543570518493652e-01 2.852220535278320312e-01 -6.402271240949630737e-02
2.616556286811828613e-01 6.805040240287780762e-01 -1.205364391207695007e-01
2.652702629566192627e-01 2.550584077835083008e-02 1.622160673141479492e-01
-4.282278716564178467e-01 2.001605182886123657e-01 3.468824923038482666e-01
8.171109855175018311e-02 -3.373417258262634277e-02 -2.620925009250640869e-01
-2.653046548366546631e-01 6.554033756256103516e-01 2.116387933492660522e-01
1.883525550365447998e-01 7.050727605819702148e-01 1.741626858711242676e-01
-1.615887582302093506e-01 -5.538442730903625488e-02 -8.682937920093536377e-02
-1.608111858367919922e-01 6.390432119369506836e-01 4.060110747814178467e-01
3.860109150409698486e-01 1.078429371118545532e-01 1.280727684497833252e-01
1.594351530075073242e-01 1.080073565244674683e-01 -5.275901556015014648e-01
6.896141171455383301e-02 2.483078837394714355e-02 3.817458152770996094e-01
9.355009347200393677e-02 6.709916591644287109e-01 3.811646699905395508e-01
3.608517050743103027e-01 5.823614597320556641e-01 2.838883101940155029e-01
-1.756220608949661255e-01 -4.266989231109619141e-02 1.279164552688598633e-01
-4.260525107383728027e-01 1.072457879781723022e-01 -2.018362730741500854e-01
-1.421701759099960327e-01 2.471095919609069824e-01 6.318573355674743652e-01
-4.940922260284423828e-01 2.403666079044342041e-01 2.110748440027236938e-01
-1.268731504678726196e-01 5.281481742858886719e-01 5.830878019332885742e-01
2.640952765941619873e-01 6.422711610794067383e-01 3.079387247562408447e-01
4.878270030021667480e-01 2.357492893934249878e-01 -3.810453787446022034e-02
1.553725171834230423e-02 -1.306071877479553223e-02 -3.653032481670379639e-01
-1.719559431076049805e-01 6.645690202713012695e-01 3.294543027877807617e-01
4.206340312957763672e-01 1.509663462638854980e-01 -2.030404657125473022e-01
-3.008759319782257080e-01 -9.866982698440551758e-03 -7.090092450380325317e-02
3.882975578308105469e-01 3.456245064735412598e-01 4.233373999595642090e-01
-5.199113488197326660e-01 2.460798919200897217e-01 3.976633399724960327e-02
-3.472427427768707275e-01 6.834068894386291504e-02 2.777501940727233887e-01
-9.909040480852127075e-02 7.255933880805969238e-01 7.067484408617019653e-02
2.125483453273773193e-01 4.421743750572204590e-01 5.884579420089721680e-01
-4.864700511097908020e-02 7.326275110244750977e-01 7.881794869899749756e-02
4.263531863689422607e-01 4.751586318016052246e-01 -3.130359649658203125e-01
-1.694028973579406738e-01 4.820760190486907959e-01 -5.671257376670837402e-01
4.749600887298583984e-01 3.084012866020202637e-01 2.183040976524353027e-01
-1.088229194283485413e-01 1.235504150390625000e-01 5.475871562957763672e-01
-2.912133336067199707e-01 6.327468156814575195e-01 -1.819576621055603027e-01
4.064596816897392273e-02 6.804469823837280273e-01 -3.166182339191436768e-01
3.466102778911590576e-01 5.577729344367980957e-01 3.567096590995788574e-01
7.693266868591308594e-02 3.004655539989471436e-01 -6.668369174003601074e-01
2.494022399187088013e-01 4.058149456977844238e-02 2.507363259792327881e-01
1.180087253451347351e-01 6.602217555046081543e-01 3.964474797248840332e-01
-4.109437465667724609e-01 5.553837418556213379e-01 -1.080784499645233154e-01
1.357166096568107605e-03 1.283946633338928223e-01 -5.954500436782836914e-01
-1.186335831880569458e-01 6.800477504730224609e-01 3.282674551010131836e-01
1.469785720109939575e-01 2.541047334671020508e-02 -3.964810371398925781e-01
-4.071393013000488281e-01 9.633730351924896240e-02 -2.315926551818847656e-01
-4.371855556964874268e-01 1.651783287525177002e-01 -2.852393686771392822e-01
-2.459960132837295532e-01 6.329892277717590332e-01 -2.665177285671234131e-01
1.288107503205537796e-02 2.697408199310302734e-03 -4.066081941127777100e-01
1.320396959781646729e-01 1.240132600069046021e-01 -5.598236322402954102e-01
7.237651944160461426e-02 7.034063339233398438e-02 4.660760760307312012e-01
1.008453294634819031e-01 -3.648933768272399902e-02 1.595788449048995972e-01
-3.496373891830444336e-01 4.752108454704284668e-02 2.122201174497604370e-01
-4.888960719108581543e-01 4.574136137962341309e-01 -4.774561151862144470e-02
-2.436705976724624634e-01 6.205340027809143066e-01 3.662864863872528076e-01
1.200505122542381287e-01 4.061267673969268799e-01 6.440411806106567383e-01
-1.476532667875289917e-01 5.207460522651672363e-01 -5.422042012214660645e-01
4.017449915409088135e-01 5.863353013992309570e-01 1.485344469547271729e-01
4.919319748878479004e-01 3.178718388080596924e-01 -1.918075531721115112e-01
4.510572850704193115e-01 5.074584484100341797e-01 1.878222078084945679e-01
-2.697441875934600830e-01 1.148937493562698364e-01 -4.764412045478820801e-01
1.437661200761795044e-01 6.006619334220886230e-02 -4.677682220935821533e-01
-3.970253169536590576e-01 2.482416629791259766e-01 -4.257497489452362061e-01
-7.159171998500823975e-02 6.375764608383178711e-01 -4.014743268489837646e-01
-2.406829893589019775e-01 4.389997720718383789e-01 5.851030945777893066e-01
-2.268349677324295044e-01 5.732058286666870117e-01 4.722416996955871582e-01
4.877472817897796631e-01 2.569622993469238281e-01 -1.390196532011032104e-01
-4.739517569541931152e-01 3.657929897308349609e-01 -2.660827934741973877e-01
-9.544111788272857666e-02 -1.711839437484741211e-02 2.923172116279602051e-01
-8.144175261259078979e-02 2.878528833389282227e-02 4.098627865314483643e-01
-3.047297522425651550e-02 7.195140719413757324e-01 -1.535408496856689453e-01
-3.979355990886688232e-01 2.439401447772979736e-01 4.315990805625915527e-01
4.500721991062164307e-01 2.168055772781372070e-01 -2.441449016332626343e-01
1.691026091575622559e-01 6.073324084281921387e-01 -4.351540207862854004e-01
-3.573635593056678772e-02 7.174599170684814453e-01 2.275884151458740234e-01
-9.294165670871734619e-02 6.929135918617248535e-01 -2.377631068229675293e-01
-2.486758083105087280e-01 6.703014373779296875e-01 1.708548814058303833e-01
-4.453010261058807373e-01 4.758957624435424805e-01 -2.160799056291580200e-01
-1.897799819707870483e-01 7.006600499153137207e-01 -2.985703758895397186e-02
2.752350568771362305e-01 1.233941316604614258e-02 -1.054655015468597412e-01
8.573654107749462128e-03 3.089656233787536621e-01 -6.741322875022888184e-01
-3.531417846679687500e-01 4.984042048454284668e-01 4.266148209571838379e-01
4.175813198089599609e-01 1.323219090700149536e-01 8.021820336580276489e-02
-2.984940707683563232e-01 4.941090345382690430e-01 4.984818100929260254e-01
2.950426340103149414e-01 1.192636936902999878e-01 3.620936572551727295e-01
-1.266882717609405518e-01 2.726966738700866699e-01 -6.498724222183227539e-01
4.519802629947662354e-01 5.343985557556152344e-01 -9.497604519128799438e-02
-1.180211901664733887e-01 6.743506789207458496e-01 3.463675975799560547e-01
-2.826066315174102783e-01 6.454252004623413086e-01 2.152960598468780518e-01
1.900005713105201721e-02 7.371399402618408203e-01 5.509443953633308411e-02
