-2.106669545173645020e-01 1.388797163963317871e-02 -4.746647085994482040e-03
-3.076345622539520264e-01 2.473591268062591553e-02 -1.536293327808380127e-01
-3.093767166137695312e-01 2.655323781073093414e-02 1.110005602240562439e-01
-2.891093492507934570e-01 2.632767707109451294e-02 1.521931886672973633e-01
-2.907198667526245117e-01 2.712529338896274567e-02 7.488346099853515625e-02
-1.913351118564605713e-01 2.660344727337360382e-02 3.976221010088920593e-02
-2.412378489971160889e-01 2.673707716166973114e-02 -7.190231233835220337e-02
-3.325796127319335938e-01 1.423440314829349518e-02 -4.002593830227851868e-02
-2.488288283348083496e-01 2.608752995729446411e-02 -1.173410937190055847e-01
-1.486227810382843018e-01 1.607094146311283112e-02 -3.719962015748023987e-02
-1.435920298099517822e-01 1.653840392827987671e-02 1.008878182619810104e-02
-1.676500439643859863e-01 1.652855053544044495e-02 -1.569701582193374634e-01
-1.535153985023498535e-01 1.695125363767147064e-02 -1.354981362819671631e-01
-1.947618722915649414e-01 1.419714093208312988e-02 -1.919402368366718292e-02
-1.563078910112380981e-01 2.477350644767284393e-02 -6.215690076351165771e-02
-2.566549181938171387e-01 1.485371217131614685e-02 -1.876214891672134399e-01
-3.675533235073089600e-01 1.582111418247222900e-02 -7.174167037010192871e-02
-3.643666505813598633e-01 1.584659330546855927e-02 -9.150293469429016113e-02
-2.602964639663696289e-01 1.554183755069971085e-02 1.532217115163803101e-01
-3.159110844135284424e-01 2.373365312814712524e-02 -1.781343519687652588e-01
-2.835836112499237061e-01 2.620244398713111877e-02 1.624754220247268677e-01
-2.874884307384490967e-01 2.390227839350700378e-02 2.279652953147888184e-01
-3.609949052333831787e-01 2.428293414413928986e-02 -8.345984667539596558e-02
-2.497807741165161133e-01 2.540134638547897339e-02 1.985976248979568481e-01
-3.480756282806396484e-01 2.495675534009933472e-02 -8.124699443578720093e-02
-1.924435794353485107e-01 1.557055674493312836e-02 -1.677602529525756836e-01
-2.436584979295730591e-01 1.533018983900547028e-02 1.410633921623229980e-01
-2.172321081161499023e-01 2.571742795407772064e-02 -1.217259839177131653e-01
-2.408549785614013672e-01 1.360323093831539154e-02 1.705968752503395081e-02
-2.444586157798767090e-01 1.350192353129386902e-02 -8.448321372270584106e-02
-3.791020810604095459e-01 2.404364012181758881e-02 -1.306213159114122391e-02
-2.993785142898559570e-01 1.402418315410614014e-02 -1.225743815302848816e-01
-2.149111181497573853e-01 1.391921564936637878e-02 -9.418007731437683105e-02
-2.145594954490661621e-01 2.661678008735179901e-02 1.170225962996482849e-01
-2.817387878894805908e-01 1.556010916829109192e-02 -2.071746289730072021e-01
-2.147379517555236816e-01 1.384160481393337250e-02 -8.073566854000091553e-02
-3.704885840415954590e-01 1.600068807601928711e-02 2.695543877780437469e-02
-3.775138556957244873e-01 2.291612885892391205e-02 -9.194496273994445801e-02
-3.003005981445312500e-01 1.375857740640640259e-02 1.836549676954746246e-02
-3.770950436592102051e-01 1.620148867368698120e-02 -2.070103026926517487e-02
-2.080529630184173584e-01 1.423319242894649506e-02 3.908112645149230957e-02
-1.947364211082458496e-01 1.638065837323665619e-02 -1.962395608425140381e-01
-3.322296142578125000e-01 1.464713737368583679e-02 4.854118451476097107e-02
-2.051889449357986450e-01 2.691934071481227875e-02 4.037219658493995667e-02
-1.685858368873596191e-01 2.576999738812446594e-02 -1.418368797749280930e-02
-3.613742589950561523e-01 1.590822264552116394e-02 -1.078030467033386230e-01
-2.409917414188385010e-01 2.214009687304496765e-02 -2.337841093540191650e-01
-2.670209407806396484e-01 1.455446984618902206e-02 -1.744831800460815430e-01
-1.989231109619140625e-01 1.455822866410017014e-02 -1.233534589409828186e-01
-3.450337350368499756e-01 2.500486560165882111e-02 1.372040063142776489e-01
-1.807038635015487671e-01 1.465809717774391174e-02 -5.644072778522968292e-03
-2.880222499370574951e-01 1.377034001052379608e-02 -1.121345385909080505e-01
-3.215286731719970703e-01 2.291494980454444885e-02 -1.927326917648315430e-01
-2.821126580238342285e-01 2.658178843557834625e-02 1.415185928344726562e-01
-2.900223731994628906e-01 1.431751437485218048e-02 8.402687311172485352e-02
-2.281182408332824707e-01 1.422733161598443985e-02 6.911700963973999023e-02
-1.396109163761138916e-01 2.425434626638889313e-02 3.187683224678039551e-02
-3.069277107715606689e-01 1.500657200813293457e-02 1.120231077075004578e-01
-3.241181075572967529e-01 2.660374902188777924e-02 2.965906262397766113e-02
-2.390796244144439697e-01 2.720391750335693359e-02 8.465662598609924316e-02
-3.520823717117309570e-01 1.809556037187576294e-02 -1.867267191410064697e-01
-1.821641921997070312e-01 2.596826851367950439e-02 -4.963674396276473999e-02
-2.139982730150222778e-01 2.230736054480075836e-02 -2.209909707307815552e-01
-2.275692969560623169e-01 2.567641437053680420e-02 -1.308118104934692383e-01
-2.781259417533874512e-01 2.526048943400382996e-02 -1.521037220954895020e-01
-3.508022725582122803e-01 1.511299051344394684e-02 -8.842533826828002930e-02
-2.168807387351989746e-01 2.697238698601722717e-02 8.178289234638214111e-02
-1.725454777479171753e-01 2.547695860266685486e-02 1.072983443737030029e-01
-3.690213561058044434e-01 1.579559966921806335e-02 -5.666938424110412598e-02
-2.357115447521209717e-01 2.394525334239006042e-02 -1.959947198629379272e-01
-1.862170696258544922e-01 2.488895878195762634e-02 1.637312471866607666e-01
-2.368409633636474609e-01 2.629577368497848511e-02 -1.016035974025726318e-01
-3.154818415641784668e-01 2.662225253880023956e-02 8.803595602512359619e-02
-1.889904141426086426e-01 1.492943335324525833e-02 -1.282846927642822266e-01
-2.607495188713073730e-01 1.364503800868988037e-02 -1.126567199826240540e-01
-2.124808430671691895e-01 2.501443959772586823e-02 -1.495111286640167236e-01
-3.587135076522827148e-01 2.492024935781955719e-02 1.006902381777763367e-01
-2.909782230854034424e-01 1.656839437782764435e-02 -2.262112498283386230e-01
-2.070717513561248779e-01 1.390728075057268143e-02 -2.097220718860626221e-02
-3.136941492557525635e-01 2.588463947176933289e-02 -9.199972450733184814e-02
-3.472323715686798096e-01 1.561206765472888947e-02 8.349261432886123657e-02
-2.551931142807006836e-01 2.667991816997528076e-02 1.422503590583801270e-01
-1.392040848731994629e-01 2.095803990960121155e-02 -1.368709504604339600e-01
-3.079068958759307861e-01 1.411140989512205124e-02 4.794122651219367981e-02
-2.442437559366226196e-01 1.730269193649291992e-02 2.033124417066574097e-01
-1.894313395023345947e-01 2.653867751359939575e-02 9.384721517562866211e-03
-3.854805529117584229e-01 2.354246191680431366e-02 4.877386614680290222e-02
-2.891038656234741211e-01 1.370255742222070694e-02 2.797091566026210785e-02
-3.001731634140014648e-01 1.425367128103971481e-02 7.064515352249145508e-02
-2.907456457614898682e-01 1.464556157588958740e-02 1.043848320841789246e-01
-3.334171772003173828e-01 1.426248438656330109e-02 -2.210742235183715820e-02
-2.737519145011901855e-01 2.721788175404071808e-02 8.560388535261154175e-02
-3.693388998508453369e-01 2.417730167508125305e-02 1.045268401503562927e-01
-2.458568960428237915e-01 2.707627415657043457e-02 1.066320836544036865e-01
-1.691864430904388428e-01 2.481017634272575378e-02 1.338372677564620972e-01
-2.171554267406463623e-01 2.693084627389907837e-02 -2.613762393593788147e-02
-2.254774123430252075e-01 2.350183762609958649e-02 -2.033576518297195435e-01
-2.142303735017776489e-01 1.504391990602016449e-02 -1.734690368175506592e-01
-3.523741960525512695e-01 1.656105555593967438e-02 1.183994635939598083e-01
-3.051909804344177246e-01 2.226864546537399292e-02 2.364960163831710815e-01
-2.507334649562835693e-01 1.853331550955772400e-02 -2.537579536437988281e-01
-2.742982208728790283e-01 2.618067152798175812e-02 -1.090226545929908752e-01
-2.624658644199371338e-01 2.608764730393886566e-02 -1.174401938915252686e-01
-2.002608478069305420e-01 2.276885136961936951e-02 -2.034159600734710693e-01
-2.208822518587112427e-01 2.717683650553226471e-02 2.670105546712875366e-02
-3.385252952575683594e-01 2.577581256628036499e-02 1.060331463813781738e-01
-3.050096333026885986e-01 2.428909391164779663e-02 -1.710847467184066772e-01
-2.729176282882690430e-01 1.478389557451009750e-02 1.186619028449058533e-01
-3.391348719596862793e-01 1.452649105340242386e-02 -6.971488147974014282e-02
-2.621767520904541016e-01 1.333442889153957367e-02 -4.696653783321380615e-02
-3.188056051731109619e-01 1.439837832003831863e-02 -1.213004887104034424e-01
-2.739150524139404297e-01 2.727780491113662720e-02 7.410959899425506592e-02
-3.169783949851989746e-01 2.633427642285823822e-02 -5.163346976041793823e-02
-1.745764911174774170e-01 2.453268319368362427e-02 -1.220296323299407959e-01
-3.862445950508117676e-01 1.913204602897167206e-02 -1.160234510898590088e-01
-1.640383005142211914e-01 1.525038667023181915e-02 -2.850893884897232056e-02
-2.532766759395599365e-01 2.737524546682834625e-02 5.932890251278877258e-02
-1.442921012639999390e-01 1.682210341095924377e-02 -9.444734454154968262e-02
-2.153118401765823364e-01 1.577783375978469849e-02 -2.002673447132110596e-01
-3.071157038211822510e-01 1.511069759726524353e-02 -1.758592575788497925e-01
-2.037299573421478271e-01 1.483746431767940521e-02 8.110241591930389404e-02
-3.182257711887359619e-01 1.448347233235836029e-02 6.416978687047958374e-02
-3.052180707454681396e-01 2.624263986945152283e-02 1.411045789718627930e-01
-3.742578029632568359e-01 2.418001927435398102e-02 -3.585551306605339050e-02
-3.142123222351074219e-01 2.329200692474842072e-02 2.212719321250915527e-01
-2.954410910606384277e-01 1.573023200035095215e-02 1.523513644933700562e-01
-3.439796864986419678e-01 1.460196636617183685e-02 -4.578259959816932678e-02
-1.881504058837890625e-01 1.442838832736015320e-02 -7.030736654996871948e-02
-1.831611692905426025e-01 2.609115652740001678e-02 9.059661626815795898e-02
-3.272984027862548828e-01 2.614538371562957764e-02 1.067201793193817139e-01
-2.036614120006561279e-01 2.660350129008293152e-02 -3.927391394972801208e-02
-1.541486382484436035e-01 2.518586628139019012e-02 3.539301827549934387e-02
-1.834128648042678833e-01 2.565396763384342194e-02 -7.872958481311798096e-02
-2.259340882301330566e-01 2.624902687966823578e-02 -9.811875969171524048e-02
-1.548659801483154297e-01 2.513363212347030640e-02 -1.727854833006858826e-02
-2.279384434223175049e-01 2.620051801204681396e-02 1.579060256481170654e-01
-3.343085944652557373e-01 2.407609298825263977e-02 -1.463942378759384155e-01
-3.882920145988464355e-01 1.994265615940093994e-02 1.106689572334289551e-01
-3.217429220676422119e-01 1.421614550054073334e-02 2.997716516256332397e-02
-2.452851533889770508e-01 2.681854367256164551e-02 1.298531740903854370e-01
-2.901338934898376465e-01 2.719702199101448059e-02 5.709963664412498474e-02
-2.885015904903411865e-01 1.358901523053646088e-02 1.150301937013864517e-02
-1.282349079847335815e-01 2.129146270453929901e-02 -9.573455154895782471e-02
-1.300213485956192017e-01 2.185044437646865845e-02 9.312749654054641724e-02
-3.801260888576507568e-01 2.132284455001354218e-02 -1.239348128437995911e-01
-3.381497859954833984e-01 2.615811303257942200e-02 5.524624511599540710e-02
-2.645668387413024902e-01 1.661902107298374176e-02 -2.343486994504928589e-01
-3.572154045104980469e-01 1.524991635233163834e-02 1.640980318188667297e-02
-2.727544903755187988e-01 1.383700128644704819e-02 5.388149619102478027e-02
-2.514987885951995850e-01 1.482591778039932251e-02 1.199640631675720215e-01
-2.594535946846008301e-01 1.560021936893463135e-02 -2.123330831527709961e-01
-2.776450812816619873e-01 1.337020844221115112e-02 -3.585488349199295044e-02
-1.276466995477676392e-01 2.301446720957756042e-02 -2.506296709179878235e-02
-2.177738249301910400e-01 1.526324264705181122e-02 1.217809915542602539e-01
-1.723170876502990723e-01 1.511038653552532196e-02 1.964512281119823456e-02
-3.293491005897521973e-01 2.601742930710315704e-02 -5.138076096773147583e-02
-3.010717332363128662e-01 2.691944874823093414e-02 -1.700039207935333252e-02
-3.187525868415832520e-01 2.659273520112037659e-02 -1.457762252539396286e-02
-3.934790492057800293e-01 1.887801289558410645e-02 -8.255935460329055786e-02
-3.390789628028869629e-01 2.265331149101257324e-02 -1.784026920795440674e-01
-1.437155753374099731e-01 1.641970686614513397e-02 -1.053413189947605133e-02
-2.550050020217895508e-01 1.597209647297859192e-02 -2.215307205915451050e-01
-3.939845561981201172e-01 2.230345644056797028e-02 6.250002235174179077e-02
-2.477874010801315308e-01 2.706473506987094879e-02 -4.260713607072830200e-02
-2.432541549205780029e-01 2.724254690110683441e-02 -1.471255719661712646e-02
-3.481136560440063477e-01 2.554274722933769226e-02 9.198331832885742188e-02
-3.403718471527099609e-01 2.450431697070598602e-02 -1.204745844006538391e-01
-2.213601768016815186e-01 2.628033235669136047e-02 1.480826884508132935e-01
-1.611159145832061768e-01 2.488363161683082581e-02 -7.152280956506729126e-02
-3.993725776672363281e-01 1.890327036380767822e-02 -3.857775032520294189e-02
-1.697911024093627930e-01 1.700116135179996490e-02 1.259188354015350342e-01
-2.983240187168121338e-01 1.371929980814456940e-02 -9.046003967523574829e-02
-2.025691568851470947e-01 2.518917620182037354e-02 -1.331170350313186646e-01
-3.091182708740234375e-01 1.423127297312021255e-02 -1.253901571035385132e-01
-3.528855443000793457e-01 1.594986766576766968e-02 -1.352856159210205078e-01
-1.890597343444824219e-01 2.615547925233840942e-02 1.028539687395095825e-01
-3.052480816841125488e-01 2.649255283176898956e-02 -5.920198187232017517e-02
-3.228991031646728516e-01 2.598423138260841370e-02 1.294174343347549438e-01
-2.100813388824462891e-01 1.999412849545478821e-02 2.273351699113845825e-01
-1.933454722166061401e-01 1.436215359717607498e-02 1.079485286027193069e-02
-2.444463670253753662e-01 1.378621347248554230e-02 -1.212212964892387390e-01
-3.158264458179473877e-01 1.630753837525844574e-02 1.585506051778793335e-01
-2.269971966743469238e-01 2.523894235491752625e-02 1.947763115167617798e-01
-3.232506215572357178e-01 2.539550699293613434e-02 1.600594520568847656e-01
-3.458498716354370117e-01 2.592318877577781677e-02 2.719822153449058533e-02
-2.213701009750366211e-01 2.673245221376419067e-02 -5.625667423009872437e-02
-2.271961122751235962e-01 2.603487297892570496e-02 -1.118713170289993286e-01
-2.766580283641815186e-01 2.729944698512554169e-02 6.428673118352890015e-02
-1.912997663021087646e-01 2.430250495672225952e-02 -1.550242155790328979e-01
-2.409017533063888550e-01 1.392055116593837738e-02 5.434314906597137451e-02
-1.816872060298919678e-01 1.474185287952423096e-02 1.552838925272226334e-02
-3.350445628166198730e-01 2.460138499736785889e-02 1.715046763420104980e-01
-2.276624590158462524e-01 1.575104147195816040e-02 1.501036584377288818e-01
-3.580704927444458008e-01 2.505718171596527100e-02 -3.991215676069259644e-02
-2.266924381256103516e-01 1.375851407647132874e-02 -9.772158414125442505e-02
-2.424934208393096924e-01 1.462959125638008118e-02 1.061122640967369080e-01
-1.459708809852600098e-01 1.777313649654388428e-02 9.526430070400238037e-02
-2.898700237274169922e-01 1.345841214060783386e-02 -4.106358438730239868e-02
-2.733628451824188232e-01 1.431331783533096313e-02 -1.608871668577194214e-01
-3.331220149993896484e-01 2.533474564552307129e-02 -9.257058799266815186e-02
-3.356119692325592041e-01 1.434662006795406342e-02 -1.173983700573444366e-02
-2.977074384689331055e-01 2.548479661345481873e-02 -1.309354007244110107e-01
-3.403995037078857422e-01 1.600160077214241028e-02 1.168293729424476624e-01
-2.651601433753967285e-01 2.076948806643486023e-02 2.492956519126892090e-01
-2.931428551673889160e-01 2.647165209054946899e-02 -7.678531110286712646e-02
-3.284669816493988037e-01 1.495697721838951111e-02 -1.397046446800231934e-01
-2.853694856166839600e-01 1.441953424364328384e-02 9.358372539281845093e-02
-2.367578297853469849e-01 1.421179715543985367e-02 -1.491722613573074341e-01
-2.543491423130035400e-01 1.425629109144210815e-02 -1.589891463518142700e-01
-2.648124694824218750e-01 1.520816981792449951e-02 -2.003501057624816895e-01
-3.820742964744567871e-01 2.300933375954627991e-02 -7.067637890577316284e-02
-1.748848557472229004e-01 1.488349772989749908e-02 -6.986628472805023193e-02
-1.951627135276794434e-01 1.483373437076807022e-02 6.527595967054367065e-02
-3.461211919784545898e-01 1.742049306631088257e-02 1.566777974367141724e-01
-3.114416003227233887e-01 2.689136564731597900e-02 3.185323253273963928e-02
-2.378076016902923584e-01 2.732145041227340698e-02 1.339621003717184067e-02
-1.583597958087921143e-01 1.670266687870025635e-02 8.780115842819213867e-02
-2.605264186859130859e-01 2.534309402108192444e-02 2.013261467218399048e-01
-2.651496529579162598e-01 2.630516886711120605e-02 -1.043607071042060852e-01
-2.355152964591979980e-01 2.456586435437202454e-02 2.160034924745559692e-01
-2.227868735790252686e-01 2.707860618829727173e-02 -1.378450542688369751e-02
-2.367944419384002686e-01 2.725590020418167114e-02 7.174472510814666748e-02
-2.648430466651916504e-01 2.729509212076663971e-02 -8.368790149688720703e-03
-2.804630398750305176e-01 1.749220676720142365e-02 2.083525955677032471e-01
-3.187080025672912598e-01 1.478187926113605499e-02 -1.465260833501815796e-01
-3.260079622268676758e-01 2.161285094916820526e-02 -2.106274366378784180e-01
-2.754614651203155518e-01 2.071513980627059937e-02 -2.485946565866470337e-01
-2.476054280996322632e-01 1.347389444708824158e-02 1.809597248211503029e-03
-1.763423383235931396e-01 2.321556955575942993e-02 -1.679149121046066284e-01
-1.794686764478683472e-01 1.464954391121864319e-02 -5.095067992806434631e-02
-1.198081374168395996e-01 2.184642292559146881e-02 -1.395764388144016266e-02
-3.709896504878997803e-01 1.616000756621360779e-02 4.006767272949218750e-02
-2.930664718151092529e-01 2.624380774796009064e-02 -9.303991496562957764e-02
-1.737563312053680420e-01 2.562293969094753265e-02 -5.545580759644508362e-02
-2.925334274768829346e-01 1.351319812238216400e-02 -6.070552766323089600e-02
-2.137505561113357544e-01 1.870147138833999634e-02 -2.420920580625534058e-01
-3.860089480876922607e-01 2.357540652155876160e-02 5.667068064212799072e-03
-2.517229914665222168e-01 2.685947343707084656e-02 -6.445187330245971680e-02
-3.460925221443176270e-01 2.535571157932281494e-02 1.144484579563140869e-01
-2.902428507804870605e-01 2.365126460790634155e-02 -1.981923431158065796e-01
-3.704784512519836426e-01 2.379380352795124054e-02 -7.815559953451156616e-02
-1.757486462593078613e-01 2.600464969873428345e-02 6.852140277624130249e-02
-1.732132881879806519e-01 1.955116726458072662e-02 1.858305782079696655e-01
-3.582779169082641602e-01 2.471890300512313843e-02 1.151507422327995300e-01
-3.996568620204925537e-01 1.919207535684108734e-02 3.780332207679748535e-02
-3.800901174545288086e-01 2.352307364344596863e-02 -5.263723060488700867e-02
-3.073484897613525391e-01 2.339869551360607147e-02 -1.938651651144027710e-01
-2.837117612361907959e-01 2.174185961484909058e-02 -2.360595017671585083e-01
-3.237829208374023438e-01 2.654703333973884583e-02 6.551606208086013794e-02
-3.137533664703369141e-01 2.631420083343982697e-02 1.231082528829574585e-01
-2.319944500923156738e-01 2.590803243219852448e-02 -1.215033531188964844e-01
-2.938954532146453857e-01 1.352398656308650970e-02 -1.774775236845016479e-02
-2.647667825222015381e-01 2.735422179102897644e-02 6.261350587010383606e-03
-1.611482501029968262e-01 2.208652906119823456e-02 -1.684245616197586060e-01
-1.372927874326705933e-01 2.323133498430252075e-02 -7.561071217060089111e-02
-3.223465383052825928e-01 2.383861131966114044e-02 -1.687183380126953125e-01
-1.884257197380065918e-01 1.466236822307109833e-02 3.227871656417846680e-02
-2.198628187179565430e-01 2.007469534873962402e-02 2.340151369571685791e-01
-1.377307325601577759e-01 2.169625833630561829e-02 -1.225492507219314575e-01
-3.676921725273132324e-01 2.014233358204364777e-02 1.651155352592468262e-01
-2.270129472017288208e-01 2.720758877694606781e-02 6.065424904227256775e-02
-2.848866581916809082e-01 2.684625796973705292e-02 -5.244997888803482056e-02
-2.455129474401473999e-01 2.732238732278347015e-02 5.011265166103839874e-04
-1.602448076009750366e-01 1.543164439499378204e-02 -4.076786711812019348e-02
-3.134961724281311035e-01 1.486345753073692322e-02 9.713017195463180542e-02
-3.442814350128173828e-01 2.396916411817073822e-02 -1.344212293624877930e-01
-2.673920392990112305e-01 1.881750300526618958e-02 -2.544760406017303467e-01
-3.446507453918457031e-01 1.572917029261589050e-02 9.577929228544235229e-02
-2.325107455253601074e-01 1.454532705247402191e-02 9.509514272212982178e-02
-1.810633838176727295e-01 1.554518565535545349e-02 8.282867819070816040e-02
-3.092597424983978271e-01 2.689056657254695892e-02 7.518799975514411926e-03
-1.707732677459716797e-01 1.499493792653083801e-02 -1.301632169634103775e-02
-2.753036618232727051e-01 1.458150893449783325e-02 1.071171835064888000e-01
-2.114847153425216675e-01 2.703896537423133850e-02 3.256472200155258179e-02
-2.108624279499053955e-01 1.478790864348411560e-02 8.821397274732589722e-02
-1.841947287321090698e-01 1.547557767480611801e-02 -1.492970734834671021e-01
-2.632552683353424072e-01 2.684725448489189148e-02 -6.511659175157546997e-02
-3.829639554023742676e-01 1.686720177531242371e-02 -6.183416396379470825e-02
-2.887871265411376953e-01 2.698189206421375275e-02 1.005257889628410339e-01
-3.153966963291168213e-01 1.591159217059612274e-02 1.447879225015640259e-01
-3.345267772674560547e-01 1.653181016445159912e-02 -1.871551573276519775e-01
-2.538981139659881592e-01 2.651573345065116882e-02 1.522897481918334961e-01
-2.954911887645721436e-01 2.593721449375152588e-02 -1.095653474330902100e-01
-1.761177331209182739e-01 1.701050065457820892e-02 1.374512165784835815e-01
-3.979156017303466797e-01 1.917521469295024872e-02 5.223084613680839539e-02
-2.493648231029510498e-01 1.365603227168321609e-02 3.188024833798408508e-02
-1.976286023855209351e-01 2.566113695502281189e-02 -1.033608093857765198e-01
-2.470266520977020264e-01 2.449773252010345459e-02 2.208838313817977905e-01
-2.291999459266662598e-01 2.237526699900627136e-02 2.410061657428741455e-01
-3.503120541572570801e-01 2.239480242133140564e-02 -1.674777418375015259e-01
-1.751869022846221924e-01 1.504571922123432159e-02 -9.455122053623199463e-02
-1.866558194160461426e-01 2.644865401089191437e-02 5.080182105302810669e-02
-2.556771636009216309e-01 1.526658795773983002e-02 1.414634138345718384e-01
-2.024396210908889771e-01 1.526225637644529343e-02 1.043554022908210754e-01
-1.837870925664901733e-01 1.501985639333724976e-02 5.267390236258506775e-02
-1.978007107973098755e-01 2.663891762495040894e-02 7.433067262172698975e-02
-2.133619487285614014e-01 2.487152628600597382e-02 1.955598443746566772e-01
-2.046166956424713135e-01 2.350575104355812073e-02 2.151832580566406250e-01
-3.189383149147033691e-01 1.740667968988418579e-02 -2.197608053684234619e-01
-3.313224315643310547e-01 2.561853453516960144e-02 1.351106762886047363e-01
-2.794657051563262939e-01 2.732282690703868866e-02 2.760642208158969879e-02
-2.691012322902679443e-01 1.414232794195413589e-02 7.998709380626678467e-02
-2.656924724578857422e-01 2.734278142452239990e-02 6.687984615564346313e-02
-1.835164725780487061e-01 1.916312240064144135e-02 1.943039745092391968e-01
-2.419867068529129028e-01 1.405514404177665710e-02 6.688158214092254639e-02
-3.619591295719146729e-01 2.516748569905757904e-02 2.102039521560072899e-03
-3.113791048526763916e-01 2.679736912250518799e-02 7.373791933059692383e-02
-1.643097102642059326e-01 1.539079658687114716e-02 1.174979843199253082e-02
-2.788021862506866455e-01 2.551721595227718353e-02 -1.409344524145126343e-01
-1.754048466682434082e-01 1.557289157062768936e-02 7.100356370210647583e-02
-1.998442858457565308e-01 2.621232159435749054e-02 -6.953734904527664185e-02
-3.834539949893951416e-01 2.382042445242404938e-02 1.605112664401531219e-02
-1.768589019775390625e-01 1.474144775420427322e-02 -2.209425717592239380e-02
-1.430474519729614258e-01 2.411727420985698700e-02 7.700629532337188721e-02
-2.340525537729263306e-01 1.385780144482851028e-02 -1.193530112504959106e-01
-2.559610307216644287e-01 1.445225812494754791e-02 -1.697092652320861816e-01
-3.194366991519927979e-01 1.519572921097278595e-02 1.084939390420913696e-01
-3.996652662754058838e-01 1.893777400255203247e-02 2.599081024527549744e-02
-2.475493848323822021e-01 1.556494459509849548e-02 -2.100952863693237305e-01
-3.014318645000457764e-01 2.612296491861343384e-02 1.524487733840942383e-01
-1.255723387002944946e-01 1.839456520974636078e-02 -5.934341251850128174e-02
-3.041808605194091797e-01 2.522844448685646057e-02 1.875088363885879517e-01
-3.613829016685485840e-01 1.531971804797649384e-02 -4.239638522267341614e-02
-2.147820293903350830e-01 1.447629462927579880e-02 7.211410999298095703e-02
-3.253783583641052246e-01 1.712816394865512848e-02 1.740954667329788208e-01
-2.927513122558593750e-01 2.662346512079238892e-02 -6.480722129344940186e-02
-2.343009114265441895e-01 2.731938287615776062e-02 3.086794540286064148e-02
-2.256229519844055176e-01 1.403233502060174942e-02 4.918222129344940186e-02
-2.213719487190246582e-01 1.396119035780429840e-02 -1.126877442002296448e-01
-2.594748735427856445e-01 1.335390005260705948e-02 -5.934134498238563538e-02
-1.649881303310394287e-01 2.553390897810459137e-02 -2.811054885387420654e-02
-3.064903020858764648e-01 2.575897425413131714e-02 -1.086184754967689514e-01
-2.831843495368957520e-01 2.545432373881340027e-02 1.931305080652236938e-01
-2.939636409282684326e-01 1.716878823935985565e-02 1.966879814863204956e-01
-1.552444994449615479e-01 2.468768134713172913e-02 9.779008477926254272e-02
-2.858215570449829102e-01 2.084993198513984680e-02 2.463518381118774414e-01
-2.966793477535247803e-01 1.494374684989452362e-02 1.169111058115959167e-01
-1.568189859390258789e-01 1.913862675428390503e-02 -1.797459423542022705e-01
-2.141789197921752930e-01 1.380338054150342941e-02 -6.964869052171707153e-02
-2.861792147159576416e-01 2.676836028695106506e-02 1.245940625667572021e-01
-2.897151112556457520e-01 2.699025906622409821e-02 -2.962515875697135925e-02
-2.677068412303924561e-01 1.765057072043418884e-02 2.133685797452926636e-01
-1.511534601449966431e-01 1.692097261548042297e-02 7.627765089273452759e-02
-2.191051244735717773e-01 2.395332604646682739e-02 -1.887698769569396973e-01
-2.850568294525146484e-01 2.709730900824069977e-02 9.054221957921981812e-02
-2.375846058130264282e-01 2.526908926665782928e-02 1.990747898817062378e-01
-1.967262029647827148e-01 1.435816101729869843e-02 2.312291227281093597e-02
-1.576834768056869507e-01 2.536999806761741638e-02 5.443995818495750427e-03
-3.060173392295837402e-01 2.633236721158027649e-02 -7.155831903219223022e-02
-2.634167969226837158e-01 2.437544427812099457e-02 -1.864474117755889893e-01
-1.533534824848175049e-01 2.475434169173240662e-02 -5.111793801188468933e-02
-2.083923816680908203e-01 2.696136198937892914e-02 5.088784545660018921e-02
-1.828722059726715088e-01 2.582413889467716217e-02 1.124669834971427917e-01
-2.939030230045318604e-01 2.552347257733345032e-02 1.850199401378631592e-01
-3.289513587951660156e-01 1.536509022116661072e-02 -1.585979163646697998e-01
-2.482614368200302124e-01 2.737913653254508972e-02 1.678267866373062134e-02
-2.476790100336074829e-01 2.476603351533412933e-02 -1.738919019699096680e-01
-2.284271568059921265e-01 1.506642531603574753e-02 1.209184080362319946e-01
-3.669359683990478516e-01 1.662473566830158234e-02 8.581900596618652344e-02
-1.254766583442687988e-01 1.910930871963500977e-02 -8.352031558752059937e-02
-3.018775582313537598e-01 1.360945031046867371e-02 -5.102248862385749817e-02
-3.791591525077819824e-01 2.410071156919002533e-02 -2.800978720188140869e-03
-3.723583519458770752e-01 2.217878215014934540e-02 1.508309543132781982e-01
-3.889353871345520020e-01 2.212430909276008606e-02 9.789608418941497803e-02
-2.020960301160812378e-01 2.606718987226486206e-02 1.361341178417205811e-01
-2.690213620662689209e-01 1.391678117215633392e-02 -1.364153176546096802e-01
-2.193151265382766724e-01 1.467576622962951660e-02 -1.611976921558380127e-01
-2.117889672517776489e-01 2.300279587507247925e-02 -2.070508748292922974e-01
-2.881482541561126709e-01 2.065027691423892975e-02 -2.451517879962921143e-01
-2.743165194988250732e-01 1.829915866255760193e-02 2.246156483888626099e-01
-1.230807304382324219e-01 1.919401437044143677e-02 -6.942223757505416870e-02
-3.836522996425628662e-01 1.955686695873737335e-02 1.215086951851844788e-01
-2.755698859691619873e-01 1.663899980485439301e-02 1.884494274854660034e-01
-3.187662661075592041e-01 2.599663473665714264e-02 -7.625076919794082642e-02
-3.699250817298889160e-01 2.462264150381088257e-02 -1.741288602352142334e-02
-2.580330967903137207e-01 2.731597423553466797e-02 7.587402313947677612e-02
-1.976701021194458008e-01 2.622145600616931915e-02 1.179773360490798950e-01
-3.308538496494293213e-01 2.636011317372322083e-02 1.714526908472180367e-03
-3.033300340175628662e-01 1.432027202099561691e-02 -1.398335695266723633e-01
-1.890932470560073853e-01 2.218183130025863647e-02 -2.037148326635360718e-01
-3.961703181266784668e-01 2.138233929872512817e-02 7.416618615388870239e-02
-2.750390768051147461e-01 2.640678361058235168e-02 -9.461069852113723755e-02
-2.932965755462646484e-01 1.407692953944206238e-02 -1.337829977273941040e-01
-3.456362783908843994e-01 2.591572515666484833e-02 4.579149559140205383e-02
-2.301287949085235596e-01 2.532119862735271454e-02 -1.480356752872467041e-01
-2.156459689140319824e-01 2.709287591278553009e-02 1.753696426749229431e-02
-2.542785406112670898e-01 1.427972689270973206e-02 8.872187882661819458e-02
-2.917556166648864746e-01 1.356352306902408600e-02 4.278884734958410263e-04
-2.124529927968978882e-01 2.602967619895935059e-02 -9.979191422462463379e-02
-2.796632349491119385e-01 2.379756048321723938e-02 -1.988343000411987305e-01
-2.061519771814346313e-01 1.417849585413932800e-02 2.821322716772556305e-02
-2.599559724330902100e-01 1.344134565442800522e-02 -8.371977508068084717e-02
-3.610758781433105469e-01 2.073957957327365875e-02 -1.734121143817901611e-01
-2.135502994060516357e-01 2.553084492683410645e-02 1.749218851327896118e-01
-2.892518937587738037e-01 2.472864091396331787e-02 2.109347581863403320e-01
-2.524948418140411377e-01 2.635944634675979614e-02 -1.017870530486106873e-01
-3.555572628974914551e-01 1.534307748079299927e-02 3.687728941440582275e-02
-2.203994542360305786e-01 1.452236901968717575e-02 8.241724222898483276e-02
-2.553670704364776611e-01 1.398866530507802963e-02 6.738907098770141602e-02
-2.186916023492813110e-01 1.369069702923297882e-02 -2.398818917572498322e-02
-1.493120193481445312e-01 1.788710430264472961e-02 -1.490329504013061523e-01
-1.632196307182312012e-01 2.544660493731498718e-02 7.191027700901031494e-02
-1.752752512693405151e-01 2.389727905392646790e-02 1.733238846063613892e-01
-3.109523952007293701e-01 2.501587010920047760e-02 -1.394885331392288208e-01
-2.542859613895416260e-01 2.724498137831687927e-02 -1.951141096651554108e-02
-1.671139001846313477e-01 2.475744113326072693e-02 -9.582979232072830200e-02
-1.820325553417205811e-01 1.497123483568429947e-02 -1.126605346798896790e-01
-3.653210997581481934e-01 2.502522058784961700e-02 4.039498791098594666e-02
-2.712908983230590820e-01 1.335314661264419556e-02 -5.288621783256530762e-02
-2.476918697357177734e-01 1.773796975612640381e-02 2.134469449520111084e-01
-2.610606551170349121e-01 2.721587009727954865e-02 9.260097891092300415e-02
-2.461646795272827148e-01 2.402288652956485748e-02 -1.961878687143325806e-01
-3.664118349552154541e-01 1.629288122057914734e-02 6.933367997407913208e-02
-1.714880466461181641e-01 2.530082315206527710e-02 -7.401208579540252686e-02
-1.886188089847564697e-01 1.436427049338817596e-02 -5.543743073940277100e-02
-1.658265888690948486e-01 1.980085112154483795e-02 1.774830967187881470e-01
-2.390769869089126587e-01 1.346762478351593018e-02 -6.630935519933700562e-02
-1.811872124671936035e-01 2.540427818894386292e-02 1.335680484771728516e-01
-2.458812296390533447e-01 2.715906128287315369e-02 -2.974770218133926392e-02
-3.371219635009765625e-01 1.467786356806755066e-02 3.718336671590805054e-02
-3.086718916893005371e-01 1.397600769996643066e-02 3.143507987260818481e-02
-1.516855359077453613e-01 2.378741279244422913e-02 -1.015296876430511475e-01
-3.158166706562042236e-01 1.385673414915800095e-02 -1.642762497067451477e-02
-3.478545844554901123e-01 2.519994229078292847e-02 -6.576909869909286499e-02
-3.000828921794891357e-01 2.675293944776058197e-02 -4.165825247764587402e-02
-3.473083674907684326e-01 2.415636181831359863e-02 1.640612334012985229e-01
-2.828536927700042725e-01 1.498430222272872925e-02 1.260442882776260376e-01
-3.138653039932250977e-01 1.393357850611209869e-02 -8.278915286064147949e-02
-1.867553591728210449e-01 2.619050815701484680e-02 -4.041237011551856995e-02
-2.456652671098709106e-01 1.338883675634860992e-02 -3.121334314346313477e-02
-3.234135508537292480e-01 2.554218098521232605e-02 -9.783149510622024536e-02
-3.765198588371276855e-01 1.858986541628837585e-02 -1.408580690622329712e-01
-2.661172449588775635e-01 1.434295997023582458e-02 9.400077164173126221e-02
-2.840694785118103027e-01 1.484799012541770935e-02 -1.819634884595870972e-01
-3.145614266395568848e-01 2.449401281774044037e-02 1.991751343011856079e-01
-2.800622880458831787e-01 1.413164101541042328e-02 7.608675211668014526e-02
-1.999356746673583984e-01 2.663222514092922211e-02 -2.520913071930408478e-02
-3.078562915325164795e-01 1.593208126723766327e-02 1.518908292055130005e-01
-2.303072512149810791e-01 2.704257704317569733e-02 -3.203835710883140564e-02
-1.880316287279129028e-01 2.295688912272453308e-02 -1.881441026926040649e-01
-1.971481442451477051e-01 2.532016485929489136e-02 -1.207304447889328003e-01
-3.094378411769866943e-01 2.692565321922302246e-02 4.388462379574775696e-02
-3.343371450901031494e-01 2.605562284588813782e-02 9.326773881912231445e-02
-3.234111666679382324e-01 1.477070897817611694e-02 7.706887274980545044e-02
-1.472076773643493652e-01 2.299413643777370453e-02 -1.178918927907943726e-01
-2.709460854530334473e-01 1.360099762678146362e-02 -1.058457866311073303e-01
-1.445541679859161377e-01 1.633344031870365143e-02 -2.377741038799285889e-02
-1.351870298385620117e-01 1.726269535720348358e-02 -6.567851454019546509e-02
-2.031636536121368408e-01 2.501900307834148407e-02 1.817272603511810303e-01
-2.311878949403762817e-01 2.722238935530185699e-02 -1.697230967693030834e-03
-3.930220901966094971e-01 2.225015498697757721e-02 -4.691354557871818542e-02
-2.567726373672485352e-01 1.383374538272619247e-02 5.404200032353401184e-02
-2.220661938190460205e-01 1.608411222696304321e-02 1.585765480995178223e-01
-2.730964720249176025e-01 2.612301521003246307e-02 1.707024872303009033e-01
-2.336952984333038330e-01 1.700158976018428802e-02 1.923443973064422607e-01
-3.464928567409515381e-01 2.538874931633472443e-02 -5.541963130235671997e-02
-1.474766284227371216e-01 1.641144789755344391e-02 -8.214458823204040527e-02
-2.068091183900833130e-01 1.460505090653896332e-02 -1.413147896528244019e-01
-1.958403885364532471e-01 1.513303723186254501e-02 -1.536128371953964233e-01
-3.462280929088592529e-01 2.552709355950355530e-02 -4.398521035909652710e-02
-3.920181989669799805e-01 2.181306481361389160e-02 -6.941271573305130005e-02
-2.518410980701446533e-01 1.600223220884799957e-02 1.687780618667602539e-01
-2.924027740955352783e-01 1.357750408351421356e-02 -7.841669023036956787e-02
-2.711021602153778076e-01 2.578985132277011871e-02 1.851180642843246460e-01
-1.231932044029235840e-01 2.198676019906997681e-02 5.147216841578483582e-02
-3.569492101669311523e-01 1.530565693974494934e-02 -7.851140946149826050e-02
-3.266731798648834229e-01 2.461520396173000336e-02 -1.371890604496002197e-01
-2.449087202548980713e-01 1.389800384640693665e-02 -1.314172297716140747e-01
-2.577169835567474365e-01 2.713834308087825775e-02 1.028605848550796509e-01
-1.952350437641143799e-01 1.416194811463356018e-02 -3.533414751291275024e-02
-2.647199034690856934e-01 1.629853248596191406e-02 1.794773936271667480e-01
-3.351902365684509277e-01 1.792849786579608917e-02 -2.086542397737503052e-01
-2.738063335418701172e-01 1.565073989331722260e-02 1.567693501710891724e-01
-2.583914399147033691e-01 2.377848327159881592e-02 -2.031966447830200195e-01
-2.433773279190063477e-01 1.599175855517387390e-02 -2.200995981693267822e-01
-2.805839478969573975e-01 1.360663585364818573e-02 -1.002952530980110168e-01
-2.397627234458923340e-01 2.661972865462303162e-02 1.413497328758239746e-01
-2.286161780357360840e-01 2.587015740573406219e-02 1.735068559646606445e-01
-2.731584012508392334e-01 1.369888707995414734e-02 3.939140960574150085e-02
-3.031734228134155273e-01 1.783927530050277710e-02 2.068271189928054810e-01
-3.764292895793914795e-01 1.760970801115036011e-02 9.812667220830917358e-02
-3.048234581947326660e-01 1.364265568554401398e-02 -4.085249826312065125e-02
-3.844181299209594727e-01 2.343311160802841187e-02 -3.228848800063133240e-02
-3.385163545608520508e-01 1.494548283517360687e-02 -1.165050268173217773e-01
-2.708916664123535156e-01 2.513803541660308838e-02 -1.592170000076293945e-01
-1.912541389465332031e-01 1.553727127611637115e-02 1.018524765968322754e-01
-1.843219995498657227e-01 2.163822017610073090e-02 2.093093842267990112e-01
-1.498328745365142822e-01 2.142454124987125397e-02 1.548282206058502197e-01
-2.354385554790496826e-01 1.373749412596225739e-02 2.923034131526947021e-02
-1.904902160167694092e-01 1.855837740004062653e-02 -2.231485545635223389e-01
-2.844490706920623779e-01 1.345931831747293472e-02 -6.780360639095306396e-02
-1.713154762983322144e-01 2.569963410496711731e-02 8.445873111486434937e-02
-3.810055851936340332e-01 2.398932911455631256e-02 3.908758610486984253e-02
-2.094825357198715210e-01 2.693838626146316528e-02 6.406895816326141357e-02
-3.316336274147033691e-01 2.628977410495281219e-02 7.280043512582778931e-02
-3.691143691539764404e-01 2.475013583898544312e-02 5.479327216744422913e-02
-3.460294306278228760e-01 1.509820763021707535e-02 4.960425570607185364e-02
-3.073621690273284912e-01 1.663468033075332642e-02 1.752737313508987427e-01
-2.084165662527084351e-01 2.588251978158950806e-02 1.546577215194702148e-01
-2.575096487998962402e-01 1.446993462741374969e-02 1.014407947659492493e-01
-1.719719916582107544e-01 2.235085517168045044e-02 -1.805145889520645142e-01
-1.853944212198257446e-01 2.505674585700035095e-02 -1.167057529091835022e-01
-1.898267865180969238e-01 2.650956995785236359e-02 -3.075590822845697403e-03
-3.617468178272247314e-01 1.750175841152667999e-02 1.317124217748641968e-01
-1.876519471406936646e-01 2.560304105281829834e-02 -9.065804630517959595e-02
-2.021034955978393555e-01 1.403211429715156555e-02 -6.395548582077026367e-02
-3.263369202613830566e-01 2.447940781712532043e-02 1.869570016860961914e-01
-2.324916124343872070e-01 1.612308621406555176e-02 1.661121547222137451e-01
-3.514089286327362061e-01 2.570074237883090973e-02 3.559731319546699524e-02
-3.061293363571166992e-01 1.367262564599514008e-02 -2.382914535701274872e-02
-2.652809023857116699e-01 2.740011923015117645e-02 3.322480991482734680e-02
-2.101290076971054077e-01 1.568489708006381989e-02 1.332974284887313843e-01
-3.908545076847076416e-01 1.739852875471115112e-02 -1.861547119915485382e-03
-2.991887331008911133e-01 1.670208200812339783e-02 1.821023225784301758e-01
-1.793127804994583130e-01 1.602755486965179443e-02 1.047287955880165100e-01
-2.281555086374282837e-01 2.465812116861343384e-02 -1.719388216733932495e-01
-2.447534948587417603e-01 2.579868584871292114e-02 -1.315392255783081055e-01
-1.453094184398651123e-01 1.697126962244510651e-02 -1.074204146862030029e-01
-3.454899787902832031e-01 1.533940248191356659e-02 7.018496096134185791e-02
-2.223854064941406250e-01 1.623214222490787506e-02 -2.166907936334609985e-01
-1.412424147129058838e-01 2.428588084876537323e-02 4.873358458280563354e-02
-2.966372072696685791e-01 2.698050625622272491e-02 8.674544095993041992e-02
-1.392558366060256958e-01 1.679567433893680573e-02 -5.351297929883003235e-02
-3.478571176528930664e-01 1.492307707667350769e-02 2.345319464802742004e-02
-2.790530622005462646e-01 1.346461288630962372e-02 -6.094947457313537598e-05
-3.197868466377258301e-01 1.398191601037979126e-02 -2.378477714955806732e-03
-3.093056678771972656e-01 2.665540762245655060e-02 -3.421630710363388062e-02
-2.568065524101257324e-01 1.898394152522087097e-02 2.348913252353668213e-01
-2.920414507389068604e-01 1.392617076635360718e-02 5.025105923414230347e-02
-3.336953818798065186e-01 1.552189886569976807e-02 1.050606146454811096e-01
-2.045242488384246826e-01 1.406753435730934143e-02 6.655495613813400269e-03
-1.730601638555526733e-01 2.599233388900756836e-02 -2.457075053825974464e-03
-2.522073388099670410e-01 1.338692009449005127e-02 -1.579659618437290192e-02
-2.043428421020507812e-01 1.406867243349552155e-02 -8.376114070415496826e-02
-2.002058625221252441e-01 1.410967018455266953e-02 -4.816262051463127136e-03
-3.737043142318725586e-01 2.421252802014350891e-02 8.105501532554626465e-02
-1.717066764831542969e-01 1.533567998558282852e-02 -1.077599674463272095e-01
-3.210460543632507324e-01 1.491522230207920074e-02 9.032527357339859009e-02
-2.684282660484313965e-01 1.413696818053722382e-02 -1.517501920461654663e-01
-2.298812121152877808e-01 1.502752862870693207e-02 -1.853379607200622559e-01
-1.942079663276672363e-01 1.464914437383413315e-02 4.766316711902618408e-02
-3.016009628772735596e-01 2.585838176310062408e-02 1.654406040906906128e-01
-3.433754444122314453e-01 1.874153688549995422e-02 1.875644326210021973e-01
-2.254543900489807129e-01 2.665730938315391541e-02 1.277114599943161011e-01
-2.035050690174102783e-01 1.430475432425737381e-02 -1.113350987434387207e-01
-1.296069622039794922e-01 2.297651208937168121e-02 -4.645271971821784973e-02
-1.425049006938934326e-01 1.670435443520545959e-02 2.069594897329807281e-02
-3.173828125000000000e-01 2.508528903126716614e-02 1.793482452630996704e-01
-2.331036329269409180e-01 1.350857410579919815e-02 -2.102986536920070648e-02
-2.738579511642456055e-01 2.452860586345195770e-02 -1.797271966934204102e-01
-2.422701865434646606e-01 2.569679170846939087e-02 1.867934763431549072e-01
-3.103511929512023926e-01 1.481930911540985107e-02 -1.596544682979583740e-01
-1.836873292922973633e-01 1.632854342460632324e-02 1.253425031900405884e-01
-2.259605973958969116e-01 1.438858825713396072e-02 -1.515453159809112549e-01
-2.500672042369842529e-01 2.185386419296264648e-02 2.489933669567108154e-01
-3.295848965644836426e-01 1.433154009282588959e-02 -8.540625125169754028e-02
-1.220689862966537476e-01 2.199166268110275269e-02 4.085815697908401489e-02
-3.340742886066436768e-01 2.621071599423885345e-02 -9.876010939478874207e-03
-3.597522675991058350e-01 2.522775530815124512e-02 6.286091357469558716e-02
-1.784950792789459229e-01 2.155828848481178284e-02 -2.009934186935424805e-01
-2.545531988143920898e-01 1.338811963796615601e-02 -6.850371509790420532e-02
-3.293055295944213867e-01 1.931052841246128082e-02 2.103427499532699585e-01
-1.403415650129318237e-01 2.301154471933841705e-02 1.107167154550552368e-01
-2.254601716995239258e-01 1.419278141111135483e-02 -1.380983144044876099e-01
-2.587466239929199219e-01 2.700230665504932404e-02 -5.084760114550590515e-02
-3.651556670665740967e-01 1.643747836351394653e-02 -1.216139420866966248e-01
-2.920318245887756348e-01 1.472406182438135147e-02 -1.720394045114517212e-01
-2.571548521518707275e-01 2.545732818543910980e-02 -1.482190787792205811e-01
-2.845156788825988770e-01 2.728080190718173981e-02 4.207953810691833496e-02
-1.337800174951553345e-01 1.814569346606731415e-02 6.342315673828125000e-02
-2.804527878761291504e-01 1.340179517865180969e-02 -2.237305603921413422e-02
-3.140666186809539795e-01 2.234823629260063171e-02 -2.101228386163711548e-01
-2.164032459259033203e-01 1.713198795914649963e-02 1.858920305967330933e-01
-2.950961589813232422e-01 2.715075574815273285e-02 2.114884555339813232e-02
-1.598206311464309692e-01 2.522240951657295227e-02 -3.783593699336051941e-02
-3.862546980381011963e-01 1.791130378842353821e-02 -9.534893929958343506e-02
-3.444010317325592041e-01 2.489708550274372101e-02 -9.358076751232147217e-02
-3.486049175262451172e-01 1.480614766478538513e-02 -5.655956640839576721e-02
-3.370816707611083984e-01 1.653965935111045837e-02 1.427931636571884155e-01
-3.689991235733032227e-01 1.574173197150230408e-02 -8.626638446003198624e-04
-2.427423894405364990e-01 1.500530168414115906e-02 -1.905669569969177246e-01
-2.875285148620605469e-01 1.360113359987735748e-02 -9.142643958330154419e-02
-1.560200452804565430e-01 2.387771941721439362e-02 1.342635005712509155e-01
-2.565883100032806396e-01 1.406925171613693237e-02 -1.477870941162109375e-01
-2.977091073989868164e-01 1.620627194643020630e-02 1.678953170776367188e-01
-2.228122800588607788e-01 2.719916030764579773e-02 4.138056561350822449e-02
-3.479989171028137207e-01 2.050895057618618011e-02 1.986947953701019287e-01
-2.663772404193878174e-01 1.871713995933532715e-02 2.316051721572875977e-01
-1.266849637031555176e-01 2.304538339376449585e-02 1.275921240448951721e-02
-3.058285415172576904e-01 1.847751624882221222e-02 -2.389239370822906494e-01
-2.037442028522491455e-01 2.658314630389213562e-02 9.952600300312042236e-02
-2.762371003627777100e-01 1.614422164857387543e-02 1.735437810420989990e-01
-2.132344543933868408e-01 2.542513608932495117e-02 -1.326057314872741699e-01
-2.450662404298782349e-01 1.569047942757606506e-02 1.559602469205856323e-01
-2.600766122341156006e-01 1.681056804955005646e-02 1.938801854848861694e-01
-1.828158199787139893e-01 1.518983766436576843e-02 6.347118318080902100e-02
-2.781006395816802979e-01 2.730935998260974884e-02 1.361365523189306259e-02
-2.045133858919143677e-01 2.553887851536273956e-02 1.650459915399551392e-01
-1.946659386157989502e-01 2.624984458088874817e-02 -5.573735758662223816e-02
-2.034396678209304810e-01 2.410158142447471619e-02 -1.735780835151672363e-01
-3.112745881080627441e-01 2.584216743707656860e-02 1.556921601295471191e-01
-2.289845347404479980e-01 2.684291079640388489e-02 1.161319538950920105e-01
-1.700949966907501221e-01 2.429445460438728333e-02 1.539573371410369873e-01
-3.624275922775268555e-01 1.535024028271436691e-02 -2.317491173744201660e-02
-2.190549224615097046e-01 2.448898181319236755e-02 2.089563161134719849e-01
-2.801834940910339355e-01 2.723250165581703186e-02 -4.117910750210285187e-03
-2.634373903274536133e-01 1.484338194131851196e-02 1.224572658538818359e-01
-3.234869241714477539e-01 1.412790734320878983e-02 1.109279319643974304e-02
-3.791168034076690674e-01 2.149561420083045959e-02 1.397415995597839355e-01
-2.275268882513046265e-01 1.805215328931808472e-02 -2.452060282230377197e-01
-3.647212982177734375e-01 2.454386651515960693e-02 -5.410608276724815369e-02
-1.924769431352615356e-01 1.525659672915935516e-02 8.839304000139236450e-02
-1.601621955633163452e-01 1.916437409818172455e-02 1.600500047206878662e-01
-1.647129058837890625e-01 1.550235785543918610e-02 2.805402129888534546e-02
-2.747804820537567139e-01 2.527330070734024048e-02 2.015993297100067139e-01
-2.227841019630432129e-01 2.497826516628265381e-02 -1.578491181135177612e-01
-1.459719836711883545e-01 1.633502915501594543e-02 -6.116567924618721008e-02
-2.255210429430007935e-01 1.681020110845565796e-02 -2.295779585838317871e-01
-2.013392448425292969e-01 2.420411817729473114e-02 2.003463804721832275e-01
-3.259446322917938232e-01 1.405802369117736816e-02 -3.195234760642051697e-02
-3.237088024616241455e-01 1.407713629305362701e-02 -6.829071044921875000e-02
-1.952636241912841797e-01 1.590057834982872009e-02 1.248990744352340698e-01
-2.279292345046997070e-01 1.354589872062206268e-02 -3.698828443884849548e-02
-2.421933263540267944e-01 1.633914746344089508e-02 1.770672798156738281e-01
-1.625907719135284424e-01 1.949172094464302063e-02 -1.908619403839111328e-01
-2.573127150535583496e-01 1.368204317986965179e-02 3.838751837611198425e-02
-3.073766827583312988e-01 2.692543528974056244e-02 6.159957870841026306e-02
