-1.998112164437770844e-02 4.040970467031002045e-03 -9.250857830047607422e-01
-1.022241078317165375e-02 -4.171843081712722778e-02 -2.472058236598968506e-01
9.365752339363098145e-02 -5.230057239532470703e-02 -3.728730976581573486e-01
-8.248443156480789185e-02 3.488135337829589844e-02 -3.082170486450195312e-01
-2.594192326068878174e-02 2.249501086771488190e-02 3.492975234985351562e-02
-5.706660449504852295e-02 -3.520302101969718933e-02 -7.041499614715576172e-01
-1.058142185211181641e-01 7.678896188735961914e-03 -8.999075889587402344e-01
2.125462144613265991e-02 -5.253827571868896484e-02 -7.816760540008544922e-01
-1.419595330953598022e-01 -1.516099553555250168e-03 -2.231824398040771484e-01
-6.840752065181732178e-02 -3.180304914712905884e-02 -6.928284168243408203e-01
-8.996456861495971680e-03 -3.798348456621170044e-02 -1.268645524978637695e-01
1.046576499938964844e-01 -2.567858994007110596e-02 -5.736482739448547363e-01
-1.418624166399240494e-02 2.049881219863891602e-02 -2.339458465576171875e-02
4.786793515086174011e-02 -5.417791754007339478e-02 -8.901008367538452148e-01
-2.511460706591606140e-02 1.960509642958641052e-02 1.202116906642913818e-01
-3.330624848604202271e-02 2.399668283760547638e-02 -4.631189405918121338e-01
-8.305300027132034302e-03 -4.417508840560913086e-02 -3.317015469074249268e-01
-1.242895424365997314e-01 2.307011373341083527e-02 -7.173858880996704102e-01
5.927568301558494568e-02 -1.866506878286600113e-03 -2.667537331581115723e-01
-3.560319542884826660e-03 9.227024391293525696e-03 1.785716116428375244e-01
-1.258656084537506104e-01 2.382866851985454559e-02 -7.036290168762207031e-01
9.974397718906402588e-02 -5.611109733581542969e-02 -5.540852546691894531e-01
-3.103329055011272430e-02 8.921448141336441040e-03 -8.762816786766052246e-01
-1.278215553611516953e-02 -4.279176890850067139e-02 -3.075343072414398193e-01
4.118751361966133118e-02 -5.267324298620223999e-02 -3.970395326614379883e-01
8.909602463245391846e-02 -2.853311598300933838e-02 -1.063485145568847656e-01
2.049056440591812134e-02 -1.177688315510749817e-02 -1.017058730125427246e+00
-8.286169171333312988e-02 3.584048897027969360e-02 -1.100261509418487549e-01
1.002135127782821655e-02 -5.076076835393905640e-02 -7.661750316619873047e-01
9.023980796337127686e-02 -4.872491955757141113e-02 -2.786398530006408691e-01
-1.577746570110321045e-01 2.232297696173191071e-02 4.954540729522705078e-02
-7.055267691612243652e-02 -2.531670592725276947e-02 -1.519805192947387695e-01
2.376028522849082947e-02 -5.332133919000625610e-02 -7.320984601974487305e-01
7.194110751152038574e-02 -5.358100682497024536e-02 -3.695920109748840332e-01
-1.057047247886657715e-01 -1.961369812488555908e-02 -5.579683780670166016e-01
-4.548584669828414917e-02 2.517962269484996796e-02 -5.185161828994750977e-01
-1.458261609077453613e-01 6.817840039730072021e-03 -6.807178854942321777e-01
1.036168038845062256e-01 -2.632770873606204987e-02 -3.038200139999389648e-01
-5.405209958553314209e-04 -8.904825896024703979e-03 2.425436079502105713e-01
-1.685062050819396973e-01 1.785319484770298004e-02 -1.400516033172607422e-01
-1.308586746454238892e-01 3.597974777221679688e-02 -4.287627339363098145e-01
-1.173129081726074219e-01 3.935497254133224487e-02 -1.954503506422042847e-01
-1.021942049264907837e-01 -1.389362290501594543e-02 -8.448700904846191406e-01
-3.882153704762458801e-02 -4.046816378831863403e-02 -6.843842267990112305e-01
-8.541105315089225769e-03 -4.561414569616317749e-02 -4.081645011901855469e-01
6.701254844665527344e-02 -4.662901163101196289e-02 -1.891066133975982666e-01
-1.149949133396148682e-01 3.317017853260040283e-02 -5.177468061447143555e-01
-3.910533338785171509e-02 2.031310088932514191e-02 1.864285171031951904e-01
-3.706499189138412476e-02 -9.308660402894020081e-03 -1.078822493553161621e+00
-1.479249447584152222e-01 1.271645538508892059e-03 -2.337327301502227783e-01
1.301553845405578613e-02 1.405598968267440796e-02 -3.489759862422943115e-01
1.118412166833877563e-01 -3.356485813856124878e-02 -6.730641722679138184e-01
-1.592108979821205139e-03 -3.531080111861228943e-02 -3.876405954360961914e-02
-2.212983556091785431e-02 -2.973526343703269958e-02 9.857088327407836914e-03
6.675635278224945068e-02 -1.031420379877090454e-02 -6.752747297286987305e-02
-6.704394519329071045e-02 -3.249416500329971313e-02 -6.649217605590820312e-01
-8.964680135250091553e-02 -3.846932202577590942e-03 1.719938814640045166e-01
1.136642992496490479e-01 -5.096154659986495972e-02 -7.453244924545288086e-01
1.162033081054687500e-01 -4.905772209167480469e-02 -4.840392172336578369e-01
8.625720441341400146e-02 -1.580703072249889374e-02 -2.328165024518966675e-01
4.666619375348091125e-02 -3.139787167310714722e-02 4.690870642662048340e-02
-9.913526475429534912e-02 2.743397094309329987e-02 2.320676743984222412e-01
-4.131261259317398071e-02 2.708609215915203094e-02 -3.740552365779876709e-01
6.398074328899383545e-02 -4.939709603786468506e-02 -2.487561404705047607e-01
-1.385558396577835083e-01 -3.919633571058511734e-03 -2.624881267547607422e-01
-1.211939603090286255e-01 -5.346145946532487869e-03 -5.424657464027404785e-02
9.405314922332763672e-04 1.010151393711566925e-02 1.396176517009735107e-01
-5.666989460587501526e-02 -5.414579063653945923e-03 -1.048958301544189453e+00
-1.153561174869537354e-01 -1.527637057006359100e-02 -5.995056629180908203e-01
2.549693360924720764e-02 6.540250033140182495e-04 -7.782766819000244141e-01
-1.145726889371871948e-01 2.565534226596355438e-02 -6.902933716773986816e-01
-7.754971086978912354e-02 2.081559412181377411e-02 -7.627598047256469727e-01
-7.618440687656402588e-02 2.191392332315444946e-02 -7.384781837463378906e-01
-5.892069637775421143e-02 8.837834000587463379e-03 -9.288525581359863281e-01
-2.482154779136180878e-02 -3.677119314670562744e-02 -9.945294857025146484e-01
5.142100527882575989e-02 -6.472895853221416473e-03 -7.500896453857421875e-01
-5.278805643320083618e-02 2.595173753798007965e-02 -5.389749407768249512e-01
1.765280961990356445e-02 -4.350443184375762939e-02 -1.046995043754577637e+00
8.927287161350250244e-02 -1.541921123862266541e-02 -4.071424901485443115e-01
-9.302483499050140381e-02 -1.738601550459861755e-02 -8.673129081726074219e-01
-1.236238330602645874e-01 3.660631179809570312e-02 -4.042268991470336914e-01
-1.197384148836135864e-01 3.858678787946701050e-02 -2.913327813148498535e-01
-5.067329853773117065e-02 -3.678793460130691528e-02 -7.316128015518188477e-01
1.203227192163467407e-01 -4.647270590066909790e-02 -6.333866715431213379e-01
-1.402411609888076782e-01 7.973624393343925476e-03 -7.363635301589965820e-01
7.020173966884613037e-02 -5.448766052722930908e-02 -9.139872789382934570e-01
1.901857182383537292e-02 1.180877350270748138e-02 -1.229791939258575439e-01
-8.084677904844284058e-02 -2.387608215212821960e-02 -8.461635112762451172e-01
3.860813006758689880e-02 6.111889146268367767e-03 -2.896725535392761230e-01
-9.073640406131744385e-02 -2.370867505669593811e-02 -7.102748751640319824e-01
-7.926900684833526611e-02 -1.470555178821086884e-02 -9.850516319274902344e-01
5.596534535288810730e-02 -4.679967183619737625e-03 -6.433188319206237793e-01
8.926543593406677246e-02 -4.446791112422943115e-02 -2.048145532608032227e-01
-1.401592940092086792e-01 3.582973778247833252e-02 7.386127114295959473e-02
5.033763125538825989e-02 1.717604696750640869e-03 -3.629811704158782959e-01
-6.131317093968391418e-02 -1.235694624483585358e-02 1.643241345882415771e-01
-2.386563085019588470e-02 2.185702882707118988e-02 -4.695225059986114502e-01
-1.430555582046508789e-01 4.613343626260757446e-04 -1.657314449548721313e-01
1.014168709516525269e-01 -5.659845471382141113e-02 -6.881269216537475586e-01
6.722252070903778076e-02 -5.554511398077011108e-02 -4.512717425823211670e-01
-5.224927514791488647e-02 2.931850217282772064e-02 4.821896553039550781e-03
-1.719339340925216675e-01 3.098713792860507965e-02 -3.039006590843200684e-01
-1.126302964985370636e-02 -4.659409821033477783e-02 -5.280360579490661621e-01
7.485777139663696289e-02 -1.743402332067489624e-02 -7.964770793914794922e-01
-9.174846112728118896e-02 3.512786328792572021e-02 5.145990848541259766e-02
-3.848710656166076660e-02 4.113649018108844757e-03 2.983678281307220459e-01
9.631101787090301514e-02 -5.693837255239486694e-02 -7.418490648269653320e-01
-8.869414031505584717e-02 2.315743453800678253e-02 2.659335434436798096e-01
1.012039035558700562e-01 -5.384001135826110840e-02 -8.258510828018188477e-01
-1.453158408403396606e-01 3.607487678527832031e-02 -3.976571261882781982e-01
-2.148078940808773041e-02 -2.147068735212087631e-03 -1.010597229003906250e+00
-5.694635584950447083e-02 -3.456604108214378357e-02 -7.568335533142089844e-01
5.782917514443397522e-02 -5.292677134275436401e-02 -9.488879442214965820e-01
-1.546850949525833130e-01 3.384921699762344360e-02 4.025238752365112305e-02
7.852326333522796631e-02 -5.821626633405685425e-02 -7.046999931335449219e-01
5.321284011006355286e-02 -5.087307188659906387e-03 -6.911501884460449219e-01
-1.250808835029602051e-01 3.982492536306381226e-02 -1.652251482009887695e-01
-1.907559670507907867e-02 -4.527966678142547607e-02 -5.815945863723754883e-01
-5.787244811654090881e-02 -4.854276776313781738e-04 -1.019830703735351562e+00
-5.579208582639694214e-02 -3.595679998397827148e-02 -6.537604331970214844e-01
-2.725444547832012177e-02 -4.303919523954391479e-02 -7.344064712524414062e-01
-8.676515519618988037e-02 9.126961231231689453e-06 2.242337763309478760e-01
3.670207038521766663e-02 -3.556625545024871826e-02 6.459504365921020508e-03
-4.016040265560150146e-02 -1.426873542368412018e-02 1.946460902690887451e-01
-4.075647145509719849e-02 2.291608788073062897e-02 -5.728794336318969727e-01
-3.616278618574142456e-02 -4.060475528240203857e-02 -7.495387792587280273e-01
-1.146400421857833862e-01 6.647536531090736389e-03 1.821009218692779541e-01
2.091559767723083496e-02 7.284274324774742126e-03 3.715938329696655273e-02
-1.063496619462966919e-01 3.852748125791549683e-02 -8.730018138885498047e-02
3.974014893174171448e-02 -3.744615241885185242e-02 -2.082234621047973633e-02
9.208973497152328491e-04 -4.857260733842849731e-02 -8.046678900718688965e-01
-1.246186047792434692e-01 3.957657516002655029e-02 -7.291129231452941895e-02
-9.485624730587005615e-02 3.175457566976547241e-02 1.634477078914642334e-01
-8.715186268091201782e-02 -1.628034375607967377e-02 -3.287157416343688965e-02
-7.946114242076873779e-02 -2.223551645874977112e-02 -1.338081061840057373e-01
4.093399271368980408e-02 -3.338550031185150146e-02 -1.107000708580017090e+00
-1.531757861375808716e-01 3.833191096782684326e-02 -8.396658301353454590e-02
3.404420614242553711e-02 8.352287113666534424e-05 6.628751754760742188e-02
-6.002910062670707703e-02 -1.783213019371032715e-02 8.613941073417663574e-02
-9.730648994445800781e-02 -6.545490585267543793e-03 9.709802269935607910e-02
6.277288496494293213e-02 -5.128371715545654297e-02 -2.995502352714538574e-01
1.065512001514434814e-01 -2.680036611855030060e-02 -3.746421933174133301e-01
-2.605784684419631958e-04 -1.843547448515892029e-02 -1.111461162567138672e+00
-1.118725351989269257e-02 2.102040313184261322e-02 -2.952699363231658936e-01
1.821985095739364624e-02 1.041276194155216217e-02 -3.084322810173034668e-02
1.150511950254440308e-02 8.503410965204238892e-03 -6.648946404457092285e-01
-1.357319951057434082e-01 -9.751534089446067810e-04 -7.036486864089965820e-01
-1.341101676225662231e-01 1.346422359347343445e-04 -5.438882112503051758e-02
1.157260984182357788e-01 -5.009092390537261963e-02 -7.227757573127746582e-01
-1.608274132013320923e-01 7.769927382469177246e-03 -3.151385486125946045e-01
-8.631891012191772461e-02 2.706055156886577606e-02 2.259360849857330322e-01
1.865409687161445618e-02 -5.039103329181671143e-02 -8.857879042625427246e-01
-1.592810153961181641e-01 1.869595982134342194e-02 6.064534187316894531e-03
-1.638199090957641602e-01 1.019402220845222473e-02 -4.014692008495330811e-01
-8.534428477287292480e-02 3.543334454298019409e-02 -2.932783365249633789e-01
-3.399856388568878174e-02 2.063169889152050018e-02 -6.081569790840148926e-01
-1.532616745680570602e-02 -4.615875333547592163e-02 -6.797907352447509766e-01
-3.641225770115852356e-02 1.999740675091743469e-02 -6.435027122497558594e-01
-9.183920919895172119e-02 -1.397289708256721497e-02 -1.263153553009033203e-02
4.040647670626640320e-02 4.874717444181442261e-03 -4.139336645603179932e-01
-8.392661809921264648e-02 -1.984564214944839478e-02 -9.010114669799804688e-01
-5.082446709275245667e-02 2.856347523629665375e-02 -3.975918292999267578e-01
-1.164683550596237183e-01 1.938664354383945465e-02 -7.790196537971496582e-01
-5.404067784547805786e-02 -1.974460855126380920e-02 7.735455036163330078e-02
1.672477647662162781e-02 -2.688608132302761078e-02 1.134592592716217041e-01
-2.710302360355854034e-02 -4.350740462541580200e-02 -5.963205099105834961e-01
7.066768407821655273e-02 -5.807328224182128906e-02 -6.510154604911804199e-01
-1.493799965828657150e-02 -3.429337590932846069e-02 -1.069200634956359863e+00
-1.327350884675979614e-01 4.830695688724517822e-03 5.061209201812744141e-02
-1.673501133918762207e-01 1.295125111937522888e-02 -2.967787384986877441e-01
1.011153310537338257e-01 -2.339467778801918030e-02 -3.327319025993347168e-01
7.073502987623214722e-03 1.243784837424755096e-02 -5.615289211273193359e-01
1.396381482481956482e-02 -5.191016942262649536e-02 -6.646618843078613281e-01
-2.008873969316482544e-03 1.597344316542148590e-02 -5.060486793518066406e-01
-1.775841787457466125e-02 -4.565852880477905273e-02 -6.105226278305053711e-01
5.126360803842544556e-03 -3.274250775575637817e-04 -9.096841812133789062e-01
-6.145097687840461731e-02 -1.538843847811222076e-02 1.204158365726470947e-01
-5.945121124386787415e-02 -3.493884578347206116e-02 -5.297052860260009766e-01
2.258784323930740356e-02 3.849609754979610443e-03 9.356120228767395020e-02
-2.844450436532497406e-02 2.434523589909076691e-02 -3.763968944549560547e-01
5.350482836365699768e-02 5.963519215583801270e-04 -3.405595421791076660e-01
-1.934207603335380554e-02 -4.354167729616165161e-02 -4.129193127155303955e-01
4.566080495715141296e-02 -5.528303235769271851e-02 -5.217470526695251465e-01
-3.913411498069763184e-02 -3.926637768745422363e-02 -4.233298003673553467e-01
8.583971858024597168e-02 -5.654495209455490112e-02 -8.246569633483886719e-01
-1.721805036067962646e-01 3.200618177652359009e-02 -2.507840991020202637e-01
-9.334869682788848877e-02 3.449965268373489380e-02 -4.113514125347137451e-01
-7.573001086711883545e-02 2.464512176811695099e-02 2.390216290950775146e-01
-6.169907003641128540e-02 2.791545726358890533e-02 1.338798105716705322e-01
2.912013605237007141e-02 4.005216062068939209e-03 -6.485916376113891602e-01
-1.145601123571395874e-01 -1.128285843878984451e-02 -1.528231501579284668e-01
5.975170060992240906e-02 -5.318195372819900513e-02 -3.642850220203399658e-01
3.270247951149940491e-02 -9.706423617899417877e-03 -9.406423568725585938e-01
-6.969784200191497803e-02 -3.022608347237110138e-02 -3.531937301158905029e-01
-1.581861227750778198e-01 3.793914616107940674e-02 -1.531665623188018799e-01
2.072227373719215393e-02 -4.730435460805892944e-02 -9.890354871749877930e-01
-1.495714336633682251e-01 6.203027442097663879e-04 -3.442500829696655273e-01
-3.981084376573562622e-02 -2.093012072145938873e-02 -1.088898777961730957e+00
-9.899790585041046143e-02 -5.238611716777086258e-03 1.088233888149261475e-01
-1.437984555959701538e-01 1.432828791439533234e-02 9.307888150215148926e-02
-8.801545202732086182e-02 2.867033146321773529e-02 2.058288156986236572e-01
2.532215788960456848e-02 -2.375567797571420670e-03 -8.480263948440551758e-01
6.793005764484405518e-02 -1.862821914255619049e-02 9.915173053741455078e-03
-7.602181285619735718e-02 3.003284893929958344e-02 -5.152430534362792969e-01
-6.307151168584823608e-02 1.962951011955738068e-02 -7.577907443046569824e-01
-1.404891163110733032e-01 -2.601863816380500793e-04 -6.527096629142761230e-01
-7.125167548656463623e-02 -3.152522072196006775e-02 -5.916420817375183105e-01
-1.817374303936958313e-02 2.208647504448890686e-02 -5.501350760459899902e-02
8.389812707901000977e-02 -5.770951509475708008e-02 -7.631232738494873047e-01
-6.278230249881744385e-02 -3.056441061198711395e-02 -8.494864702224731445e-01
-7.566029578447341919e-02 -2.735400758683681488e-02 -8.010160923004150391e-01
-5.162241309881210327e-02 -2.531096525490283966e-02 -2.257698774337768555e-02
-2.498762123286724091e-02 1.720322482287883759e-02 -6.607501506805419922e-01
8.192437887191772461e-02 -1.660371758043766022e-02 -6.928908228874206543e-01
-6.390330195426940918e-02 2.874343656003475189e-02 -4.988359510898590088e-01
-1.038589328527450562e-01 3.443060815334320068e-02 1.189918816089630127e-01
5.716134235262870789e-02 -1.016606390476226807e-02 -7.915909290313720703e-01
-1.669970899820327759e-01 1.960690505802631378e-02 -8.126661181449890137e-02
-1.602583080530166626e-01 2.966773323714733124e-02 -4.767558276653289795e-01
-3.184489533305168152e-02 -4.094737023115158081e-02 -8.051091432571411133e-01
4.073064401745796204e-02 2.476497553288936615e-03 -6.122669577598571777e-02
-5.569711700081825256e-02 -9.909864515066146851e-03 2.089392244815826416e-01
3.273286297917366028e-02 7.765604183077812195e-03 -3.756538927555084229e-01
-1.243205666542053223e-01 3.032512404024600983e-02 -5.904183387756347656e-01
-9.139034897089004517e-03 1.840767450630664825e-02 -4.708578884601593018e-01
9.211994707584381104e-02 -5.031613260507583618e-02 -3.184811174869537354e-01
2.435626089572906494e-02 -2.176994085311889648e-02 1.530472934246063232e-01
-1.277067214250564575e-01 -7.409156300127506256e-03 -2.014085203409194946e-01
-1.277878433465957642e-01 3.992541879415512085e-02 -1.468455195426940918e-01
-1.088488996028900146e-01 2.460483275353908539e-02 2.485767900943756104e-01
-1.400165259838104248e-01 3.964468836784362793e-02 -2.100491970777511597e-01
-8.152215182781219482e-02 3.564509749412536621e-02 -1.932338476181030273e-01
-1.036591976881027222e-01 2.014581672847270966e-02 -7.850270271301269531e-01
-9.227617084980010986e-02 -8.853322826325893402e-03 8.602952957153320312e-02
1.163807511329650879e-02 -5.134572088718414307e-02 -7.256892919540405273e-01
1.482177525758743286e-02 1.342783868312835693e-02 -3.614413142204284668e-01
7.189497351646423340e-02 -5.598784238100051880e-02 -4.677594304084777832e-01
-1.032218337059020996e-01 -8.624869398772716522e-03 -8.986116647720336914e-01
-4.870974272489547729e-02 -3.286195918917655945e-02 -2.191393971443176270e-01
1.687559857964515686e-02 -5.158583074808120728e-02 -8.014193177223205566e-01
8.867642283439636230e-02 -5.732466280460357666e-02 -5.658491849899291992e-01
-1.620527803897857666e-01 1.032047718763351440e-02 -2.074042707681655884e-01
-2.842224575579166412e-02 -1.685749925673007965e-02 1.864714324474334717e-01
-7.720122486352920532e-02 -2.577711455523967743e-02 -2.378055006265640259e-01
6.859706342220306396e-02 -4.217374324798583984e-02 -1.048171758651733398e+00
8.318074047565460205e-02 -2.456629090011119843e-02 -7.218706607818603516e-02
-5.371633544564247131e-02 -2.083838731050491333e-02 5.904731154441833496e-02
-9.533540904521942139e-02 3.403756022453308105e-02 1.073476970195770264e-01
-3.516119718551635742e-02 3.850224427878856659e-03 -9.620177745819091797e-01
1.523107662796974182e-02 1.373905129730701447e-02 -2.826286554336547852e-01
-8.363491296768188477e-02 3.557576984167098999e-02 -5.032107234001159668e-02
-5.617957562208175659e-02 1.251231878995895386e-02 -8.735283017158508301e-01
9.049420058727264404e-02 -1.608179882168769836e-02 -4.209073781967163086e-01
9.234093129634857178e-03 1.058624684810638428e-02 -6.130997538566589355e-01
-2.961641177535057068e-02 2.553337253630161285e-02 -2.811600863933563232e-01
-1.437465846538543701e-01 3.080351278185844421e-03 -6.645941734313964844e-01
-7.141582667827606201e-02 -9.063202887773513794e-03 -1.031023263931274414e+00
-1.465957313776016235e-01 -1.167975366115570068e-03 -3.710489869117736816e-01
8.251190185546875000e-02 -5.739437043666839600e-02 -5.534685850143432617e-01
-4.344147443771362305e-02 2.536432631313800812e-02 -4.939321279525756836e-01
1.073387861251831055e-01 -2.652908861637115479e-02 -4.662299454212188721e-01
-8.193629235029220581e-02 1.209070719778537750e-02 -8.970869779586791992e-01
-1.955020055174827576e-02 -4.506161063909530640e-02 -5.584268569946289062e-01
1.096590757369995117e-01 -3.242170065641403198e-02 -3.188479244709014893e-01
4.403732344508171082e-02 -3.639702871441841125e-02 -7.284283638000488281e-03
-2.727140858769416809e-02 1.074088364839553833e-02 -8.301155567169189453e-01
-1.427619457244873047e-01 -2.555111888796091080e-03 -3.052847683429718018e-01
-5.699471384286880493e-02 -3.575571626424789429e-02 -6.098575592041015625e-01
2.328365296125411987e-02 -4.070755839347839355e-02 -9.304592013359069824e-02
-8.106733858585357666e-02 3.433904051780700684e-02 1.603057980537414551e-02
8.823089301586151123e-02 -4.965664446353912354e-02 -2.909169197082519531e-01
-3.875438123941421509e-04 -3.793103992938995361e-02 -1.071542501449584961e+00
2.220211178064346313e-02 5.801482126116752625e-03 5.971816182136535645e-02
-1.025131046772003174e-01 3.830689936876296997e-02 -1.416302025318145752e-01
-1.170535087585449219e-01 1.830776594579219818e-02 -7.899967432022094727e-01
-9.281134605407714844e-02 -1.810343749821186066e-02 -1.312619447708129883e-01
5.584237352013587952e-02 -1.337208505719900131e-02 -8.693503141403198242e-01
6.788288056850433350e-02 -9.900930337607860565e-03 -8.961451053619384766e-02
6.499193608760833740e-02 -6.610841024667024612e-03 -5.828048586845397949e-01
2.990453317761421204e-02 -5.401074141263961792e-02 -7.647038698196411133e-01
-2.500180527567863464e-02 -3.598567098379135132e-02 -1.007411599159240723e+00
-1.461268812417984009e-01 -1.202756538987159729e-03 -4.777407646179199219e-01
-8.466655015945434570e-02 2.342575229704380035e-02 -7.211627960205078125e-01
-8.638589829206466675e-02 -8.164661005139350891e-03 1.267524659633636475e-01
6.722770631313323975e-03 -4.034679383039474487e-02 -1.061738014221191406e+00
-9.050297737121582031e-02 3.669326007366180420e-02 -2.243475317955017090e-01
9.255853295326232910e-02 -2.303875982761383057e-02 -7.274293899536132812e-01
-8.236084878444671631e-02 3.422980755567550659e-02 -3.544130325317382812e-01
2.838797867298126221e-02 -5.015666782855987549e-02 -3.481058776378631592e-01
-9.917388856410980225e-02 1.906279288232326508e-02 -8.028153181076049805e-01
-1.708849966526031494e-01 1.744824089109897614e-02 -3.789975047111511230e-01
-3.757778555154800415e-02 -4.098242521286010742e-02 -6.151335239410400391e-01
9.517841041088104248e-02 -3.318376094102859497e-02 -8.781080245971679688e-01
-1.739825606346130371e-01 2.212621457874774933e-02 -3.363448977470397949e-01
5.983700975775718689e-02 -4.939495120197534561e-03 -1.059630513191223145e-01
1.188876181840896606e-01 -4.775752127170562744e-02 -6.780827045440673828e-01
-2.483619377017021179e-02 -4.160550981760025024e-02 -8.624834418296813965e-01
7.204264402389526367e-03 1.048201136291027069e-02 -6.361998319625854492e-01
-1.021261513233184814e-01 -2.064772322773933411e-02 -6.105756759643554688e-01
-8.700941503047943115e-02 -2.364627644419670105e-02 -7.773740291595458984e-01
3.682454302906990051e-02 -5.127955973148345947e-02 -3.558772206306457520e-01
7.480515539646148682e-02 -1.506688818335533142e-02 -7.861787080764770508e-02
-1.626709103584289551e-01 3.282474726438522339e-02 -3.913446962833404541e-01
-1.472280472517013550e-01 1.481735520064830780e-02 7.261681556701660156e-02
6.561154127120971680e-02 -4.325189162045717239e-03 -3.141863644123077393e-01
-5.606479942798614502e-03 -4.156808368861675262e-03 -1.000686645507812500e+00
9.685747325420379639e-02 -2.527512796223163605e-02 -2.049495726823806763e-01
-1.658128798007965088e-01 1.148507185280323029e-02 -3.366138041019439697e-01
1.115232557058334351e-01 -4.191990196704864502e-02 -7.977960109710693359e-01
-1.586252301931381226e-01 3.724232316017150879e-02 -2.570625543594360352e-01
-9.598550200462341309e-02 -2.284852787852287292e-02 -4.215991497039794922e-01
-8.510266244411468506e-02 3.577689081430435181e-02 -2.548471093177795410e-01
-1.695826351642608643e-01 1.576498337090015411e-02 -2.385289222002029419e-01
2.781919762492179871e-02 -1.533786393702030182e-02 -1.032764673233032227e+00
-9.170651435852050781e-02 3.310306370258331299e-02 -4.657206535339355469e-01
5.090029165148735046e-02 1.445761881768703461e-03 -3.758069574832916260e-01
4.604138061404228210e-02 -9.686309844255447388e-03 9.252652525901794434e-02
-8.141591399908065796e-02 1.467631570994853973e-02 2.984754741191864014e-01
-3.341108560562133789e-03 1.886606775224208832e-02 -3.131525814533233643e-01
8.328513801097869873e-02 -1.244743354618549347e-02 -3.477337956428527832e-01
9.545686841011047363e-02 -2.575607597827911377e-02 -1.814958900213241577e-01
1.194604933261871338e-01 -3.892295062541961670e-02 -5.234386324882507324e-01
-8.056013286113739014e-02 3.539495915174484253e-02 -8.670702576637268066e-02
-3.797449171543121338e-03 1.037945598363876343e-02 -7.235374450683593750e-01
-1.231898367404937744e-01 -1.235068216919898987e-02 -5.424910783767700195e-01
-6.699115037918090820e-02 -2.709506638348102570e-02 -9.010277390480041504e-01
5.017561092972755432e-02 -2.169700805097818375e-03 -6.257475614547729492e-01
-3.851632773876190186e-02 -3.342084959149360657e-02 -1.588375568389892578e-01
-1.272589564323425293e-01 3.629636019468307495e-02 -4.180631041526794434e-01
8.617851138114929199e-02 -2.110863476991653442e-02 -7.605456113815307617e-01
-6.698024272918701172e-02 -3.259474039077758789e-02 -6.537607908248901367e-01
5.593902990221977234e-02 -7.649454753845930099e-03 -9.641051292419433594e-04
-8.299537003040313721e-02 3.590836375951766968e-02 -1.729202717542648315e-01
4.901062324643135071e-02 1.373495906591415405e-03 -1.713944077491760254e-01
-7.375383377075195312e-02 -3.060995228588581085e-02 -6.266479492187500000e-01
-1.063685491681098938e-02 -4.327650368213653564e-02 -9.283144474029541016e-01
9.439007937908172607e-02 -1.824676990509033203e-02 -4.363191425800323486e-01
-1.162657886743545532e-01 -1.301333308219909668e-02 -6.939860582351684570e-01
9.212629497051239014e-02 -3.639440238475799561e-02 -9.305262565612792969e-01
-5.483915656805038452e-02 -2.862579934298992157e-02 -9.617035388946533203e-01
6.525924801826477051e-02 -5.226799286901950836e-03 -2.036982029676437378e-01
-8.387867361307144165e-02 3.198847174644470215e-02 -4.764084815979003906e-01
-1.058586686849594116e-01 -7.456486113369464874e-03 2.710044384002685547e-02
-5.044069513678550720e-02 -3.364610671997070312e-02 -2.671021819114685059e-01
1.129865646362304688e-02 -4.010305553674697876e-02 -1.074917435646057129e+00
-8.863332867622375488e-02 3.199430555105209351e-02 -4.966721832752227783e-01
-9.766666591167449951e-02 -1.467639114707708359e-02 -7.671481370925903320e-02
-4.098825901746749878e-02 2.816513739526271820e-02 -1.101810634136199951e-01
1.004116609692573547e-02 -4.315482079982757568e-02 -1.031432986259460449e+00
-1.206902563571929932e-01 2.979408390820026398e-02 -6.048176288604736328e-01
1.159404218196868896e-02 -4.341962188482284546e-02 -1.917862594127655029e-01
-1.149993836879730225e-01 -1.076700165867805481e-02 -7.716370820999145508e-01
-4.612813889980316162e-02 2.287265844643115997e-02 -6.076864004135131836e-01
-7.659457623958587646e-03 -3.279026597738265991e-02 -1.099893212318420410e+00
-1.391369402408599854e-01 3.989527374505996704e-02 -1.460759639739990234e-01
-6.735118106007575989e-03 -1.331841945648193359e-02 2.290687263011932373e-01
-1.038061454892158508e-02 1.083554886281490326e-02 -7.511634230613708496e-01
-3.012506291270256042e-02 2.586517296731472015e-02 -1.481803655624389648e-01
5.299307778477668762e-02 5.673822015523910522e-04 -2.460104227066040039e-01
2.580079808831214905e-02 -1.788610219955444336e-02 -1.063005328178405762e+00
7.703320682048797607e-02 -5.427573621273040771e-02 -3.958984613418579102e-01
1.082999110221862793e-01 -2.776868827641010284e-02 -4.025754332542419434e-01
7.737237215042114258e-02 -5.770251899957656860e-02 -5.763859748840332031e-01
-8.893695473670959473e-02 3.551992028951644897e-02 -3.226037323474884033e-01
-1.651108264923095703e-02 -2.328338846564292908e-02 1.281192004680633545e-01
-1.214311569929122925e-01 -4.135033115744590759e-03 -2.756929397583007812e-02
-6.430970132350921631e-02 2.784787677228450775e-02 -5.363184809684753418e-01
-2.063808962702751160e-03 1.683291420340538025e-02 -1.778498291969299316e-02
-8.075164258480072021e-02 3.528909385204315186e-02 -2.404072433710098267e-01
-1.203975230455398560e-01 -5.606152117252349854e-04 -8.412135839462280273e-01
-7.638669759035110474e-02 -2.892259880900382996e-02 -7.108864188194274902e-01
-7.478003203868865967e-02 2.874163724482059479e-02 -5.555391907691955566e-01
1.133379936218261719e-01 -3.893547505140304565e-02 -7.446315288543701172e-01
-3.717348352074623108e-02 -4.026465862989425659e-02 -4.668903350830078125e-01
-9.149511158466339111e-02 -4.801219794899225235e-03 1.517744362354278564e-01
-2.687899582087993622e-02 3.922304138541221619e-03 -9.445244073867797852e-01
1.004119217395782471e-02 5.806128494441509247e-03 1.481561362743377686e-01
-9.149943292140960693e-02 -1.979477703571319580e-02 -1.740375757217407227e-01
-1.342098712921142578e-01 3.435264527797698975e-02 1.170788705348968506e-01
1.130372434854507446e-01 -3.118142485618591309e-02 -5.041912198066711426e-01
-1.574283540248870850e-01 6.298906169831752777e-03 -2.544451653957366943e-01
-4.043747484683990479e-02 2.448746748268604279e-02 -5.076583623886108398e-01
5.231535807251930237e-02 -1.852269843220710754e-02 -9.706587791442871094e-01
9.257699549198150635e-02 -5.428771674633026123e-02 -4.296530485153198242e-01
1.123535037040710449e-01 -3.455031663179397583e-02 -6.860587596893310547e-01
-1.448340117931365967e-01 -2.102670259773731232e-03 -4.565398395061492920e-01
-6.883356720209121704e-02 -3.189729154109954834e-02 -4.732106328010559082e-01
7.819075882434844971e-02 -1.996890082955360413e-02 -5.819699168205261230e-02
-7.860305160284042358e-02 3.369088470935821533e-02 3.112682700157165527e-02
-2.553608827292919159e-02 -1.537477318197488785e-02 2.055295407772064209e-01
5.755205824971199036e-02 -5.709202587604522705e-02 -5.991640090942382812e-01
-8.007118850946426392e-02 6.763508543372154236e-03 -9.507044553756713867e-01
-1.630330830812454224e-01 3.361244499683380127e-02 -3.660608232021331787e-01
-2.752078883349895477e-02 -3.217597305774688721e-02 -6.390851736068725586e-02
4.032314196228981018e-02 -5.252345651388168335e-02 -9.215584993362426758e-01
-5.229723453521728516e-02 -1.777350157499313354e-02 -1.067851305007934570e+00
4.040529206395149231e-02 -5.416504293680191040e-02 -4.808802008628845215e-01
-1.206278204917907715e-01 2.660460211336612701e-02 -6.679148674011230469e-01
-8.915632218122482300e-02 -6.314785219728946686e-03 1.412017643451690674e-01
6.678730249404907227e-02 -5.647604167461395264e-02 -5.024755001068115234e-01
-1.253576427698135376e-01 -6.765258964151144028e-03 -1.424767673015594482e-01
-3.746978566050529480e-02 -3.569059073925018311e-02 -9.376071691513061523e-01
-7.329294085502624512e-02 -2.936659380793571472e-02 -7.489598989486694336e-01
1.177767664194107056e-02 1.104993559420108795e-02 2.790471911430358887e-02
-1.685912013053894043e-01 3.405249863862991333e-02 -2.622258961200714111e-01
8.342400193214416504e-02 -1.264047250151634216e-02 -3.284552991390228271e-01
-1.647475212812423706e-01 1.082899980247020721e-02 -3.868722915649414062e-01
-1.374294459819793701e-01 -5.124307237565517426e-03 -5.540490150451660156e-01
5.316050723195075989e-02 -3.175342082977294922e-02 3.256881237030029297e-02
-4.004411771893501282e-02 -2.577849850058555603e-02 2.133825421333312988e-02
-5.479903891682624817e-02 3.043403662741184235e-02 -3.110094070434570312e-01
1.165540069341659546e-01 -3.728222846984863281e-02 -4.160155653953552246e-01
4.504401236772537231e-03 1.654617302119731903e-02 -1.361025571823120117e-01
-4.750620573759078979e-02 6.111079826951026917e-03 -9.512889385223388672e-01
2.671986818313598633e-02 8.630521595478057861e-03 -4.671396613121032715e-01
1.354559883475303650e-02 1.410686969757080078e-02 -1.820084452629089355e-01
-8.476302027702331543e-02 7.103748619556427002e-03 2.789560258388519287e-01
2.435424923896789551e-02 -5.266169458627700806e-02 -8.123502731323242188e-01
-2.554715052247047424e-02 2.385798282921314240e-02 -3.634739518165588379e-01
-1.368564739823341370e-02 2.171749621629714966e-02 -2.838374078273773193e-01
-1.347900032997131348e-01 1.071073673665523529e-02 -7.737756371498107910e-01
5.404182150959968567e-02 4.014037549495697021e-04 -3.063601255416870117e-01
-1.060264110565185547e-01 1.010720431804656982e-02 2.417916357517242432e-01
-5.892903357744216919e-02 -3.301244601607322693e-02 -8.057613372802734375e-01
5.765390768647193909e-02 -1.106514688581228256e-02 -8.081889152526855469e-01
5.186000838875770569e-02 -1.105040777474641800e-02 -8.524022698402404785e-01
5.659514293074607849e-02 -5.731188505887985229e-02 -6.629283428192138672e-01
-7.259630411863327026e-02 -2.814555913209915161e-02 -8.130866885185241699e-01
-1.004464477300643921e-01 3.770994395017623901e-02 -5.337497591972351074e-02
-1.248112693428993225e-02 -4.429157078266143799e-02 -3.762568235397338867e-01
1.818368583917617798e-02 -5.234656482934951782e-02 -7.455630898475646973e-01
5.152815952897071838e-02 -5.510421097278594971e-02 -8.645212650299072266e-01
-1.531354784965515137e-01 1.853171549737453461e-02 6.131380796432495117e-02
6.137122586369514465e-02 -1.390413753688335419e-02 -8.389233350753784180e-01
-1.841043308377265930e-02 -2.635209076106548309e-02 7.982099056243896484e-02
-1.386248320341110229e-01 3.909587115049362183e-02 -2.688260078430175781e-01
5.445915088057518005e-02 -4.630319029092788696e-02 -1.782389432191848755e-01
-2.631046250462532043e-02 2.345119602978229523e-02 -6.214648485183715820e-03
-1.014419794082641602e-01 3.810267150402069092e-02 -1.901750862598419189e-01
-1.677367091178894043e-02 2.147686667740345001e-02 -3.914871811866760254e-02
7.655467092990875244e-02 -5.248089134693145752e-02 -3.374345004558563232e-01
8.182081580162048340e-02 -4.880616813898086548e-02 -2.559629678726196289e-01
-5.007063224911689758e-02 -3.332556784152984619e-02 -8.953049182891845703e-01
7.394626736640930176e-02 -5.806202441453933716e-02 -7.314011454582214355e-01
-1.180937588214874268e-01 -1.470607426017522812e-02 -4.409961700439453125e-01
-7.272166013717651367e-02 1.936288177967071533e-02 2.819639742374420166e-01
8.784131705760955811e-02 -5.697190761566162109e-02 -7.972694635391235352e-01
2.770566195249557495e-02 -4.512486606836318970e-02 -1.873120516538619995e-01
-1.045956611633300781e-01 -1.996662095189094543e-02 -4.469609558582305908e-01
1.111885458230972290e-01 -5.419957637786865234e-02 -6.450759172439575195e-01
4.206233844161033630e-02 3.492666408419609070e-03 -1.291683316230773926e-01
-1.705667376518249512e-01 1.609910652041435242e-02 -3.250962197780609131e-01
-3.088643401861190796e-02 2.370581589639186859e-02 -4.515790343284606934e-01
-1.347648352384567261e-01 -6.129916757345199585e-03 -5.795616507530212402e-01
1.031579971313476562e-01 -5.538079142570495605e-02 -7.584925889968872070e-01
-6.155077368021011353e-02 3.240431845188140869e-02 -1.974532753229141235e-01
-1.465224623680114746e-01 1.735655590891838074e-03 -1.829361468553543091e-01
-4.365817457437515259e-02 1.431328430771827698e-02 -8.132057785987854004e-01
8.674652874469757080e-02 -5.801168829202651978e-02 -6.380251049995422363e-01
-4.610989987850189209e-02 -2.006466872990131378e-02 1.011197268962860107e-01
-1.239959150552749634e-02 2.157806046307086945e-02 -2.248690575361251831e-01
-1.566846668720245361e-01 5.746250972151756287e-03 -4.779362976551055908e-01
7.204940915107727051e-02 -8.480808697640895844e-03 -5.304992198944091797e-01
6.404998898506164551e-02 -1.826171018183231354e-02 -8.989349603652954102e-01
2.903801575303077698e-02 -5.425772815942764282e-02 -6.775619983673095703e-01
3.458316624164581299e-02 -4.917684942483901978e-02 -2.870918214321136475e-01
-1.021248400211334229e-01 3.591343015432357788e-02 -3.821166753768920898e-01
7.697193324565887451e-02 -1.542427670210599899e-02 -9.731483459472656250e-02
-1.192988157272338867e-01 3.501766175031661987e-02 1.206760108470916748e-01
-6.368825584650039673e-02 -3.266716003417968750e-02 -4.049330949783325195e-01
-9.665951132774353027e-02 3.752133250236511230e-02 -2.061417400836944580e-01
-8.539622277021408081e-02 7.310273125767707825e-03 -9.409662485122680664e-01
-1.021601706743240356e-01 2.625563926994800568e-02 -6.800757646560668945e-01
1.432912424206733704e-03 -2.702516131103038788e-02 1.036454141139984131e-01
-3.230296447873115540e-02 -3.121917694807052612e-02 -1.041443586349487305e+00
-4.196552559733390808e-02 -3.975710272789001465e-02 -6.605558395385742188e-01
-7.720597088336944580e-02 3.260408341884613037e-02 -4.089258313179016113e-01
-7.146082818508148193e-02 -2.566839009523391724e-02 -1.720571070909500122e-01
-3.636585175991058350e-02 2.495073340833187103e-02 4.341140389442443848e-02
-1.280125230550765991e-01 1.843953318893909454e-02 2.045867145061492920e-01
-7.660655677318572998e-02 2.566268108785152435e-02 -6.525250673294067383e-01
2.460215985774993896e-02 2.105972729623317719e-03 -7.473875284194946289e-01
4.454934969544410706e-02 -5.620258301496505737e-02 -6.764397621154785156e-01
-7.488900423049926758e-02 -2.891383878886699677e-02 -3.658578991889953613e-01
9.488257765769958496e-02 -2.118048444390296936e-02 -2.489217072725296021e-01
-4.601838439702987671e-02 2.938424609601497650e-02 -1.421913504600524902e-01
-3.194823488593101501e-02 -4.129565507173538208e-02 -7.814444303512573242e-01
-1.294374465942382812e-01 -6.938406266272068024e-03 -6.636943817138671875e-01
1.671556383371353149e-02 -4.288878291845321655e-02 -1.597995758056640625e-01
-1.558703482151031494e-01 1.081166230142116547e-02 -5.972016453742980957e-01
8.395807445049285889e-02 -1.369236409664154053e-02 -5.264166593551635742e-01
3.263017907738685608e-02 -4.470149427652359009e-02 -1.655430495738983154e-01
-5.898434296250343323e-02 2.506907470524311066e-02 1.856841146945953369e-01
-6.519128382205963135e-02 3.179537504911422729e-02 8.925914764404296875e-03
-5.454909801483154297e-02 -2.527875453233718872e-02 -1.009840250015258789e+00
-4.507577419281005859e-02 -2.886798977851867676e-02 -7.217851281166076660e-02
3.051675111055374146e-02 -3.304473310708999634e-02 4.068958759307861328e-02
9.279277920722961426e-02 -4.921229928731918335e-02 -9.350579977035522461e-01
-7.549966871738433838e-02 2.968432568013668060e-02 1.523602902889251709e-01
-2.889041788876056671e-02 -8.176753297448158264e-03 -1.071630358695983887e+00
3.882752731442451477e-02 5.689116194844245911e-03 -2.035859674215316772e-01
-1.382066607475280762e-01 3.733064979314804077e-02 4.101452231407165527e-02
-2.183785662055015564e-02 -4.272086173295974731e-02 -8.467301130294799805e-01
-1.640306562185287476e-01 1.350527629256248474e-02 -1.500169038772583008e-01
7.892046123743057251e-03 -4.569319635629653931e-02 -9.726443290710449219e-01
3.323825076222419739e-02 -3.055174369364976883e-03 -8.120722174644470215e-01
-1.733350753784179688e-02 2.259526588022708893e-02 -1.281625330448150635e-01
-1.601985991001129150e-01 8.338168263435363770e-03 -4.676316976547241211e-01
-1.363483220338821411e-01 3.994728624820709229e-02 -1.609409153461456299e-01
-1.239577494561672211e-02 -1.713266968727111816e-02 -1.112501382827758789e+00
-2.365840598940849304e-02 1.088762469589710236e-02 2.444151341915130615e-01
9.088608622550964355e-02 -5.487398803234100342e-02 -4.449682831764221191e-01
-1.657415181398391724e-01 2.389259450137615204e-02 -4.949331581592559814e-01
6.314502656459808350e-02 -5.026995204389095306e-03 -1.627745330333709717e-01
-1.182240806519985199e-02 -4.464799910783767700e-02 -3.887825012207031250e-01
-6.762278079986572266e-02 2.652592025697231293e-02 -5.970488786697387695e-01
-4.546872526407241821e-02 -3.665594756603240967e-02 -3.543405234813690186e-01
-2.837507240474224091e-02 -1.105119753628969193e-02 2.399407327175140381e-01
1.635551825165748596e-02 1.290269196033477783e-02 -1.422061622142791748e-01
-1.040038615465164185e-01 -1.410302519798278809e-02 -8.242303133010864258e-01
-1.124904900789260864e-01 -1.514326222240924835e-02 -2.845273315906524658e-01
-1.100091189146041870e-01 3.602001070976257324e-02 -4.053407311439514160e-01
-4.289713501930236816e-02 2.872781269252300262e-02 -2.157388925552368164e-01
-1.416369825601577759e-01 3.774181008338928223e-02 1.723989844322204590e-02
1.366954743862152100e-01 -8.307662606239318848e-02 -1.012001335620880127e-01
2.724507153034210205e-01 -4.487323760986328125e-02 1.366346776485443115e-01
1.906750947237014771e-01 -5.238538607954978943e-02 2.455619126558303833e-01
3.506312668323516846e-01 -1.084163263440132141e-01 -2.039746046066284180e-01
2.172936648130416870e-01 -4.486484825611114502e-02 1.100599765777587891e-01
2.413090765476226807e-01 -6.284378468990325928e-02 4.526269733905792236e-01
2.435358613729476929e-01 -1.505384892225265503e-01 2.241117507219314575e-01
1.592964380979537964e-01 -6.008470803499221802e-02 9.079410880804061890e-02
2.330377250909805298e-01 -4.391765967011451721e-02 1.450965255498886108e-01
2.994830608367919922e-01 -6.426185369491577148e-02 3.537380099296569824e-01
1.480698287487030029e-01 -1.390597671270370483e-01 1.379499733448028564e-01
3.575337529182434082e-01 -1.021802872419357300e-01 5.225664377212524414e-02
3.062268793582916260e-01 -1.346526890993118286e-01 -2.893734574317932129e-01
1.229124665260314941e-01 -8.939664065837860107e-02 1.564620286226272583e-01
2.557284235954284668e-01 -4.401268810033798218e-02 -4.699363932013511658e-02
2.632024586200714111e-01 -4.328254982829093933e-02 3.233502060174942017e-02
2.655627429485321045e-01 -1.429202854633331299e-01 -3.109517097473144531e-01
1.736150383949279785e-01 -5.640768259763717651e-02 -2.815490216016769409e-02
2.562220990657806396e-01 -1.331617534160614014e-01 -4.062738716602325439e-01
1.387059241533279419e-01 -1.117063313722610474e-01 3.661946654319763184e-01
1.960579156875610352e-01 -1.206036508083343506e-01 -4.079970121383666992e-01
1.587083786725997925e-01 -6.172820553183555603e-02 2.023382931947708130e-01
1.771984547376632690e-01 -1.325314939022064209e-01 3.997017741203308105e-01
3.043556809425354004e-01 -5.008639767765998840e-02 9.173831343650817871e-02
2.358534038066864014e-01 -1.539048701524734497e-01 1.506000757217407227e-01
2.242771536111831665e-01 -1.514569669961929321e-01 -1.947811394929885864e-01
1.608224511146545410e-01 -1.443206816911697388e-01 -3.143008425831794739e-02
1.918759644031524658e-01 -4.949764162302017212e-02 1.353786885738372803e-01
3.217185139656066895e-01 -8.684128522872924805e-02 -3.818463087081909180e-01
1.772367060184478760e-01 -1.395279318094253540e-01 -2.346337884664535522e-01
2.234362214803695679e-01 -1.560401320457458496e-01 3.645475953817367554e-02
1.267527341842651367e-01 -9.742550551891326904e-02 -8.132213354110717773e-02
2.047312855720520020e-01 -6.261162459850311279e-02 -2.821353971958160400e-01
3.306345045566558838e-01 -1.331243515014648438e-01 -1.049882918596267700e-02
3.175469636917114258e-01 -1.391111910343170166e-01 -1.049953848123550415e-01
3.363375961780548096e-01 -7.077505439519882202e-02 2.004337608814239502e-01
3.147819042205810547e-01 -1.370649635791778564e-01 -2.002532780170440674e-01
1.645066589117050171e-01 -6.034049764275550842e-02 -3.657795861363410950e-02
1.875405013561248779e-01 -8.370430767536163330e-02 5.178534388542175293e-01
2.544167637825012207e-01 -1.273017227649688721e-01 4.582667946815490723e-01
3.427323997020721436e-01 -9.865071624517440796e-02 -2.982482016086578369e-01
2.116365432739257812e-01 -1.552605777978897095e-01 6.841513514518737793e-02
2.939454317092895508e-01 -5.964406952261924744e-02 3.324459195137023926e-01
2.026395201683044434e-01 -1.490458846092224121e-01 -1.953796744346618652e-01
3.582458198070526123e-01 -8.835451304912567139e-02 4.086077213287353516e-02
2.120666801929473877e-01 -1.501374095678329468e-01 2.423991858959197998e-01
3.564617633819580078e-01 -9.768288582563400269e-02 -1.637201905250549316e-01
2.415030002593994141e-01 -1.547640562057495117e-01 -1.049439758062362671e-01
3.072416186332702637e-01 -1.378313899040222168e-01 1.841557174921035767e-01
1.441230624914169312e-01 -1.238926947116851807e-01 3.348320424556732178e-01
2.873281240463256836e-01 -5.353245139122009277e-02 2.823356389999389648e-01
2.931676208972930908e-01 -5.917099490761756897e-02 -2.820889949798583984e-01
2.366849333047866821e-01 -4.586952924728393555e-02 -9.681321680545806885e-02
2.839129865169525146e-01 -6.110691651701927185e-02 -3.197397589683532715e-01
1.650172173976898193e-01 -1.259267926216125488e-01 4.132015407085418701e-01
2.774911522865295410e-01 -1.411995738744735718e-01 -3.091542720794677734e-01
2.113157659769058228e-01 -6.396250426769256592e-02 4.511521756649017334e-01
1.539915502071380615e-01 -1.426375955343246460e-01 6.422770023345947266e-02
2.605260014533996582e-01 -1.540983915328979492e-01 -6.132138147950172424e-02
2.531603872776031494e-01 -1.368560642004013062e-01 3.894197046756744385e-01
1.425786614418029785e-01 -1.315380632877349854e-01 2.429561465978622437e-01
2.847226858139038086e-01 -4.600783437490463257e-02 1.051809489727020264e-01
2.614543139934539795e-01 -4.338412359356880188e-02 4.690900444984436035e-03
1.837955564260482788e-01 -1.504642367362976074e-01 1.415159851312637329e-01
1.667765825986862183e-01 -1.104165688157081604e-01 -3.423905372619628906e-01
3.108634054660797119e-01 -9.395968168973922729e-02 4.164896905422210693e-01
3.241892158985137939e-01 -7.324807345867156982e-02 -3.079020678997039795e-01
2.743807435035705566e-01 -1.501080095767974854e-01 -1.579650193452835083e-01
1.865231841802597046e-01 -6.988296657800674438e-02 4.515278637409210205e-01
2.571974992752075195e-01 -4.677941277623176575e-02 -1.358615607023239136e-01
1.825594604015350342e-01 -7.415065914392471313e-02 -3.057734966278076172e-01
3.430648446083068848e-01 -9.024802595376968384e-02 -2.878046929836273193e-01
2.906008958816528320e-01 -8.257853984832763672e-02 -4.417173862457275391e-01
2.348690778017044067e-01 -6.677506864070892334e-02 4.807015657424926758e-01
3.463374674320220947e-01 -1.169053316116333008e-01 -1.838112771511077881e-01
1.968895345926284790e-01 -1.101621687412261963e-01 -4.314397871494293213e-01
2.459250241518020630e-01 -6.524021923542022705e-02 4.667425751686096191e-01
1.449577808380126953e-01 -6.905554980039596558e-02 1.991242170333862305e-01
1.933663785457611084e-01 -4.896891489624977112e-02 1.105528920888900757e-01
3.316317200660705566e-01 -1.324024945497512817e-01 1.798011362552642822e-03
2.021050900220870972e-01 -1.464726179838180542e-01 -2.351569384336471558e-01
1.819532066583633423e-01 -5.228812620043754578e-02 3.327008336782455444e-02
2.387744784355163574e-01 -1.526046246290206909e-01 1.842256486415863037e-01
2.276769578456878662e-01 -1.544768661260604858e-01 1.371244341135025024e-01
2.988730669021606445e-01 -5.622379481792449951e-02 2.730435729026794434e-01
1.751263141632080078e-01 -1.229930222034454346e-01 -3.406233489513397217e-01
2.937496304512023926e-01 -4.805501922965049744e-02 -6.220548227429389954e-02
2.565720975399017334e-01 -1.320288777351379395e-01 4.234624803066253662e-01
3.040173947811126709e-01 -7.803373783826828003e-02 4.134819805622100830e-01
1.528848111629486084e-01 -1.274239867925643921e-01 3.548648953437805176e-01
2.992724776268005371e-01 -1.442925035953521729e-01 -1.598050594329833984e-01
2.364046424627304077e-01 -1.552282422780990601e-01 -8.835086226463317871e-02
1.823972910642623901e-01 -1.458021700382232666e-01 -1.724329143762588501e-01
1.431043297052383423e-01 -8.091104030609130859e-02 3.435007035732269287e-01
2.485610395669937134e-01 -5.044897645711898804e-02 -2.072648555040359497e-01
2.125778943300247192e-01 -5.348375812172889709e-02 -1.921114474534988403e-01
2.946223616600036621e-01 -1.364972740411758423e-01 -3.145372569561004639e-01
1.573359668254852295e-01 -9.017287194728851318e-02 -2.810585498809814453e-01
2.451404333114624023e-01 -1.401007771492004395e-01 3.695075809955596924e-01
