5.564233660697937012e-02 1.834205389022827148e-01 -3.863077610731124878e-02
3.789739608764648438e-01 4.250310957431793213e-01 -2.355159223079681396e-01
4.623558223247528076e-01 3.521548509597778320e-01 -1.217386350035667419e-01
2.888537943363189697e-01 8.658754825592041016e-02 6.861698813736438751e-03
3.778041005134582520e-01 3.121926486492156982e-01 -3.395385444164276123e-01
7.928921282291412354e-02 2.905182540416717529e-01 3.617341518402099609e-01
1.363592147827148438e-01 3.224396109580993652e-01 4.256400763988494873e-01
1.245565488934516907e-01 5.767399668693542480e-01 3.561039566993713379e-01
3.179370164871215820e-01 2.028357237577438354e-01 3.511872589588165283e-01
4.749972522258758545e-01 3.344445824623107910e-01 -1.018627434968948364e-01
2.370043694972991943e-01 1.335312426090240479e-01 2.074467241764068604e-01
4.789935350418090820e-01 1.403509676456451416e-01 -8.224875479936599731e-02
1.316973865032196045e-01 6.602793931961059570e-01 9.243281185626983643e-02
3.864297866821289062e-01 4.479581713676452637e-01 -1.671705842018127441e-01
1.875556111335754395e-01 6.204113364219665527e-01 -1.325840651988983154e-01
2.068678438663482666e-01 2.679174542427062988e-01 -4.249650239944458008e-01
4.464764893054962158e-01 3.623048663139343262e-01 2.126958966255187988e-01
4.317965507507324219e-01 2.884092926979064941e-01 3.014561235904693604e-01
-5.273239314556121826e-02 2.703572511672973633e-01 -8.014506101608276367e-02
4.060571640729904175e-02 2.182338833808898926e-01 -2.189674675464630127e-01
4.336297214031219482e-01 4.251506924629211426e-01 1.810777932405471802e-02
1.612107157707214355e-01 4.127849340438842773e-01 -4.531429708003997803e-01
6.716296821832656860e-02 5.010983943939208984e-01 -4.281866550445556641e-01
-2.780373394489288330e-02 2.592426240444183350e-01 -1.652967333793640137e-01
-4.221044480800628662e-02 6.935179233551025391e-01 -1.198634877800941467e-01
-1.467938721179962158e-02 4.361159801483154297e-01 3.887826502323150635e-01
9.796087443828582764e-02 1.604337692260742188e-01 -9.688716381788253784e-02
4.047751426696777344e-01 1.688783764839172363e-01 2.711158990859985352e-01
4.931343495845794678e-01 1.656185686588287354e-01 -8.509140461683273315e-02
-1.083342134952545166e-01 6.198965311050415039e-01 -2.717273533344268799e-01
2.268205881118774414e-01 5.274792909622192383e-01 3.518415093421936035e-01
3.456570506095886230e-01 5.079233646392822266e-01 1.681946814060211182e-01
2.316376715898513794e-01 3.151263892650604248e-01 4.377392828464508057e-01
2.774972319602966309e-01 5.784996151924133301e-01 6.022975966334342957e-02
-5.102753639221191406e-04 2.471458911895751953e-01 -2.108978629112243652e-01
7.995007187128067017e-02 3.617579340934753418e-01 -4.464319646358489990e-01
1.839217841625213623e-01 3.346194326877593994e-01 -4.524705410003662109e-01
2.429226487874984741e-01 1.056164503097534180e-01 -1.382742226123809814e-01
4.584442973136901855e-01 3.198136389255523682e-01 2.312566936016082764e-01
-1.181046366691589355e-01 3.577269613742828369e-01 -1.713887751102447510e-01
1.840484142303466797e-02 2.405299246311187744e-01 -2.383129298686981201e-01
2.332879602909088135e-02 2.964579164981842041e-01 -3.565622568130493164e-01
9.176982194185256958e-02 2.512249946594238281e-01 -3.634342849254608154e-01
2.683457434177398682e-01 5.212547183036804199e-01 3.125039637088775635e-01
3.463571071624755859e-01 9.100425243377685547e-02 1.028751358389854431e-01
4.426673352718353271e-01 2.211463004350662231e-01 2.750819027423858643e-01
4.743260741233825684e-01 2.006535083055496216e-01 -1.814680695533752441e-01
-1.493728458881378174e-01 5.778617858886718750e-01 2.353901565074920654e-01
8.232235908508300781e-03 2.176682204008102417e-01 -2.545671071857213974e-03
4.051429927349090576e-01 1.284169852733612061e-01 2.016035318374633789e-01
4.095993936061859131e-02 6.935437321662902832e-01 -1.594427414238452911e-02
2.125544250011444092e-01 4.666984081268310547e-01 -4.009670615196228027e-01
-5.464205145835876465e-02 3.217084407806396484e-01 2.138930261135101318e-01
3.075874447822570801e-01 5.344368219375610352e-01 1.987733244895935059e-01
2.120432108640670776e-01 1.194288730621337891e-01 1.217558532953262329e-01
2.590133547782897949e-01 4.818348884582519531e-01 3.785770237445831299e-01
1.799400150775909424e-02 5.693478584289550781e-01 3.772552907466888428e-01
3.439128398895263672e-01 5.190858840942382812e-01 1.149008125066757202e-01
-6.328158080577850342e-02 2.926866412162780762e-01 9.759665280580520630e-02
4.163630604743957520e-01 3.081982433795928955e-01 3.200885951519012451e-01
4.782222509384155273e-01 2.266862094402313232e-01 -1.802816987037658691e-01
4.857461452484130859e-01 1.356299519538879395e-01 9.546123445034027100e-03
-6.939187645912170410e-03 6.954869031906127930e-01 1.143736988306045532e-01
-1.794772148132324219e-01 4.582833945751190186e-01 -1.563831865787506104e-01
2.251515984535217285e-01 2.615145146846771240e-01 4.063751399517059326e-01
2.249788939952850342e-01 6.123591065406799316e-01 -3.282728791236877441e-02
4.858896732330322266e-01 2.273786365985870361e-01 1.912194490432739258e-01
6.552419811487197876e-02 3.695470094680786133e-01 -4.436566531658172607e-01
3.299410343170166016e-01 1.146805882453918457e-01 -2.163464426994323730e-01
5.827446281909942627e-02 3.155356645584106445e-01 3.704489171504974365e-01
9.884662181138992310e-02 6.481105089187622070e-01 2.226892411708831787e-01
1.615063846111297607e-01 4.814075827598571777e-01 -4.184189736843109131e-01
3.104973435401916504e-01 1.952448189258575439e-01 -3.534592092037200928e-01
-1.638104915618896484e-01 6.726138591766357422e-01 2.617676742374897003e-02
4.874088168144226074e-01 2.989451885223388672e-01 1.548317074775695801e-01
-1.213028430938720703e-01 3.430327177047729492e-01 -3.283027559518814087e-02
3.926093131303787231e-02 3.423619866371154785e-01 3.788874745368957520e-01
2.689953893423080444e-02 2.133692055940628052e-01 -1.543759405612945557e-01
-2.293000519275665283e-01 2.211830615997314453e-01 -4.952729344367980957e-01
-9.255576133728027344e-02 3.227809369564056396e-01 2.626918256282806396e-01
-4.894173145294189453e-01 2.824413776397705078e-01 8.859761804342269897e-02
-2.798309922218322754e-01 2.370584458112716675e-01 -5.494198799133300781e-01
-1.506031602621078491e-01 1.729388535022735596e-01 7.461825013160705566e-02
-8.487527072429656982e-02 2.385601550340652466e-01 -8.582895994186401367e-02
-4.689734578132629395e-01 1.643249690532684326e-01 2.055065333843231201e-01
-1.144504100084304810e-01 3.013685643672943115e-01 -3.331878483295440674e-01
-3.465514481067657471e-01 3.412221372127532959e-01 -4.084719717502593994e-01
-3.834025263786315918e-01 1.500251591205596924e-01 -3.776984214782714844e-01
-1.203050166368484497e-01 2.733307480812072754e-01 -3.482014238834381104e-01
-4.166191816329956055e-01 3.456551432609558105e-01 -1.850876063108444214e-01
-3.532990217208862305e-01 1.406346261501312256e-01 -3.464800119400024414e-01
-1.670188456773757935e-01 3.883180618286132812e-01 1.764617413282394409e-01
-4.387412071228027344e-01 2.263499051332473755e-01 -4.536679387092590332e-01
-4.142167270183563232e-01 1.910964846611022949e-01 -4.582973718643188477e-01
-5.109872221946716309e-01 2.251483798027038574e-01 -2.002335637807846069e-01
-3.733801841735839844e-01 1.361286938190460205e-01 -3.183315396308898926e-01
-1.430283635854721069e-01 1.819482743740081787e-01 -1.171977967023849487e-01
-4.173929095268249512e-01 3.429992198944091797e-01 -2.080219537019729614e-01
-2.776065766811370850e-01 3.452177941799163818e-01 4.135691821575164795e-01
-3.930965065956115723e-01 1.173316389322280884e-01 8.639725297689437866e-02
-1.411210298538208008e-01 2.035321593284606934e-01 2.784422934055328369e-01
-9.992454946041107178e-02 2.331937998533248901e-01 -1.833789646625518799e-01
-9.475454688072204590e-02 3.405582904815673828e-01 2.258010655641555786e-01
-2.558006346225738525e-01 2.501126229763031006e-01 -5.446054935455322266e-01
-3.822917640209197998e-01 3.651534318923950195e-01 -1.600622683763504028e-01
-2.962666451930999756e-01 3.816557228565216064e-01 -2.625153362751007080e-01
-5.174171328544616699e-01 1.950010359287261963e-01 -4.806578159332275391e-02
-2.615233361721038818e-01 3.854263722896575928e-01 2.366852313280105591e-01
-5.183527469635009766e-01 2.051490247249603271e-01 -1.035644784569740295e-01
-2.342430651187896729e-01 1.349277049303054810e-01 -1.131499633193016052e-01
-4.226194024085998535e-01 2.524762749671936035e-01 4.028280377388000488e-01
-9.898783266544342041e-02 2.524290978908538818e-01 2.724678814411163330e-01
-5.067421793937683105e-01 1.784041523933410645e-01 4.796982556581497192e-02
-2.616703212261199951e-01 1.242618709802627563e-01 -4.978241398930549622e-02
-1.868662238121032715e-01 3.789678514003753662e-01 -2.763168513774871826e-01
-4.454050958156585693e-01 1.932072639465332031e-01 -4.142606556415557861e-01
-1.017450392246246338e-01 3.702173233032226562e-01 -1.646720990538597107e-02
-3.786061108112335205e-01 3.587055206298828125e-01 1.808151155710220337e-01
-7.896894216537475586e-02 3.432271480560302734e-01 -7.931177318096160889e-02
-3.521692454814910889e-01 3.765936493873596191e-01 1.073761135339736938e-01
-1.786126643419265747e-01 1.569687426090240479e-01 -7.022482156753540039e-02
-1.984639614820480347e-01 1.743292063474655151e-01 3.154759407043457031e-01
-4.073337018489837646e-01 1.677905619144439697e-01 3.535369336605072021e-01
-1.554273962974548340e-01 2.294568270444869995e-01 3.970754742622375488e-01
-1.615305691957473755e-01 3.804300725460052490e-01 -2.247107475996017456e-01
-1.405054330825805664e-01 1.790615022182464600e-01 -3.011175617575645447e-02
-5.154151916503906250e-01 2.207895070314407349e-01 -1.605134904384613037e-01
-4.788948893547058105e-01 2.993686199188232422e-01 -1.500905603170394897e-01
-2.166585922241210938e-01 2.766508162021636963e-01 -5.184023380279541016e-01
-9.631656110286712646e-02 2.576425075531005859e-01 -2.398190200328826904e-01
-4.044950306415557861e-01 1.240417212247848511e-01 1.442120522260665894e-01
-6.629446148872375488e-02 3.204970359802246094e-01 -5.048843100666999817e-02
-1.776229441165924072e-01 3.877155184745788574e-01 -2.033952027559280396e-01
-4.486209154129028320e-01 3.172605037689208984e-01 -2.392381131649017334e-01
-2.451358735561370850e-01 1.470386683940887451e-01 -2.726403474807739258e-01
-2.431550621986389160e-01 1.497776210308074951e-01 -2.859078943729400635e-01
-2.357003390789031982e-01 3.935952186584472656e-01 -2.047950476408004761e-01
-3.428552150726318359e-01 1.771732717752456665e-01 -4.736509919166564941e-01
-2.642963528633117676e-01 3.957586586475372314e-01 1.331886649131774902e-01
-7.355274260044097900e-02 3.388632535934448242e-01 -4.065914079546928406e-02
-4.625080525875091553e-01 3.193928003311157227e-01 -2.860985696315765381e-02
-3.131830096244812012e-01 3.780736327171325684e-01 2.182917892932891846e-01
-6.997318565845489502e-02 3.171588778495788574e-01 -1.072253137826919556e-01
-4.416166245937347412e-01 2.277096062898635864e-01 3.710702955722808838e-01
-4.834580123424530029e-01 2.019097059965133667e-01 -3.285488486289978027e-01
-3.313617110252380371e-01 3.823818564414978027e-01 1.235866546630859375e-01
-2.026857286691665649e-01 2.092077136039733887e-01 -4.361595809459686279e-01
-3.534756898880004883e-01 3.804904222488403320e-01 5.172458477318286896e-03
-4.112143218517303467e-01 1.211735904216766357e-01 -1.552731990814208984e-01
-2.205445766448974609e-01 4.022448658943176270e-01 5.230721831321716309e-02
-1.997125744819641113e-01 2.528704702854156494e-01 -4.933266937732696533e-01
-4.220343828201293945e-01 1.327032148838043213e-01 1.777258366346359253e-01
-2.907454669475555420e-01 2.792494893074035645e-01 5.212828516960144043e-01
-4.447812438011169434e-01 3.107712864875793457e-01 2.104264199733734131e-01
-4.852258563041687012e-01 1.943147182464599609e-01 -3.117529451847076416e-01
-6.957593560218811035e-02 2.820055186748504639e-01 -1.131768822669982910e-01
-2.991416156291961670e-01 3.401130139827728271e-01 -4.533997774124145508e-01
-1.927690356969833374e-01 3.853143751621246338e-01 -2.440644949674606323e-01
-2.113546729087829590e-01 2.713181674480438232e-01 5.073878169059753418e-01
-3.218159079551696777e-01 1.345223188400268555e-01 2.706724703311920166e-01
-2.314176410436630249e-01 1.337706446647644043e-01 -6.293045729398727417e-02
-3.326890766620635986e-01 1.138354241847991943e-01 -9.625353664159774780e-02
-1.954836845397949219e-01 2.204760909080505371e-01 -4.470769166946411133e-01
-1.528076827526092529e-01 2.583015263080596924e-01 4.316210150718688965e-01
-3.975357115268707275e-01 1.777779161930084229e-01 3.900727629661560059e-01
-4.031994342803955078e-01 3.121884763240814209e-01 3.390779495239257812e-01
-5.193283557891845703e-01 2.209188044071197510e-01 -9.635460376739501953e-02
-9.891049563884735107e-02 3.587419986724853516e-01 1.577946245670318604e-01
-4.468249380588531494e-01 3.318512737751007080e-01 -6.934957951307296753e-02
-2.834648787975311279e-01 1.282412111759185791e-01 -2.059057354927062988e-01
-2.000156342983245850e-01 3.555679321289062500e-01 -3.888456225395202637e-01
-8.179776370525360107e-02 2.487065345048904419e-01 -1.172398552298545837e-01
-4.754018187522888184e-01 1.886720955371856689e-01 -3.346364200115203857e-01
-1.393509656190872192e-01 3.596287369728088379e-01 -2.801424562931060791e-01
-3.429993391036987305e-01 1.580117642879486084e-01 3.769215643405914307e-01
-2.230760306119918823e-01 3.141830861568450928e-01 4.836592972278594971e-01
-1.960214078426361084e-01 3.417028188705444336e-01 4.178314507007598877e-01
-2.614267170429229736e-01 3.410593867301940918e-01 4.318615198135375977e-01
-3.569917976856231689e-01 1.119064390659332275e-01 -5.714210867881774902e-02
-7.965490221977233887e-02 2.765896916389465332e-01 -1.826094835996627808e-01
-4.481260478496551514e-01 3.165356814861297607e-01 1.614342629909515381e-01
-1.819392293691635132e-01 1.572002023458480835e-01 1.190556287765502930e-01
-4.022305011749267578e-01 1.238666027784347534e-01 -2.052705883979797363e-01
-1.246424466371536255e-01 3.047473132610321045e-01 -3.591079413890838623e-01
-3.130193352699279785e-01 3.910053968429565430e-01 -1.071155890822410583e-01
-1.354509741067886353e-01 3.881638050079345703e-01 -1.989055424928665161e-03
-4.316846132278442383e-01 3.419683277606964111e-01 6.226339377462863922e-03
-3.605503737926483154e-01 1.990957558155059814e-01 -5.114405155181884766e-01
-4.013633430004119873e-01 1.150269061326980591e-01 -3.096370398998260498e-02
-2.845211029052734375e-01 3.384968638420104980e-01 -4.631208777427673340e-01
-3.319918215274810791e-01 3.535737395286560059e-01 3.275229632854461670e-01
-3.678652346134185791e-01 1.145641356706619263e-01 8.064442127943038940e-02
-3.526956737041473389e-01 1.184569299221038818e-01 -1.859481483697891235e-01
-4.842517971992492676e-01 1.522405743598937988e-01 -1.446360796689987183e-01
-3.916803896427154541e-01 3.297878503799438477e-01 3.053067028522491455e-01
-1.162703633308410645e-01 3.794760107994079590e-01 5.452209152281284332e-03
-4.992212951183319092e-01 1.715289354324340820e-01 -1.728682965040206909e-01
-1.407350599765777588e-01 3.846342563629150391e-01 -1.259150803089141846e-01
-1.513525694608688354e-01 3.486123979091644287e-01 3.510541319847106934e-01
-3.418758511543273926e-01 3.734185099601745605e-01 -2.382558584213256836e-01
-1.342191249132156372e-01 3.872259259223937988e-01 4.421046748757362366e-02
-2.787957489490509033e-01 1.341967582702636719e-01 -2.496097683906555176e-01
-2.203664481639862061e-01 3.665484488010406494e-01 3.491001725196838379e-01
-4.605969488620758057e-01 2.845584750175476074e-01 2.459016889333724976e-01
-3.718701004981994629e-01 1.171272099018096924e-01 1.169668287038803101e-01
-1.751485466957092285e-01 2.409043014049530029e-01 -4.433687925338745117e-01
-4.229484200477600098e-01 2.106857299804687500e-01 4.003600776195526123e-01
-3.796998262405395508e-01 1.162340044975280762e-01 -1.448239088058471680e-01
-3.835518956184387207e-01 1.864703446626663208e-01 4.224145710468292236e-01
-1.362152248620986938e-01 2.057067006826400757e-01 -2.468201369047164917e-01
-4.108162820339202881e-01 3.551597893238067627e-01 -2.918015047907829285e-02
-2.434760928153991699e-01 1.352376043796539307e-01 1.557158231735229492e-01
-3.923685252666473389e-01 1.213485449552536011e-01 -1.943520009517669678e-01
-2.947628498077392578e-01 1.431234925985336304e-01 3.052872717380523682e-01
-2.112718224525451660e-01 4.028513431549072266e-01 -1.757881417870521545e-02
-4.088398218154907227e-01 1.604221165180206299e-01 -3.927083015441894531e-01
-4.732247889041900635e-01 2.223863005638122559e-01 -3.734715878963470459e-01
-7.788929343223571777e-02 2.439172714948654175e-01 5.223216861486434937e-02
-7.916946709156036377e-02 2.572186589241027832e-01 -1.311276853084564209e-01
-1.799506992101669312e-01 3.943687677383422852e-01 1.377042829990386963e-01
-7.746168971061706543e-02 2.504364550113677979e-01 -7.809732109308242798e-02
-1.053329259157180786e-01 3.031411767005920410e-01 -3.036712110042572021e-01
-3.109652698040008545e-01 2.595862448215484619e-01 5.227401256561279297e-01
-1.143776029348373413e-01 2.370331883430480957e-01 -2.697638571262359619e-01
-1.124488860368728638e-01 3.629244565963745117e-01 -1.778691112995147705e-01
-8.510304987430572510e-02 3.562487661838531494e-01 1.378674525767564774e-02
-3.932559490203857422e-01 3.640177845954895020e-01 -6.589726358652114868e-02
-5.013661980628967285e-01 1.648502647876739502e-01 -1.270358823239803314e-02
-4.078180193901062012e-01 3.474249243736267090e-01 1.441251188516616821e-01
-2.143889665603637695e-01 2.102176249027252197e-01 -4.567741751670837402e-01
-3.101245462894439697e-01 1.231242269277572632e-01 1.732938438653945923e-01
-4.765514135360717773e-01 1.429359912872314453e-01 -8.846297860145568848e-02
-1.930057704448699951e-01 2.062713354825973511e-01 4.156254827976226807e-01
-2.740222513675689697e-01 1.210396289825439453e-01 -3.673904761672019958e-02
-3.629733324050903320e-01 1.312605589628219604e-01 2.469066232442855835e-01
-1.618138998746871948e-01 3.944671750068664551e-01 -7.665961235761642456e-02
-3.284766077995300293e-01 1.779548227787017822e-01 4.372174441814422607e-01
-5.087623596191406250e-01 2.079134136438369751e-01 -2.138520777225494385e-01
-4.385845661163330078e-01 1.972932070493698120e-01 3.576928973197937012e-01
-1.176014095544815063e-01 2.001543045043945312e-01 1.132670342922210693e-01
-3.709310591220855713e-01 3.728891313076019287e-01 3.917957842350006104e-02
-6.330581009387969971e-02 3.117820024490356445e-01 -2.874583564698696136e-02
-1.217684149742126465e-01 2.014242261648178101e-01 -1.383742094039916992e-01
-4.144615232944488525e-01 2.583831548690795898e-01 -4.846877157688140869e-01
-3.259688019752502441e-01 3.084141016006469727e-01 4.665559828281402588e-01
-2.955861091613769531e-01 1.176972687244415283e-01 -7.813952118158340454e-02
-5.168492197990417480e-01 2.025022804737091064e-01 -1.243257150053977966e-01
-1.016166806221008301e-01 3.698852658271789551e-01 4.832279682159423828e-02
-4.176461696624755859e-01 2.822564840316772461e-01 3.772699832916259766e-01
-2.122595906257629395e-01 3.819379806518554688e-01 -2.837603390216827393e-01
-3.252351880073547363e-01 3.493133783340454102e-01 -4.031935334205627441e-01
-1.688062846660614014e-01 3.790452182292938232e-01 2.488016635179519653e-01
-3.762008845806121826e-01 1.742587089538574219e-01 4.039834141731262207e-01
-5.084429383277893066e-01 2.387261539697647095e-01 -2.029927223920822144e-01
-2.726195156574249268e-01 2.509544789791107178e-01 5.287624001502990723e-01
-2.967146635055541992e-01 1.179147958755493164e-01 6.623638421297073364e-02
-3.704780340194702148e-01 3.528519570827484131e-01 -3.111349046230316162e-01
-4.859851896762847900e-01 2.115114331245422363e-01 2.373517006635665894e-01
-1.519785076379776001e-01 3.880746662616729736e-01 1.381933242082595825e-01
-2.258382588624954224e-01 3.202694654464721680e-01 -4.891687333583831787e-01
-1.828705072402954102e-01 2.998584806919097900e-01 -4.709684848785400391e-01
-3.152372837066650391e-01 1.218173205852508545e-01 -1.948492228984832764e-01
-9.898601472377777100e-02 2.475453168153762817e-01 2.603278756141662598e-01
-2.573442757129669189e-01 1.324419677257537842e-01 1.686597466468811035e-01
-4.502767920494079590e-01 3.248602449893951416e-01 -1.602395027875900269e-01
-4.678456187248229980e-01 1.389871835708618164e-01 3.707057610154151917e-02
-3.022113442420959473e-01 1.201442182064056396e-01 1.244662702083587646e-01
-4.651886522769927979e-01 1.413567662239074707e-01 -1.667840033769607544e-01
-3.345381915569305420e-01 2.454143911600112915e-01 -5.558506250381469727e-01
-1.747092306613922119e-01 3.497484922409057617e-01 3.782489001750946045e-01
-1.238489747047424316e-01 3.711390495300292969e-01 -1.737600415945053101e-01
-2.266194373369216919e-01 3.951969742774963379e-01 -1.872431337833404541e-01
-3.692947626113891602e-01 3.374133408069610596e-01 -3.877763748168945312e-01
-9.564162790775299072e-02 2.727491855621337891e-01 -2.604534924030303955e-01
-1.699291765689849854e-01 1.730336844921112061e-01 -2.032282650470733643e-01
-1.181216984987258911e-01 3.773088157176971436e-01 -8.420857042074203491e-02
-4.352140724658966064e-01 2.219366878271102905e-01 3.835219442844390869e-01
-2.542917728424072266e-01 3.843247592449188232e-01 2.498004585504531860e-01
-2.357975393533706665e-01 2.271113097667694092e-01 -5.101829767227172852e-01
-8.566206693649291992e-02 2.313383817672729492e-01 1.576357334852218628e-02
-2.299435138702392578e-01 4.027097821235656738e-01 -5.483894795179367065e-02
-4.489610791206359863e-01 3.303294777870178223e-01 -2.239620685577392578e-02
-5.122255682945251465e-01 1.993667185306549072e-01 -1.724082380533218384e-01
-2.855401039123535156e-01 1.883319020271301270e-01 -4.832151234149932861e-01
-4.513104557991027832e-01 1.308512836694717407e-01 4.269134625792503357e-02
-3.482723534107208252e-01 1.976601183414459229e-01 -5.130527019500732422e-01
-2.306288778781890869e-01 2.175163030624389648e-01 4.822791516780853271e-01
-4.802324771881103516e-01 3.011544942855834961e-01 8.245746605098247528e-03
-4.783950448036193848e-01 1.517348289489746094e-01 9.732320159673690796e-02
-2.314535975456237793e-01 1.340556740760803223e-01 6.835895776748657227e-02
-2.882891297340393066e-01 3.762863576412200928e-01 -3.083806633949279785e-01
-3.160242736339569092e-01 2.428075075149536133e-01 -5.582900643348693848e-01
-1.312574446201324463e-01 3.085033893585205078e-01 3.898287117481231689e-01
-9.077350795269012451e-02 3.581235110759735107e-01 -7.228104025125503540e-02
-1.807792782783508301e-01 1.603877991437911987e-01 -1.433800756931304932e-01
-4.359848499298095703e-01 2.477668523788452148e-01 -4.549019336700439453e-01
-4.096153080463409424e-01 3.443356454372406006e-01 1.617768704891204834e-01
-5.151044130325317383e-01 2.427854984998703003e-01 6.048158742487430573e-03
-2.379426509141921997e-01 1.369007229804992676e-01 -1.611477285623550415e-01
-2.591372728347778320e-01 1.335009187459945679e-01 -1.976320147514343262e-01
-3.023882210254669189e-01 1.453023850917816162e-01 3.213094472885131836e-01
-2.834364473819732666e-01 2.244033068418502808e-01 5.139852166175842285e-01
-8.348025381565093994e-02 2.345618456602096558e-01 3.304073587059974670e-02
-4.991944432258605957e-01 1.807592660188674927e-01 1.218832433223724365e-01
-1.702495217323303223e-01 2.138710170984268188e-01 -3.822464346885681152e-01
-1.073569655418395996e-01 3.524318337440490723e-01 -2.087596952915191650e-01
-1.011555343866348267e-01 2.632485926151275635e-01 3.013336956501007080e-01
-2.795164287090301514e-01 3.777115046977996826e-01 2.719122469425201416e-01
-2.544135451316833496e-01 3.940768241882324219e-01 -1.938391476869583130e-01
-1.223416626453399658e-01 2.175082564353942871e-01 2.628859579563140869e-01
-1.544775813817977905e-01 2.774259150028228760e-01 -4.314107894897460938e-01
-3.363550007343292236e-01 1.258479058742523193e-01 2.140191197395324707e-01
-3.106783032417297363e-01 1.462688446044921875e-01 3.296331465244293213e-01
-2.550334334373474121e-01 2.030539810657501221e-01 -4.906089901924133301e-01
-2.495648860931396484e-01 2.152799963951110840e-01 4.920013844966888428e-01
-1.394398659467697144e-01 3.730062544345855713e-01 2.261162549257278442e-01
-3.899263441562652588e-01 2.634103894233703613e-01 -5.134104490280151367e-01
-1.874312311410903931e-01 3.107885420322418213e-01 4.659746587276458740e-01
-2.395543158054351807e-01 2.595977485179901123e-01 -5.368144512176513672e-01
-1.104612797498703003e-01 2.112159132957458496e-01 1.574512869119644165e-01
-2.384072840213775635e-01 3.163789808750152588e-01 4.844809770584106445e-01
-1.694840937852859497e-01 1.656502783298492432e-01 1.440138816833496094e-01
-5.066199302673339844e-01 2.454050928354263306e-01 1.031336039304733276e-01
-1.589042991399765015e-01 3.325006365776062012e-01 4.011209905147552490e-01
-1.219921857118606567e-01 3.608841896057128906e-01 2.422946840524673462e-01
-5.140573978424072266e-01 2.349225878715515137e-01 -1.561344563961029053e-01
-3.796725571155548096e-01 3.504312336444854736e-01 -3.013311922550201416e-01
-2.106671482324600220e-01 3.451999425888061523e-01 4.169860780239105225e-01
-1.465083807706832886e-01 3.806349635124206543e-01 1.923335790634155273e-01
-2.561032176017761230e-01 3.730804324150085449e-01 -3.421657681465148926e-01
-9.995068609714508057e-02 2.216033786535263062e-01 -1.154073029756546021e-01
-4.997434020042419434e-01 1.623559743165969849e-01 -3.111409023404121399e-02
-3.646623194217681885e-01 2.493701875209808350e-01 -5.416926145553588867e-01
-5.113900303840637207e-01 1.844865083694458008e-01 2.526723966002464294e-02
-3.511148393154144287e-01 3.810574114322662354e-01 -7.640105485916137695e-02
-6.214389204978942871e-02 3.062362074851989746e-01 5.507484823465347290e-02
-3.167752027511596680e-01 3.900978863239288330e-01 5.983823537826538086e-02
-2.096218168735504150e-01 1.411969363689422607e-01 2.690657600760459900e-02
-4.383906126022338867e-01 1.768317967653274536e-01 3.227208852767944336e-01
-1.669073998928070068e-01 3.442735970020294189e-01 -3.808426558971405029e-01
-4.207194447517395020e-01 1.516062915325164795e-01 2.801206707954406738e-01
-4.718449413776397705e-01 1.953159123659133911e-01 -3.561700284481048584e-01
-4.174749851226806641e-01 2.170533388853073120e-01 4.138072729110717773e-01
-4.625863730907440186e-01 1.694407761096954346e-01 2.434782534837722778e-01
-4.378989338874816895e-01 3.331933021545410156e-01 8.769270032644271851e-02
-1.210170239210128784e-01 3.431055247783660889e-01 -2.869116365909576416e-01
-4.189333915710449219e-01 3.226927518844604492e-01 -3.314020335674285889e-01
-4.406998157501220703e-01 1.966357976198196411e-01 -4.277242124080657959e-01
-2.697843313217163086e-01 3.620052933692932129e-01 -3.891610801219940186e-01
-2.256858944892883301e-01 4.008488357067108154e-01 8.816412091255187988e-02
-2.056775987148284912e-01 1.472567915916442871e-01 1.348658502101898193e-01
-5.002059936523437500e-01 2.747527360916137695e-01 -1.130442172288894653e-01
-4.354554414749145508e-01 1.425466537475585938e-01 -2.771333456039428711e-01
-1.673377007246017456e-01 2.219172418117523193e-01 4.059659540653228760e-01
-2.400919348001480103e-01 3.590723872184753418e-01 -4.001914262771606445e-01
-4.916985630989074707e-01 2.577455341815948486e-01 -2.694760859012603760e-01
-2.746278047561645508e-01 1.325886249542236328e-01 2.102491855621337891e-01
-3.891805410385131836e-01 3.437577486038208008e-01 -3.135836720466613770e-01
-2.672898471355438232e-01 1.242145150899887085e-01 -9.412515908479690552e-02
-3.764701485633850098e-01 2.980258166790008545e-01 -4.858636856079101562e-01
-2.461787462234497070e-01 2.426024526357650757e-01 -5.339860916137695312e-01
-2.848657965660095215e-01 1.836162209510803223e-01 -4.715276956558227539e-01
-4.141085147857666016e-01 1.449585556983947754e-01 -3.265599906444549561e-01
-5.075834989547729492e-01 1.748342514038085938e-01 4.749148152768611908e-03
-3.689745068550109863e-01 3.703011870384216309e-01 1.033430770039558411e-01
-1.724668592214584351e-01 2.258374989032745361e-01 4.233701825141906738e-01
-2.096456289291381836e-01 1.469681262969970703e-01 1.528540700674057007e-01
-4.317851066589355469e-01 3.052469789981842041e-01 2.820647954940795898e-01
-3.666700124740600586e-01 1.118046641349792480e-01 -3.233972936868667603e-02
-1.688495278358459473e-01 1.688857972621917725e-01 -1.615458279848098755e-01
-3.103156089782714844e-01 1.541482359170913696e-01 -3.938889205455780029e-01
-4.207941889762878418e-01 3.469461798667907715e-01 -1.319421678781509399e-01
-2.890451848506927490e-01 1.481283009052276611e-01 3.266411721706390381e-01
-1.766610741615295410e-01 3.984801173210144043e-01 5.010758340358734131e-02
-1.427768468856811523e-01 1.876952201128005981e-01 -1.710911691188812256e-01
-2.216309905052185059e-01 1.448549926280975342e-01 1.816441267728805542e-01
-5.004225969314575195e-01 1.654216349124908447e-01 -1.097125932574272156e-01
-1.275636404752731323e-01 3.847990036010742188e-01 2.829596772789955139e-02
-3.342837095260620117e-01 3.697771131992340088e-01 2.329920083284378052e-01
-3.391863703727722168e-01 1.164217144250869751e-01 1.158544421195983887e-01
-2.435315698385238647e-01 1.296749264001846313e-01 5.197144299745559692e-02
-1.573191732168197632e-01 1.696777045726776123e-01 9.627560526132583618e-02
-3.847543895244598389e-01 3.593792319297790527e-01 -2.154937237501144409e-01
-4.432465732097625732e-01 3.150390982627868652e-01 1.954931914806365967e-01
-5.149525403976440430e-01 2.146568745374679565e-01 6.547984480857849121e-02
-4.859162569046020508e-01 2.944463491439819336e-01 -1.086084023118019104e-01
-3.914248347282409668e-01 3.185004293918609619e-01 3.464890420436859131e-01
-3.961850404739379883e-01 1.158562600612640381e-01 4.917355626821517944e-02
-1.153704524040222168e-01 2.292050123214721680e-01 2.772708535194396973e-01
-3.601751029491424561e-01 3.468140959739685059e-01 -3.643193244934082031e-01
-5.075155496597290039e-01 2.509970664978027344e-01 7.669854164123535156e-02
-1.045093238353729248e-01 3.467029035091400146e-01 2.432890087366104126e-01
-2.209237366914749146e-01 1.936743855476379395e-01 4.230328500270843506e-01
-3.635789155960083008e-01 3.069215714931488037e-01 4.263178408145904541e-01
-4.529999494552612305e-01 3.064115941524505615e-01 1.935650259256362915e-01
-2.038043439388275146e-01 1.562543362379074097e-01 -2.162667810916900635e-01
-4.675975441932678223e-01 1.404042840003967285e-01 -1.402927190065383911e-01
-4.965402781963348389e-01 1.586935520172119141e-01 -5.116510763764381409e-02
-4.886379241943359375e-01 2.920756936073303223e-01 -7.126112468540668488e-03
-2.364992797374725342e-01 1.365876495838165283e-01 1.451606452465057373e-01
-2.894774973392486572e-01 1.508223712444305420e-01 3.396413028240203857e-01
-1.476827412843704224e-01 3.078696429729461670e-01 4.202483296394348145e-01
-2.213216572999954224e-01 4.026653170585632324e-01 3.686972334980964661e-02
-4.585066139698028564e-01 2.984150648117065430e-01 -2.919119894504547119e-01
-1.513962745666503906e-01 1.717591732740402222e-01 5.431890487670898438e-02
-2.629668712615966797e-01 1.781817674636840820e-01 -4.378688931465148926e-01
-1.005547642707824707e-01 3.070495128631591797e-01 3.118901252746582031e-01
-4.125485718250274658e-01 1.509138047695159912e-01 -3.543074131011962891e-01
-5.075583457946777344e-01 2.512162923812866211e-01 -1.756513565778732300e-01
-1.312203705310821533e-01 3.655778765678405762e-01 -2.318900972604751587e-01
-1.413425803184509277e-01 3.350884020328521729e-01 -3.560101091861724854e-01
-9.160399436950683594e-02 2.646826207637786865e-01 -2.302590608596801758e-01
-1.372662186622619629e-01 1.904067993164062500e-01 1.808604896068572998e-01
-4.279847741127014160e-01 1.506762802600860596e-01 -3.307856619358062744e-01
-1.552613973617553711e-01 3.430244922637939453e-01 -3.647800683975219727e-01
-1.500373184680938721e-01 3.768315315246582031e-01 2.278527468442916870e-01
-1.910227686166763306e-01 1.493698060512542725e-01 2.739172428846359253e-02
-4.854044914245605469e-01 1.520066559314727783e-01 4.442654177546501160e-02
-9.976975619792938232e-02 3.668992817401885986e-01 8.352370560169219971e-02
-3.814064860343933105e-01 3.671854734420776367e-01 -1.325982660055160522e-01
-2.410201877355575562e-01 3.967253863811492920e-01 1.459989845752716064e-01
-3.256547451019287109e-01 3.323034644126892090e-01 -4.588290154933929443e-01
-1.624517589807510376e-01 3.609232306480407715e-01 3.264788389205932617e-01
-3.751139044761657715e-01 3.662953972816467285e-01 -1.861619949340820312e-01
-1.246160864830017090e-01 3.484941720962524414e-01 2.980772256851196289e-01
-5.082721710205078125e-01 1.977248191833496094e-01 1.048715785145759583e-01
-3.187969326972961426e-01 3.908351063728332520e-01 -6.661227345466613770e-02
-5.037174224853515625e-01 2.493761181831359863e-01 -2.150606662034988403e-01
-7.873232662677764893e-02 2.620887458324432373e-01 -1.443842202425003052e-01
-3.625278472900390625e-01 3.616220355033874512e-01 -2.750195860862731934e-01
-1.526026427745819092e-01 1.715739071369171143e-01 -5.333266407251358032e-02
-2.713002860546112061e-01 1.319159716367721558e-01 1.976647377014160156e-01
-1.279876381158828735e-01 1.969255059957504272e-01 -1.475504934787750244e-01
-3.585117161273956299e-01 1.563713550567626953e-01 3.650632500648498535e-01
-3.045037090778350830e-01 1.797809600830078125e-01 -4.728282988071441650e-01
-4.495386779308319092e-01 1.297054588794708252e-01 -1.090594679117202759e-01
-4.441240429878234863e-01 3.277842104434967041e-01 9.608428925275802612e-02
-4.423664212226867676e-01 3.231265544891357422e-01 1.491468995809555054e-01
-3.304346501827239990e-01 3.742806911468505859e-01 2.085615247488021851e-01
-1.169454902410507202e-01 2.036161869764328003e-01 1.457127183675765991e-01
-1.899201273918151855e-01 4.000293910503387451e-01 -6.806635111570358276e-02
-2.721959352493286133e-01 3.086460232734680176e-01 4.952031075954437256e-01
-4.531932771205902100e-01 1.709135174751281738e-01 2.739277184009552002e-01
-5.046888589859008789e-01 1.698252856731414795e-01 -9.155958145856857300e-02
-2.958821356296539307e-01 1.287217438220977783e-01 -2.335585206747055054e-01
-4.233697056770324707e-01 1.243595629930496216e-01 -1.607423275709152222e-01
-1.526837199926376343e-01 1.848658919334411621e-01 2.233970165252685547e-01
-4.121598005294799805e-01 1.388733983039855957e-01 -2.984311580657958984e-01
-2.296354621648788452e-01 1.845092177391052246e-01 4.075748324394226074e-01
-4.344896674156188965e-01 3.259588479995727539e-01 1.726950258016586304e-01
-5.038828849792480469e-01 1.796824187040328979e-01 8.301819115877151489e-02
-4.707444608211517334e-01 2.923752367496490479e-01 1.683119684457778931e-01
-2.342093288898468018e-01 1.737185865640640259e-01 3.771736025810241699e-01
-4.366667270660400391e-01 3.391729295253753662e-01 -2.041648142039775848e-02
-2.894445061683654785e-01 3.958021998405456543e-01 6.637129187583923340e-02
-1.954467594623565674e-01 3.957724571228027344e-01 -1.540670543909072876e-01
-1.304003745317459106e-01 3.390648066997528076e-01 3.379937708377838135e-01
-2.107089906930923462e-01 1.908819973468780518e-01 -4.017972648143768311e-01
-4.742887318134307861e-01 2.965897917747497559e-01 -2.143805772066116333e-01
-3.709683120250701904e-01 2.092780321836471558e-01 -5.192801356315612793e-01
-1.696859002113342285e-01 2.999316155910491943e-01 4.577288925647735596e-01
-2.569290101528167725e-01 3.888286054134368896e-01 -2.419661879539489746e-01
-2.674237489700317383e-01 3.989571630954742432e-01 7.103194296360015869e-02
-2.429748326539993286e-01 1.522236913442611694e-01 2.916677296161651611e-01
-2.249924242496490479e-01 1.352887749671936035e-01 2.568373084068298340e-02
-2.338222712278366089e-01 2.095105201005935669e-01 -4.808621704578399658e-01
-1.875864863395690918e-01 1.556250154972076416e-01 -1.281915456056594849e-01
-4.808249473571777344e-01 1.587005704641342163e-01 1.292668431997299194e-01
-4.782826304435729980e-01 1.530495136976242065e-01 -1.923332363367080688e-01
-3.335853517055511475e-01 1.123429238796234131e-01 -3.373396769165992737e-02
-1.393652707338333130e-01 2.257505357265472412e-01 3.491368293762207031e-01
-2.010263800621032715e-01 2.921562790870666504e-01 4.933681190013885498e-01
-5.201242566108703613e-01 2.124893665313720703e-01 -4.286273196339607239e-02
-2.938567101955413818e-01 3.777947425842285156e-01 -2.931989431381225586e-01
-1.666791886091232300e-01 1.625891774892807007e-01 -4.201878607273101807e-02
-4.915926158428192139e-01 1.616661995649337769e-01 7.851754873991012573e-02
-5.061760544776916504e-01 1.976678222417831421e-01 1.202081739902496338e-01
-3.395614624023437500e-01 3.825739026069641113e-01 -1.347552537918090820e-01
-1.059292405843734741e-01 3.264983296394348145e-01 -2.781526446342468262e-01
-1.963318586349487305e-01 2.361032366752624512e-01 4.735929667949676514e-01
-1.549678444862365723e-01 3.926976323127746582e-01 7.985404878854751587e-02
-1.191840320825576782e-01 1.954074203968048096e-01 -1.109097525477409363e-02
-1.428661793470382690e-01 3.906489014625549316e-01 2.883664518594741821e-02
-3.245493173599243164e-01 3.835384845733642578e-01 1.346614658832550049e-01
-3.789806962013244629e-01 1.326116025447845459e-01 2.437707632780075073e-01
-1.784936040639877319e-01 1.641496121883392334e-01 1.816246956586837769e-01
-3.374766707420349121e-01 3.476101756095886230e-01 -3.957292437553405762e-01
-1.399525254964828491e-01 2.667588591575622559e-01 4.129045307636260986e-01
-3.501021265983581543e-01 3.716689050197601318e-01 -2.296862006187438965e-01
-1.376116722822189331e-01 3.817692995071411133e-01 -1.428648829460144043e-01
-3.717729449272155762e-01 2.074537873268127441e-01 4.631263315677642822e-01
-3.718884587287902832e-01 1.489402055740356445e-01 3.293064534664154053e-01
-1.458214223384857178e-01 1.984623223543167114e-01 -2.528477311134338379e-01
-4.349185526371002197e-01 3.393055498600006104e-01 2.106784656643867493e-02
-1.170109361410140991e-01 3.245646357536315918e-01 3.369652032852172852e-01
-1.487105190753936768e-01 3.211113214492797852e-01 -3.949764370918273926e-01
-3.294051587581634521e-01 3.562022745609283447e-01 -3.692227602005004883e-01
-9.444689750671386719e-02 3.362932205200195312e-01 -2.106845974922180176e-01
-3.232603073120117188e-01 1.270179748535156250e-01 2.189866751432418823e-01
-3.536761999130249023e-01 3.533005118370056152e-01 2.879087030887603760e-01
-2.578577697277069092e-01 3.542262911796569824e-01 -4.192073643207550049e-01
-4.607705175876617432e-01 2.664508521556854248e-01 -3.747314810752868652e-01
-2.318877875804901123e-01 1.600305140018463135e-01 3.141948878765106201e-01
-1.589050740003585815e-01 3.742489814758300781e-01 -2.562176585197448730e-01
-1.559944003820419312e-01 1.714624762535095215e-01 -9.492587298154830933e-02
-2.498061358928680420e-01 3.783606588840484619e-01 2.895870804786682129e-01
-3.865674436092376709e-01 3.496775031089782715e-01 -2.856267988681793213e-01
-3.103887438774108887e-01 3.663298189640045166e-01 -3.424846231937408447e-01
-2.912645936012268066e-01 2.927299141883850098e-01 5.097221136093139648e-01
-4.028708934783935547e-01 2.050777077674865723e-01 4.260171353816986084e-01
-1.309804022312164307e-01 2.178651094436645508e-01 -2.752963602542877197e-01
-2.641384303569793701e-01 1.416234970092773438e-01 -2.763290405273437500e-01
-4.152935147285461426e-01 1.781045794486999512e-01 3.666292130947113037e-01
-1.562009155750274658e-01 2.287346124649047852e-01 -3.828439116477966309e-01
-5.104175806045532227e-01 1.814681440591812134e-01 -1.153151318430900574e-01
-4.810352027416229248e-01 2.416999787092208862e-01 -3.412080705165863037e-01
-4.992567300796508789e-01 1.629853248596191406e-01 2.041538245975971222e-03
-4.423409998416900635e-01 2.961567044258117676e-01 -3.592693209648132324e-01
-1.388734728097915649e-01 2.493053227663040161e-01 -3.746926486492156982e-01
-2.672914266586303711e-01 1.700437813997268677e-01 -4.164209067821502686e-01
-1.992996633052825928e-01 1.654112637042999268e-01 2.696468830108642578e-01
-5.143797397613525391e-01 2.045359462499618530e-01 -1.611558645963668823e-01
-4.565294384956359863e-01 3.226408064365386963e-01 2.952279895544052124e-02
-4.112703502178192139e-01 2.463644146919250488e-01 -4.956261515617370605e-01
-5.117483139038085938e-01 1.836142987012863159e-01 1.252749096602201462e-02
-4.541121125221252441e-01 1.328068971633911133e-01 -1.297245323657989502e-01
-4.381486773490905762e-01 1.466218829154968262e-01 -2.927679419517517090e-01
-2.485554814338684082e-01 3.970360159873962402e-01 1.360220909118652344e-01
-4.615530073642730713e-01 2.527635991573333740e-01 3.063496649265289307e-01
-3.133445978164672852e-01 3.316064476966857910e-01 4.264487922191619873e-01
-1.128378659486770630e-01 2.485431283712387085e-01 -2.913969159126281738e-01
-1.497663706541061401e-01 3.811090886592864990e-01 -1.904755830764770508e-01
-4.180174469947814941e-01 1.751500666141510010e-01 -4.224258959293365479e-01
-2.503807246685028076e-01 1.666188538074493408e-01 -3.822666108608245850e-01
-2.963929474353790283e-01 1.530278027057647705e-01 3.534573018550872803e-01
-4.302178025245666504e-01 3.280422687530517578e-01 -2.604951262474060059e-01
-1.420053541660308838e-01 3.699445724487304688e-01 -2.398285865783691406e-01
-2.398102283477783203e-01 3.867060542106628418e-01 2.396981269121170044e-01
-4.473215639591217041e-01 2.427048087120056152e-01 3.542287945747375488e-01
-1.125987321138381958e-01 2.453200370073318481e-01 3.109687864780426025e-01
-3.997180461883544922e-01 1.310360878705978394e-01 -2.667182385921478271e-01
-2.749945819377899170e-01 3.801499605178833008e-01 2.610026299953460693e-01
-3.243240714073181152e-01 3.897991180419921875e-01 -3.437787294387817383e-02
-1.332584619522094727e-01 2.089189887046813965e-01 2.717588841915130615e-01
-2.956549227237701416e-01 3.648713231086730957e-01 3.244739472866058350e-01
-2.264884114265441895e-01 4.030652642250061035e-01 -3.471829742193222046e-02
-4.626903533935546875e-01 3.125098943710327148e-01 9.082360565662384033e-02
-1.693344563245773315e-01 2.006499171257019043e-01 3.524200320243835449e-01
-2.891407012939453125e-01 1.192898005247116089e-01 -9.054563939571380615e-02
-1.895146220922470093e-01 4.008821249008178711e-01 2.350423857569694519e-02
-4.527257680892944336e-01 2.678793668746948242e-01 3.117540776729583740e-01
-2.888503670692443848e-01 2.895973324775695801e-01 -5.458284616470336914e-01
-3.369024395942687988e-01 3.851232230663299561e-01 -9.410713613033294678e-02
-2.354564368724822998e-01 3.889836370944976807e-01 -2.450103908777236938e-01
-4.746633172035217285e-01 1.672699451446533203e-01 -2.795287668704986572e-01
-2.637343406677246094e-01 1.393630951642990112e-01 2.449728101491928101e-01
-2.596291303634643555e-01 3.223859071731567383e-01 -4.994231164455413818e-01
-1.231601685285568237e-01 2.255747020244598389e-01 2.960844635963439941e-01
-3.792244791984558105e-01 3.632979393005371094e-01 1.344171315431594849e-01
-4.238876700401306152e-01 3.464504480361938477e-01 -1.015653535723686218e-01
-3.713398277759552002e-01 1.754265129566192627e-01 -4.621752202510833740e-01
-2.597596347332000732e-01 2.763975262641906738e-01 -5.474886894226074219e-01
-3.233644366264343262e-01 3.645253777503967285e-01 -3.357116281986236572e-01
-4.279403686523437500e-01 3.431467413902282715e-01 3.958871215581893921e-02
-4.201070070266723633e-01 2.403956502676010132e-01 4.130567610263824463e-01
-1.415265500545501709e-01 3.874521255493164062e-01 -9.184347838163375854e-02
-5.158537626266479492e-01 2.315504997968673706e-01 3.897602856159210205e-02
-9.036099910736083984e-02 2.374221682548522949e-01 -1.345196366310119629e-01
-2.828407883644104004e-01 1.288745552301406860e-01 1.908631026744842529e-01
-7.200297713279724121e-02 2.668009996414184570e-01 1.363059878349304199e-01
-4.840723276138305664e-01 1.595452725887298584e-01 1.159282326698303223e-01
-4.335858821868896484e-01 1.282744407653808594e-01 -1.725203990936279297e-01
-1.536119431257247925e-01 3.694940805435180664e-01 -2.694919109344482422e-01
-5.174624919891357422e-01 2.357086837291717529e-01 -9.431564249098300934e-03
-9.418524801731109619e-02 3.459652662277221680e-01 -1.753325015306472778e-01
-2.091776132583618164e-01 3.953473865985870361e-01 1.622810959815979004e-01
-2.154141962528228760e-01 4.012035131454467773e-01 -9.326051920652389526e-02
-3.899087905883789062e-01 1.239368021488189697e-01 -2.226280719041824341e-01
-8.825370669364929199e-02 3.022927641868591309e-01 -2.377932220697402954e-01
-3.063884079456329346e-01 3.770395219326019287e-01 -2.824948430061340332e-01
-1.024556308984756470e-01 3.710379302501678467e-01 1.465309690684080124e-02
-2.476267665624618530e-01 1.758855283260345459e-01 -4.121986925601959229e-01
-3.884283900260925293e-01 1.810384392738342285e-01 4.071049690246582031e-01
-1.451315581798553467e-01 1.815491765737533569e-01 -1.301665455102920532e-01
-4.760277271270751953e-01 2.643678486347198486e-01 2.351619154214859009e-01
-3.483449220657348633e-01 1.254464238882064819e-01 -2.519342303276062012e-01
-8.656652271747589111e-02 3.460427224636077881e-01 -1.286051869392395020e-01
-4.145442545413970947e-01 3.508666157722473145e-01 5.022397637367248535e-02
-4.840478301048278809e-01 1.968613117933273315e-01 2.306993603706359863e-01
-1.183912605047225952e-01 1.993151307106018066e-01 -8.294388651847839355e-02
-4.362893700599670410e-01 3.056544661521911621e-01 2.654604911804199219e-01
-2.966442704200744629e-01 1.310832798480987549e-01 -2.542722821235656738e-01
-4.393095970153808594e-01 1.799845397472381592e-01 -4.013471603393554688e-01
-4.970050752162933350e-01 2.657904624938964844e-01 1.120893210172653198e-01
-4.047040343284606934e-01 1.393016278743743896e-01 2.504304051399230957e-01
-9.403699636459350586e-02 2.972893714904785156e-01 -2.644151151180267334e-01
-5.179772377014160156e-01 2.129810154438018799e-01 2.415655180811882019e-02
-2.744378745555877686e-01 1.405628025531768799e-01 2.696368694305419922e-01
-1.069709807634353638e-01 3.691376447677612305e-01 1.205789744853973389e-01
-2.287392467260360718e-01 3.834859132766723633e-01 -2.822736799716949463e-01
-4.135917723178863525e-01 1.305015683174133301e-01 -2.425820529460906982e-01
-5.186284780502319336e-01 2.127595841884613037e-01 -1.132117807865142822e-01
-3.908383846282958984e-01 2.935687601566314697e-01 4.094817936420440674e-01
-4.506716430187225342e-01 3.230551779270172119e-01 -1.772912591695785522e-01
-1.054635792970657349e-01 3.729133307933807373e-01 3.093044459819793701e-02
-3.218294084072113037e-01 1.827579438686370850e-01 -4.853225946426391602e-01
-3.578064739704132080e-01 3.791390955448150635e-01 -4.945097491145133972e-02
-1.184377670288085938e-01 2.134796977043151855e-01 2.249910682439804077e-01
-1.776394844055175781e-01 2.099323272705078125e-01 3.977470397949218750e-01
-1.711831092834472656e-01 1.844217777252197266e-01 -2.783321738243103027e-01
-8.235231041908264160e-02 2.390113770961761475e-01 8.944126218557357788e-02
-2.871402800083160400e-01 1.305809915065765381e-01 2.134345173835754395e-01
-7.530155777931213379e-02 3.185220062732696533e-01 1.826911419630050659e-01
-2.811930477619171143e-01 2.989151179790496826e-01 5.058984756469726562e-01
-3.078338205814361572e-01 1.175240725278854370e-01 9.269621968269348145e-02
-3.773238062858581543e-01 1.195861250162124634e-01 -1.910903006792068481e-01
-1.100492328405380249e-01 3.679446280002593994e-01 1.513247638940811157e-01
-1.583602577447891235e-01 3.656045496463775635e-01 -2.965514361858367920e-01
-1.099933087825775146e-01 3.636759817600250244e-01 -1.617955118417739868e-01
-2.235151827335357666e-01 4.000572562217712402e-01 1.031478345394134521e-01
-1.986281871795654297e-01 3.668611645698547363e-01 -3.468958139419555664e-01
-4.038380384445190430e-01 3.518668115139007568e-01 -1.956089287996292114e-01
-4.330247342586517334e-01 3.144371509552001953e-01 -3.218995928764343262e-01
-3.946205675601959229e-01 3.092181384563446045e-01 3.667814135551452637e-01
-1.361685097217559814e-01 2.111723423004150391e-01 2.923019528388977051e-01
-1.309693008661270142e-01 1.997299492359161377e-01 -1.877486705780029297e-01
-3.341609835624694824e-01 3.832752704620361328e-01 9.780798107385635376e-02
-3.703501522541046143e-01 1.134406030178070068e-01 -1.007471084594726562e-01
