-1.357093304395675659e-01 8.297039195895195007e-03 1.527814008295536041e-02
-1.389921307563781738e-01 -5.606970936059951782e-02 -1.134342327713966370e-02
-1.435333043336868286e-01 -8.595259487628936768e-02 -6.964322645217180252e-03
-1.506018936634063721e-01 -6.507814861834049225e-03 1.402785908430814743e-02
-7.817566394805908203e-02 -9.386681020259857178e-02 9.010160341858863831e-03
-1.213752254843711853e-01 -8.017978072166442871e-02 -9.933382272720336914e-03
-7.729950547218322754e-02 8.996361494064331055e-02 -1.294705551117658615e-02
-3.868826106190681458e-02 -2.440902590751647949e-02 1.189908478409051895e-02
-6.515787541866302490e-02 -3.504686430096626282e-02 -1.343864016234874725e-02
-4.172818735241889954e-02 -1.686127111315727234e-02 -1.232560351490974426e-02
-1.770186722278594971e-01 -6.775484234094619751e-02 -1.609677798114717007e-03
-1.131831854581832886e-01 1.069057732820510864e-01 1.122777257114648819e-02
-2.692916244268417358e-02 2.923304773867130280e-02 -1.103230193257331848e-02
-9.754944592714309692e-02 -9.843328036367893219e-03 -1.540233381092548370e-02
-9.671050310134887695e-02 -9.568639844655990601e-02 -8.134447038173675537e-03
-1.074165478348731995e-01 7.375846058130264282e-02 1.429761666804552078e-02
-1.245647743344306946e-01 9.848803281784057617e-02 1.173006929457187653e-02
-1.104360148310661316e-01 -3.679301217198371887e-02 1.509879436343908310e-02
-1.587516814470291138e-01 -5.542550981044769287e-02 -9.082926437258720398e-03
-1.660673916339874268e-01 8.677611500024795532e-02 -8.034618571400642395e-03
-1.605206280946731567e-01 4.911057278513908386e-02 1.228804234415292740e-02
-1.917289197444915771e-01 5.513072013854980469e-03 -5.627879407256841660e-03
-1.075633242726325989e-01 1.012240126729011536e-01 -1.223078090697526932e-02
-9.117518365383148193e-02 8.741694688796997070e-02 1.325228344649076462e-02
-7.989089190959930420e-02 1.313281655311584473e-01 6.827365607023239136e-03
-1.490667462348937988e-01 1.189491339027881622e-02 1.431803312152624130e-02
-7.007957994937896729e-02 -2.281638979911804199e-02 1.483953744173049927e-02
-3.999040648341178894e-02 -5.483749508857727051e-02 -9.351827204227447510e-03
-2.194786071777343750e-02 2.610717713832855225e-02 -1.017969660460948944e-02
-1.016650870442390442e-01 6.227540783584117889e-03 1.621830835938453674e-02
-1.205270811915397644e-01 1.097732335329055786e-01 1.058408804237842560e-02
-5.163863301277160645e-03 7.229818962514400482e-03 -5.380748771131038666e-03
-2.439297735691070557e-02 8.161883801221847534e-02 6.739165633916854858e-03
-1.328341364860534668e-01 5.546033009886741638e-02 -1.410864852368831635e-02
-1.819525063037872314e-01 -5.266217142343521118e-02 5.108322948217391968e-03
-1.123806983232498169e-01 -1.025069430470466614e-01 7.926686666905879974e-03
-2.980566024780273438e-02 9.962999820709228516e-02 -5.966291297227144241e-03
-1.393437981605529785e-01 1.919371634721755981e-02 -1.433653291314840317e-02
-1.019655615091323853e-01 -6.227470189332962036e-02 1.354024000465869904e-02
-1.830582916736602783e-01 -4.033206030726432800e-02 -5.218151956796646118e-03
-1.094761714339256287e-01 8.306542038917541504e-02 1.361928600817918777e-02
-1.002598330378532410e-01 -2.020789310336112976e-02 1.578454487025737762e-02
-1.807457208633422852e-01 -6.309217959642410278e-02 -5.144462338648736477e-04
-8.962211757898330688e-02 3.719635680317878723e-02 1.578676328063011169e-02
-1.309300363063812256e-01 3.170872107148170471e-02 1.531800441443920135e-02
-8.611214905977249146e-02 1.466483026742935181e-01 -1.582654658704996109e-03
-3.879268467426300049e-02 -8.481778204441070557e-02 4.210920073091983795e-03
-6.948640197515487671e-02 1.280412822961807251e-01 6.675075739622116089e-03
-1.323419511318206787e-01 -7.265562564134597778e-02 -1.016033254563808441e-02
-1.075519323348999023e-01 -6.996013969182968140e-02 -1.163248997181653976e-02
-1.808125376701354980e-01 -2.520202472805976868e-02 8.773023262619972229e-03
-5.927564203739166260e-02 -3.662691265344619751e-02 -1.294648833572864532e-02
-4.622480645775794983e-02 5.790566653013229370e-02 1.240948494523763657e-02
-4.922408238053321838e-02 4.427888616919517517e-02 -1.350352447479963303e-02
-6.007278710603713989e-02 -5.518204718828201294e-02 -1.161462347954511642e-02
-1.789692342281341553e-01 7.569071650505065918e-02 6.606081966310739517e-03
-4.580456018447875977e-02 -4.847366362810134888e-02 1.133796758949756622e-02
-1.852139532566070557e-01 7.329410314559936523e-02 -3.980643115937709808e-03
-1.534241735935211182e-01 3.147372230887413025e-02 -1.299787685275077820e-02
-8.845005929470062256e-02 -7.781105488538742065e-02 -1.071271952241659164e-02
-1.951552927494049072e-01 1.546945422887802124e-04 5.160395521670579910e-03
-1.197552829980850220e-01 8.735063672065734863e-02 1.300536468625068665e-02
-1.323749274015426636e-01 -9.688921272754669189e-02 -6.121008656919002533e-03
-7.810615003108978271e-03 -1.549329329282045364e-02 5.185733083635568619e-03
-8.710824698209762573e-02 -8.468742668628692627e-02 -9.757584892213344574e-03
-8.134011179208755493e-02 4.759225621819496155e-02 -1.524076703935861588e-02
-6.404997408390045166e-02 4.269497469067573547e-03 1.502812374383211136e-02
-9.990006685256958008e-03 3.404413163661956787e-02 -7.067083381116390228e-03
-1.252843886613845825e-01 6.487201899290084839e-02 -1.414350885897874832e-02
-1.378745734691619873e-01 2.448627352714538574e-02 1.505285128951072693e-02
-1.047382578253746033e-01 8.812285214662551880e-02 -1.341565977782011032e-02
-3.993661329150199890e-02 -4.736002534627914429e-02 -1.010307669639587402e-02
-9.211610257625579834e-02 -1.375403720885515213e-02 -1.526417117565870285e-02
-1.146968454122543335e-02 -1.932074502110481262e-02 6.349923554807901382e-03
-1.390894502401351929e-01 4.013647511601448059e-02 -1.412809640169143677e-02
-2.594500035047531128e-02 -3.481131792068481445e-02 -8.810123428702354431e-03
-1.898611038923263550e-01 9.489296004176139832e-03 7.500170730054378510e-03
-1.220244988799095154e-01 -1.001264080405235291e-01 7.939038798213005066e-03
-1.033317744731903076e-01 -9.685230255126953125e-02 -7.896536961197853088e-03
-1.422054469585418701e-01 -3.139629028737545013e-03 -1.387902814894914627e-02
-1.435450166463851929e-01 8.944066613912582397e-02 1.126493513584136963e-02
-9.644520282745361328e-02 1.129916310310363770e-01 -1.103003602474927902e-02
-4.691521450877189636e-02 4.714728519320487976e-02 1.297433301806449890e-02
-1.387958228588104248e-01 9.727068990468978882e-02 -1.083907019346952438e-02
-1.779978871345520020e-01 -8.023812435567378998e-03 -9.008547291159629822e-03
-1.568366736173629761e-01 -1.019718591123819351e-02 1.332245767116546631e-02
-1.190840303897857666e-01 1.046220585703849792e-01 1.129497122019529343e-02
-1.558493822813034058e-02 3.674840927124023438e-02 8.205734193325042725e-03
-1.483751088380813599e-02 -5.382405966520309448e-02 -1.152223907411098480e-03
-1.376355439424514771e-01 -3.462885692715644836e-02 1.411874964833259583e-02
-1.572394669055938721e-01 -2.408870682120323181e-02 -1.165398862212896347e-02
-1.733896732330322266e-01 -7.283733785152435303e-02 3.571586217731237411e-03
-1.332261711359024048e-01 5.713868513703346252e-02 1.434046402573585510e-02
-8.765031397342681885e-02 -9.327066130936145782e-03 -1.533748209476470947e-02
-5.520532652735710144e-02 -7.704453915357589722e-02 9.427429176867008209e-03
-1.634577810764312744e-01 3.124845772981643677e-02 -1.178173162043094635e-02
-1.743418723344802856e-02 1.682179048657417297e-02 9.084047749638557434e-03
-1.104803234338760376e-01 2.521673031151294708e-02 -1.564867794513702393e-02
-1.217624917626380920e-01 6.923561543226242065e-02 1.423228438943624496e-02
-1.609124392271041870e-01 8.169548213481903076e-02 -9.553658775985240936e-03
-1.527649462223052979e-01 -8.437356352806091309e-02 -5.680925212800502777e-03
-1.502156257629394531e-01 -7.902745902538299561e-02 8.779309689998626709e-03
-1.168024390935897827e-01 -2.458020299673080444e-02 -1.458634622395038605e-02
-6.172718107700347900e-02 1.134000122547149658e-01 8.672484196722507477e-03
-7.156473398208618164e-02 -4.761869460344314575e-02 -1.297715026885271072e-02
-1.294481605291366577e-01 -1.095163375139236450e-01 -2.193219261243939400e-03
-6.695332378149032593e-02 1.397821772843599319e-02 -1.503309607505798340e-02
-1.851423680782318115e-01 5.575195699930191040e-02 7.005965337157249451e-03
-9.224247932434082031e-02 1.087033748626708984e-01 1.111311744898557663e-02
-7.733884453773498535e-02 1.446109563112258911e-01 8.647206122986972332e-04
-1.573741436004638672e-01 -2.257921174168586731e-02 1.287270616739988327e-02
-1.061905473470687866e-01 1.279282122850418091e-01 -8.613320067524909973e-03
-1.543791741132736206e-01 1.754736900329589844e-02 -1.298971008509397507e-02
-1.221832484006881714e-01 5.057925358414649963e-03 -1.520690042525529861e-02
-8.131030946969985962e-02 4.244734533131122589e-03 -1.548583339899778366e-02
-1.080377995967864990e-01 -3.219951689243316650e-02 -1.445294823497533798e-02
-9.233042597770690918e-02 1.382650136947631836e-01 -6.269400473684072495e-03
-1.279184371232986450e-01 -7.114007323980331421e-02 1.200792100280523300e-02
-2.397847920656204224e-02 -5.569838732481002808e-02 6.188821513205766678e-03
-7.035564631223678589e-02 6.032454967498779297e-02 1.424481626600027084e-02
-7.881991565227508545e-03 -2.234280854463577271e-02 -4.458710085600614548e-03
-8.368455618619918823e-02 3.016709908843040466e-02 -1.560791116207838058e-02
-5.769057199358940125e-02 1.192142367362976074e-01 7.118758279830217361e-03
-1.114014089107513428e-01 -2.234446629881858826e-02 1.564995199441909790e-02
-1.826078891754150391e-01 -6.290742196142673492e-03 9.230586700141429901e-03
-3.089146316051483154e-02 9.024769812822341919e-02 -7.854185067117214203e-03
-9.858782589435577393e-02 3.769949823617935181e-02 1.588383316993713379e-02
-1.264400631189346313e-01 3.304873593151569366e-03 1.571276970207691193e-02
-1.552299559116363525e-01 7.150948047637939453e-02 -1.121243461966514587e-02
-1.220396608114242554e-01 -8.160178363323211670e-02 1.109647657722234726e-02
-6.122106686234474182e-02 -5.559198558330535889e-02 1.240112166851758957e-02
-1.223495304584503174e-01 -2.944111824035644531e-02 -1.415901444852352142e-02
-1.889428198337554932e-01 1.843857578933238983e-02 7.755851838737726212e-03
-3.287732601165771484e-02 6.965687125921249390e-02 -1.031943969428539276e-02
-4.484057053923606873e-02 7.718708366155624390e-02 1.095031760632991791e-02
-1.707356423139572144e-01 2.563602849841117859e-02 1.161484606564044952e-02
-3.796822577714920044e-02 1.565908081829547882e-03 1.254851836711168289e-02
-9.918712824583053589e-02 -1.094394326210021973e-01 6.271359045058488846e-03
-1.294474452733993530e-01 -6.426113843917846680e-02 1.259680837392807007e-02
-1.384645402431488037e-01 -1.959416270256042480e-02 1.465829554945230484e-02
-3.699503839015960693e-03 2.342639863491058350e-02 4.444371908903121948e-03
-1.782010793685913086e-01 5.208674818277359009e-02 9.155303239822387695e-03
-1.147225871682167053e-01 1.187560185790061951e-01 -9.856085292994976044e-03
-4.362102597951889038e-02 -6.984289735555648804e-02 -7.979743182659149170e-03
-2.514404058456420898e-02 4.385680705308914185e-02 1.001427974551916122e-02
-1.879776716232299805e-01 1.491724979132413864e-02 -7.007725536823272705e-03
-7.488027960062026978e-02 8.840953558683395386e-02 1.260221283882856369e-02
-2.489772439002990723e-02 6.400627642869949341e-02 8.732143789529800415e-03
-1.375703066587448120e-01 1.190480068325996399e-01 -7.901925593614578247e-03
-5.135978758335113525e-02 8.905053138732910156e-02 -1.118792407214641571e-02
-1.642238199710845947e-01 4.738872498273849487e-02 -1.124606654047966003e-02
-5.262419953942298889e-02 9.566299617290496826e-03 -1.405681204050779343e-02
-7.204163074493408203e-02 -6.008528172969818115e-02 1.282321568578481674e-02
-8.745655417442321777e-03 1.805233955383300781e-02 -6.913542747497558594e-03
-8.014964312314987183e-02 1.172328293323516846e-01 9.522755630314350128e-03
-1.351526379585266113e-01 -6.358008086681365967e-02 1.228464301675558090e-02
-6.686079502105712891e-02 -3.326490521430969238e-02 1.422630157321691513e-02
-9.425143897533416748e-02 1.173723936080932617e-01 9.968040511012077332e-03
-6.088222935795783997e-02 9.527572244405746460e-02 1.096752844750881195e-02
-1.585834324359893799e-01 3.317737206816673279e-02 1.308824680745601654e-02
-7.361777126789093018e-02 -1.065971851348876953e-01 5.366072990000247955e-03
-5.316772684454917908e-02 -5.470109730958938599e-02 -1.102867536246776581e-02
-1.810999214649200439e-01 4.614043608307838440e-02 -8.090113289654254913e-03
-9.738906472921371460e-02 -8.417235314846038818e-02 -9.995483793318271637e-03
-1.741417050361633301e-01 4.362175613641738892e-02 -9.721573442220687866e-03
-1.689386367797851562e-01 4.052947461605072021e-02 1.146969385445117950e-02
-1.055347695946693420e-01 1.980708912014961243e-02 1.617718860507011414e-02
-1.723791360855102539e-01 3.023707121610641479e-02 -1.041207648813724518e-02
-1.361403763294219971e-01 1.446188613772392273e-02 -1.454941555857658386e-02
-3.877392783761024475e-02 8.011905848979949951e-02 -1.039825193583965302e-02
-2.619553357362747192e-02 2.787583507597446442e-03 -1.079277973622083664e-02
-2.759701013565063477e-02 -4.548466764390468597e-03 1.088948175311088562e-02
-8.930814266204833984e-02 2.373821660876274109e-02 -1.574660465121269226e-02
-1.589023172855377197e-01 -4.567679949104785919e-03 1.320605259388685226e-02
-6.359474360942840576e-02 9.771578013896942139e-03 -1.481719035655260086e-02
-7.821916788816452026e-02 1.119358763098716736e-01 -1.073235739022493362e-02
-6.662756204605102539e-04 1.142203155905008316e-02 2.433283021673560143e-03
-2.181840687990188599e-02 -6.615455262362957001e-03 9.740547277033329010e-03
-1.565261632204055786e-01 -7.908955961465835571e-02 -6.014166399836540222e-03
-1.188007816672325134e-01 2.912993729114532471e-02 -1.538604404777288437e-02
-9.806172549724578857e-02 7.558983564376831055e-02 1.420582644641399384e-02
-2.008133381605148315e-02 3.396174684166908264e-02 9.362778626382350922e-03
-9.090197831392288208e-02 4.756537266075611115e-03 -1.566743478178977966e-02
-7.248581200838088989e-02 8.409082889556884766e-02 -1.318364683538675308e-02
-1.564787626266479492e-01 9.515286982059478760e-02 8.971562609076499939e-03
-1.574897468090057373e-01 1.985897496342658997e-02 1.344824396073818207e-02
-1.304847002029418945e-01 1.016922369599342346e-01 -1.108235958963632584e-02
-6.516583263874053955e-02 -6.626178324222564697e-02 -1.091388706117868423e-02
-1.132332906126976013e-01 7.853589206933975220e-02 -1.388377789407968521e-02
-1.720256805419921875e-01 1.872413232922554016e-02 1.150793302804231644e-02
-1.501552015542984009e-01 1.135341227054595947e-01 -6.977953482419252396e-03
-1.021393537521362305e-01 5.824571475386619568e-02 1.517237722873687744e-02
-1.741953641176223755e-01 -5.972910672426223755e-02 6.711991038173437119e-03
-7.547564059495925903e-02 1.337759196758270264e-01 -6.566675845533609390e-03
-7.502594590187072754e-02 5.389050394296646118e-02 -1.485007815062999725e-02
-1.958263516426086426e-01 3.039458207786083221e-02 -3.504901425912976265e-03
-1.129288524389266968e-01 -7.980348914861679077e-02 1.166102662682533264e-02
-3.496014326810836792e-02 -1.083799917250871658e-02 1.188399456441402435e-02
-1.773259788751602173e-01 -1.916230842471122742e-02 -8.631683886051177979e-03
-1.112451851367950439e-01 1.002679839730262756e-01 1.203099638223648071e-02
-7.619921863079071045e-02 -3.021080791950225830e-02 1.486919727176427841e-02
-1.196471005678176880e-01 -9.111946076154708862e-02 -8.365564979612827301e-03
-1.155150905251502991e-01 -1.161506697535514832e-01 3.969667304772883654e-04
-3.347396105527877808e-02 1.159362792968750000e-01 -9.267051354981958866e-04
-2.200323343276977539e-02 -6.542123854160308838e-02 2.729058265686035156e-03
-1.301703900098800659e-01 9.267205744981765747e-02 -1.200349442660808563e-02
-1.573122143745422363e-01 -7.687143981456756592e-02 7.897766306996345520e-03
-1.153534501791000366e-01 3.952472470700740814e-03 -1.542932819575071335e-02
-1.882159709930419922e-01 -2.160683646798133850e-02 6.814549211412668228e-03
-7.638506591320037842e-02 5.609265342354774475e-02 1.473722327500581741e-02
-1.389019191265106201e-01 6.725358963012695312e-02 1.342323049902915955e-02
-1.212868466973304749e-01 9.173113107681274414e-02 -1.261086016893386841e-02
-1.107723265886306763e-01 5.599234253168106079e-02 1.519915461540222168e-02
-1.368016898632049561e-01 1.296557188034057617e-01 5.249094218015670776e-03
-8.343532681465148926e-02 1.360215395689010620e-01 -6.545811891555786133e-03
-6.282410025596618652e-02 -1.049225181341171265e-01 -2.684352919459342957e-03
-9.624378383159637451e-02 -1.147968098521232605e-01 3.980896435678005219e-03
-1.238015294075012207e-02 5.147630348801612854e-02 6.421693600714206696e-03
-7.871751487255096436e-02 -8.806700818240642548e-03 -1.514103449881076813e-02
-4.107063636183738708e-02 6.323572993278503418e-02 1.148267276585102081e-02
-1.318496465682983398e-01 -4.808202385902404785e-02 -1.253054197877645493e-02
-5.161127448081970215e-02 6.832846254110336304e-02 -1.273664459586143494e-02
-1.591559946537017822e-01 -9.233240038156509399e-02 1.549610518850386143e-03
-4.223628714680671692e-02 5.609717592597007751e-02 -1.237561274319887161e-02
-1.954281628131866455e-01 -1.145701948553323746e-02 -2.885551191866397858e-03
-4.067003354430198669e-02 3.516057878732681274e-02 -1.283080037683248520e-02
-1.312202364206314087e-01 6.286107748746871948e-02 1.416250411421060562e-02
-1.184507831931114197e-01 9.771785885095596313e-02 -1.220784150063991547e-02
-1.666554808616638184e-01 9.331731498241424561e-02 7.253740914165973663e-03
-1.888116896152496338e-01 -1.612705737352371216e-02 6.996848154813051224e-03
-1.419019401073455811e-01 -1.037719771265983582e-01 -1.806110143661499023e-03
-7.614031434059143066e-02 1.980536617338657379e-03 -1.529235299676656723e-02
-8.568320423364639282e-02 3.536540642380714417e-02 -1.558649633079767227e-02
-1.321682631969451904e-01 6.850995123386383057e-02 -1.356569305062294006e-02
-1.037458106875419617e-01 1.390291005373001099e-01 -6.023667752742767334e-03
-1.127356067299842834e-01 -8.812418580055236816e-02 1.055615860968828201e-02
-1.385044455528259277e-01 1.080316156148910522e-01 9.502429515123367310e-03
-1.482984721660614014e-01 -5.549357831478118896e-02 -1.047119684517383575e-02
-1.308361440896987915e-01 1.143240407109260559e-01 -9.429651312530040741e-03
-5.995002016425132751e-02 -1.308149658143520355e-03 1.469111163169145584e-02
-1.806129217147827148e-01 -1.588335633277893066e-02 9.339476935565471649e-03
-3.631489723920822144e-02 9.712489694356918335e-02 7.310122717171907425e-03
-4.823012650012969971e-02 -6.438856571912765503e-02 1.012436952441930771e-02
-7.540330290794372559e-02 6.523523479700088501e-02 1.424410659819841385e-02
-5.260840803384780884e-02 -7.162014953792095184e-03 -1.373214833438396454e-02
-4.348164424300193787e-02 -5.659076571464538574e-02 1.028484478592872620e-02
-1.710427999496459961e-01 -4.888018593192100525e-04 1.161928288638591766e-02
-1.155052036046981812e-01 1.002111658453941345e-02 -1.549469958990812302e-02
-4.646740853786468506e-03 5.064717680215835571e-02 -3.399378154426813126e-03
-8.509272336959838867e-02 -8.139988034963607788e-02 1.127637363970279694e-02
-6.361164152622222900e-02 -5.945119261741638184e-02 -1.149408705532550812e-02
-7.191675156354904175e-02 1.218485981225967407e-01 8.194203488528728485e-03
-4.376651346683502197e-02 7.634656876325607300e-02 -1.137667242437601089e-02
-6.538248062133789062e-02 1.386535018682479858e-01 2.188246464356780052e-03
-6.636613607406616211e-02 2.448997460305690765e-03 -1.487217471003532410e-02
-1.674695163965225220e-01 4.516734741628170013e-03 -1.120872329920530319e-02
-5.152363330125808716e-02 9.878159314393997192e-02 -1.018676813691854477e-02
-7.526231557130813599e-02 1.283619850873947144e-01 7.154709193855524063e-03
-1.016613095998764038e-02 4.145697131752967834e-02 6.365537643432617188e-03
-1.725622713565826416e-01 7.732909172773361206e-02 -7.681868970394134521e-03
-5.802769586443901062e-02 -7.684247940778732300e-02 -8.923541754484176636e-03
-1.423192173242568970e-01 4.775920882821083069e-02 1.414396148175001144e-02
-5.768134072422981262e-02 7.935171574354171753e-02 -1.256693620234727859e-02
-1.017869263887405396e-01 3.880467265844345093e-02 -1.562004815787076950e-02
-1.684655845165252686e-01 6.236965581774711609e-02 1.034269854426383972e-02
-1.396143287420272827e-01 -7.755432277917861938e-02 -8.842060342431068420e-03
-1.462678611278533936e-01 2.854668349027633667e-02 1.438543852418661118e-02
-1.237056851387023926e-01 1.337615847587585449e-01 -6.199257913976907730e-03
-8.858557790517807007e-02 7.887717336416244507e-02 1.384942512959241867e-02
-8.615641295909881592e-02 -6.286062300205230713e-02 1.324228942394256592e-02
-3.316189348697662354e-02 -8.107590675354003906e-02 -2.233706414699554443e-03
-1.500321179628372192e-01 2.432289347052574158e-02 -1.341645698994398117e-02
-1.116107255220413208e-01 1.162594780325889587e-01 1.001631375402212143e-02
-7.658716291189193726e-02 -4.955568909645080566e-02 -1.306423917412757874e-02
-1.719207912683486938e-01 -6.199792027473449707e-02 -5.406165029853582382e-03
-1.729530692100524902e-01 -3.098262846469879150e-02 1.012160349637269974e-02
-3.285937011241912842e-02 1.972281187772750854e-02 1.188792008906602859e-02
-1.436031907796859741e-01 9.070657938718795776e-02 -1.101160515099763870e-02
-1.086996197700500488e-01 -7.468791306018829346e-02 1.232706662267446518e-02
-1.074541360139846802e-01 -2.696933224797248840e-04 1.614915765821933746e-02
-1.480653882026672363e-01 -1.001274734735488892e-01 -1.468389760702848434e-03
-1.292070150375366211e-01 7.912585884332656860e-02 1.322936546057462692e-02
-4.437529295682907104e-02 1.967262476682662964e-02 1.334320660680532455e-02
-1.608023047447204590e-01 1.183199062943458557e-01 1.922324998304247856e-03
-4.932552576065063477e-03 2.432333678007125854e-02 -5.380360875278711319e-03
-2.535463869571685791e-02 -4.249154776334762573e-02 8.292938582599163055e-03
-4.978140816092491150e-02 6.973817013204097748e-03 1.391229033470153809e-02
-2.304855734109878540e-02 3.398540616035461426e-02 -1.026596780866384506e-02
-3.932590782642364502e-02 4.926787689328193665e-02 1.199854537844657898e-02
-1.758153438568115234e-01 6.729237735271453857e-02 -7.907544262707233429e-03
-8.978747576475143433e-02 1.211791783571243286e-01 9.276723489165306091e-03
-1.568495333194732666e-01 5.820354446768760681e-02 1.226791273802518845e-02
-1.380214095115661621e-01 -1.252850797027349472e-02 -1.394187565892934799e-02
-4.700734466314315796e-02 8.210051804780960083e-02 1.079313084483146667e-02
-7.332824915647506714e-02 9.435885399580001831e-02 -1.239650323987007141e-02
-3.429688513278961182e-03 3.149834275245666504e-02 3.968354314565658569e-03
-1.104161590337753296e-01 -1.746596023440361023e-02 -1.503061689436435699e-02
-1.772473454475402832e-01 5.080552026629447937e-02 -8.750903420150279999e-03
-1.281281411647796631e-01 9.265917539596557617e-02 1.213041320443153381e-02
-1.009740978479385376e-01 -9.056859463453292847e-02 1.034278795123100281e-02
-2.113340795040130615e-02 9.717573970556259155e-02 1.691925805062055588e-03
-7.338510453701019287e-02 -1.126874014735221863e-01 4.194665234535932541e-04
-1.248398125171661377e-01 1.287158951163291931e-02 -1.516843959689140320e-02
-7.964359223842620850e-02 3.731693327426910400e-02 -1.541333179920911789e-02
-1.692023575305938721e-01 -2.406027913093566895e-02 -9.917479008436203003e-03
-1.128725558519363403e-01 -6.864662468433380127e-02 -1.163916196674108505e-02
-1.375570893287658691e-01 -7.458579726517200470e-03 1.501137576997280121e-02
-1.446405351161956787e-01 8.110652118921279907e-02 -1.173124928027391434e-02
-8.074703812599182129e-02 -8.359573781490325928e-02 -9.680178947746753693e-03
-6.272391974925994873e-02 -4.273332655429840088e-02 -1.279584970325231552e-02
-1.623612046241760254e-01 -1.964858174324035645e-02 -1.119684614241123199e-02
-6.908069550991058350e-02 1.173032149672508240e-01 8.750034496188163757e-03
-7.044918835163116455e-02 1.926347240805625916e-02 1.539379637688398361e-02
-9.955653548240661621e-02 5.035277456045150757e-02 1.549585908651351929e-02
-3.885806351900100708e-02 6.814347207546234131e-02 1.085037086158990860e-02
-1.011043861508369446e-01 1.181500256061553955e-01 9.894420392811298370e-03
-6.190108880400657654e-02 2.390032261610031128e-02 1.483447384089231491e-02
-1.225025877356529236e-01 -1.267886720597743988e-03 -1.509068813174962997e-02
-8.227555453777313232e-02 -7.750376127660274506e-03 1.575652696192264557e-02
-1.166409701108932495e-01 -1.760720461606979370e-02 -1.486118510365486145e-02
-1.871578395366668701e-01 -8.799177594482898712e-03 7.918827235698699951e-03
-1.080846711993217468e-01 -5.051981657743453979e-02 -1.333236601203680038e-02
-3.782631829380989075e-02 -2.058419957756996155e-02 -1.167808379977941513e-02
-1.617227643728256226e-01 2.424850128591060638e-02 1.289969123899936676e-02
-3.950544819235801697e-02 1.218723356723785400e-01 -1.733578974381089211e-03
-1.802544295787811279e-01 -1.390881929546594620e-02 -8.250839076936244965e-03
-1.769377291202545166e-01 -5.207780003547668457e-02 7.099325768649578094e-03
-1.958505809307098389e-01 -1.190458517521619797e-02 3.883092431351542473e-03
-8.384890109300613403e-02 1.258887052536010742e-01 8.218219503760337830e-03
-1.360110938549041748e-01 4.023022018373012543e-03 -1.445916946977376938e-02
-1.133531033992767334e-01 -6.963959895074367523e-03 1.598139293491840363e-02
-1.272154599428176880e-02 -2.942024916410446167e-02 5.872441921383142471e-03
-1.562912017107009888e-02 -2.293816208839416504e-02 7.428814657032489777e-03
-1.414239704608917236e-01 -4.498250409960746765e-02 -1.202935073524713516e-02
-1.659530252218246460e-01 1.639381423592567444e-02 -1.153771393001079559e-02
-1.004596948623657227e-01 -7.926565408706665039e-02 -1.064557023346424103e-02
-2.341846376657485962e-02 8.592160791158676147e-02 -6.522739771753549576e-03
-1.708198487758636475e-01 8.091365918517112732e-03 1.173502672463655472e-02
-1.421307325363159180e-01 5.939650163054466248e-02 -1.326115708798170090e-02
-5.456287041306495667e-02 -3.983656689524650574e-02 1.290768757462501526e-02
-1.542566716670989990e-01 5.784571170806884766e-03 1.382149569690227509e-02
-7.444804906845092773e-02 1.048252433538436890e-01 -1.140318904072046280e-02
-1.281328499317169189e-02 8.291006088256835938e-02 -8.411964518018066883e-04
-1.281161904335021973e-01 -2.177598327398300171e-02 -1.422245148569345474e-02
-1.780220121145248413e-01 4.378837719559669495e-02 9.678820148110389709e-03
-1.777646690607070923e-02 8.384470641613006592e-02 4.048452712595462799e-03
-2.054148167371749878e-02 -5.052956938743591309e-02 -5.486538633704185486e-03
-1.707294583320617676e-01 8.041311800479888916e-02 8.166167885065078735e-03
-1.826501637697219849e-02 -1.673211529850959778e-02 -8.432815782725811005e-03
-7.206832617521286011e-02 -3.538244217634201050e-02 1.443318184465169907e-02
-1.523031592369079590e-01 -2.478299662470817566e-02 1.333287823945283890e-02
-1.690454781055450439e-01 9.596409648656845093e-02 -5.881902296096086502e-03
-1.777418106794357300e-01 7.681515812873840332e-02 -6.339597050100564957e-03
-1.268154531717300415e-01 5.900353938341140747e-02 -1.432007178664207458e-02
-1.655087620019912720e-02 -3.036670386791229248e-05 -8.785939775407314301e-03
-1.065789908170700073e-02 -4.322908446192741394e-02 -1.648845151066780090e-03
-1.236460655927658081e-01 -2.172308973968029022e-03 1.576902531087398529e-02
-1.412871628999710083e-01 -3.254317492246627808e-02 -1.283234171569347382e-02
-9.535209834575653076e-02 1.406691372394561768e-01 4.906610120087862015e-03
-9.472101181745529175e-02 1.429177075624465942e-01 -4.697588738054037094e-03
-3.563753515481948853e-02 3.249716758728027344e-02 1.207375526428222656e-02
-6.145637854933738708e-02 1.265329420566558838e-01 6.004785187542438507e-03
-1.437914371490478516e-01 5.356418713927268982e-02 -1.335628237575292587e-02
-1.118428632616996765e-01 2.196668460965156555e-02 1.608719304203987122e-02
-1.149064078927040100e-01 -5.084649473428726196e-02 -1.313925161957740784e-02
-1.783077120780944824e-01 -4.887807369232177734e-02 -5.602991208434104919e-03
-1.918675005435943604e-01 2.743485942482948303e-02 6.530520971864461899e-03
-9.487562626600265503e-02 6.868646293878555298e-02 1.460269466042518616e-02
-1.608937680721282959e-01 8.732768148183822632e-02 -8.971020579338073730e-03
-9.321986138820648193e-02 -6.017164140939712524e-02 1.363414246588945389e-02
-4.287226498126983643e-02 5.558830685913562775e-03 1.318304706364870071e-02
-8.573609590530395508e-02 5.819483846426010132e-02 1.496802736073732376e-02
-1.963081955909729004e-01 3.790597617626190186e-02 3.513782052323222160e-03
-1.668310165405273438e-01 5.554534494876861572e-02 1.106309983879327774e-02
-1.538058817386627197e-01 3.875862807035446167e-02 -1.282188110053539276e-02
-7.085217535495758057e-02 -1.005592867732048035e-01 6.863693241029977798e-03
-7.881274819374084473e-02 -9.903875738382339478e-02 -6.795973517000675201e-03
-7.567353546619415283e-03 -3.500378131866455078e-02 1.536272582598030567e-03
-2.880912274122238159e-02 -6.084886938333511353e-02 -6.252681836485862732e-03
-3.271908313035964966e-02 -4.846700280904769897e-02 -8.811230771243572235e-03
-1.852280795574188232e-01 3.523999825119972229e-03 -7.643629796802997589e-03
-1.312869489192962646e-01 -9.883130341768264771e-02 7.380772382020950317e-03
-1.076241433620452881e-01 -7.583624869585037231e-02 -1.097715087234973907e-02
-1.428955495357513428e-01 -5.843638628721237183e-02 1.211635023355484009e-02
-8.300282806158065796e-02 -6.941080838441848755e-02 -1.152540184557437897e-02
-8.201178163290023804e-02 -6.704688072204589844e-02 1.271777972579002380e-02
-6.599298119544982910e-02 8.005701005458831787e-02 1.274816691875457764e-02
-1.014270782470703125e-01 -1.038310080766677856e-01 -6.396838463842868805e-03
-8.006866276264190674e-02 -1.501262653619050980e-02 1.552709657698869705e-02
-2.661257237195968628e-02 6.973657011985778809e-02 8.602079004049301147e-03
-1.760442852973937988e-01 7.901846431195735931e-03 -9.797010570764541626e-03
-1.461009383201599121e-01 6.425870209932327271e-02 -1.266767084598541260e-02
6.554137170314788818e-02 -8.613353967666625977e-01 1.179373078048229218e-02
1.398335397243499756e-01 -7.765229344367980957e-01 -1.136498153209686279e-02
3.415968269109725952e-02 -8.788891434669494629e-01 -5.396454129368066788e-03
-2.264191955327987671e-02 -7.597728371620178223e-01 9.435080923140048981e-03
3.988081589341163635e-02 -6.980491876602172852e-01 -1.198277994990348816e-02
-8.761025965213775635e-03 -6.955808997154235840e-01 -6.867584772408008575e-03
6.620620936155319214e-02 -8.867476582527160645e-01 7.101275026798248291e-03
1.143479049205780029e-01 -8.563510179519653320e-01 -1.061106752604246140e-02
3.807293623685836792e-02 -7.998475432395935059e-01 -1.445371005684137344e-02
9.003888815641403198e-02 -8.556246161460876465e-01 1.247081626206636429e-02
8.467894047498703003e-02 -6.693261861801147461e-01 1.025404967367649078e-02
-1.640264689922332764e-02 -7.894565463066101074e-01 9.784243069589138031e-03
3.473976626992225647e-02 -6.923920512199401855e-01 -1.122912671416997910e-02
9.524395316839218140e-02 -8.827820420265197754e-01 8.061425760388374329e-03
1.116620525717735291e-01 -6.684978604316711426e-01 6.224010139703750610e-03
-3.312134742736816406e-02 -7.890363335609436035e-01 -2.124527003616094589e-03
1.224981993436813354e-01 -6.885945200920104980e-01 8.842639625072479248e-03
6.988196074962615967e-02 -7.682201266288757324e-01 1.701585575938224792e-02
3.610216826200485229e-02 -6.570987701416015625e-01 8.395331911742687225e-03
9.252516925334930420e-02 -8.251378536224365234e-01 -1.410075183957815170e-02
9.717328101396560669e-02 -8.320795893669128418e-01 -1.356260199099779129e-02
1.322375237941741943e-01 -7.257547974586486816e-01 1.176375616341829300e-02
1.522008180618286133e-01 -7.095541954040527344e-01 3.661388531327247620e-03
1.142045855522155762e-01 -7.885903120040893555e-01 1.522624958306550980e-02
1.084365621209144592e-01 -7.163738012313842773e-01 1.384261902421712875e-02
1.059611886739730835e-01 -7.763283252716064453e-01 1.588671281933784485e-02
-8.057698607444763184e-03 -6.827775239944458008e-01 7.354246452450752258e-03
4.952033236622810364e-02 -7.741534709930419922e-01 1.674627512693405151e-02
4.849601536989212036e-02 -8.541238307952880859e-01 1.200801972299814224e-02
7.908532023429870605e-02 -8.996887207031250000e-01 -1.724286004900932312e-03
6.431798636913299561e-02 -6.916373968124389648e-01 1.393342856317758560e-02
-5.589164793491363525e-03 -7.208932638168334961e-01 -9.745727293193340302e-03
1.177620887756347656e-01 -8.777728080749511719e-01 -7.006150204688310623e-03
6.413981318473815918e-02 -7.774661779403686523e-01 1.694817468523979187e-02
-2.107276767492294312e-02 -8.157365918159484863e-01 5.444301757961511612e-03
5.802768468856811523e-02 -7.996118664741516113e-01 1.634926907718181610e-02
2.295458689332008362e-02 -7.389229536056518555e-01 1.534267328679561615e-02
1.247577592730522156e-01 -8.595904111862182617e-01 -9.211654774844646454e-03
1.375773549079895020e-02 -8.459240794181823730e-01 9.533790871500968933e-03
5.312372744083404541e-02 -6.723788976669311523e-01 1.171319279819726944e-02
5.699938535690307617e-02 -7.121790051460266113e-01 -1.346296910196542740e-02
3.936964273452758789e-02 -6.947049498558044434e-01 1.389028225094079971e-02
1.037345230579376221e-01 -8.296401500701904297e-01 -1.341927237808704376e-02
7.045878469944000244e-02 -7.335505485534667969e-01 1.645519584417343140e-02
5.320067703723907471e-02 -7.154446244239807129e-01 1.564837433397769928e-02
3.223808854818344116e-02 -7.960546016693115234e-01 1.546621974557638168e-02
1.331048309803009033e-01 -8.313574194908142090e-01 -1.089661009609699249e-02
-1.435227692127227783e-02 -7.013584375381469727e-01 -6.389278452843427658e-03
-1.137889921665191650e-02 -7.364869117736816406e-01 -9.601415134966373444e-03
1.010750383138656616e-01 -6.769271492958068848e-01 1.004076842218637466e-02
4.616878554224967957e-02 -6.425742506980895996e-01 2.618692815303802490e-03
1.202593445777893066e-01 -8.566159009933471680e-01 -1.005762163549661636e-02
7.433651387691497803e-02 -6.795328855514526367e-01 -1.002781838178634644e-02
1.218917220830917358e-01 -8.906270265579223633e-01 -2.640131278894841671e-04
7.621411234140396118e-02 -6.870942711830139160e-01 1.319913752377033234e-02
1.612793356180191040e-01 -7.398367524147033691e-01 5.971239414066076279e-03
1.184696108102798462e-01 -7.710257768630981445e-01 -1.362412516027688980e-02
4.345429688692092896e-02 -6.534467935562133789e-01 7.828965783119201660e-03
2.429163083434104919e-02 -8.605492711067199707e-01 -8.079326711595058441e-03
9.002293646335601807e-02 -8.494645953178405762e-01 1.312106754630804062e-02
8.990590274333953857e-02 -7.472087740898132324e-01 1.637264899909496307e-02
2.534211799502372742e-02 -7.509728074073791504e-01 1.569231413304805756e-02
1.524659544229507446e-01 -8.060678243637084961e-01 1.006029080599546432e-02
9.417540580034255981e-02 -8.425027132034301758e-01 -1.295811589807271957e-02
1.915162056684494019e-02 -6.770158410072326660e-01 -8.267543278634548187e-03
1.685307025909423828e-01 -7.861833572387695312e-01 5.984310060739517212e-03
8.071477711200714111e-02 -7.740122675895690918e-01 1.686984486877918243e-02
5.944738909602165222e-02 -7.494538426399230957e-01 1.686576195061206818e-02
-2.368852496147155762e-03 -8.163933753967285156e-01 -9.358243085443973541e-03
-4.920274019241333008e-03 -8.481611609458923340e-01 4.060741979628801346e-03
1.267255544662475586e-01 -8.819486498832702637e-01 4.576527979224920273e-03
1.107698976993560791e-01 -8.326704502105712891e-01 -1.284268125891685486e-02
7.566754519939422607e-02 -8.782501220703125000e-01 -8.942616172134876251e-03
-2.319372445344924927e-02 -7.324908375740051270e-01 8.895820006728172302e-03
6.430440396070480347e-02 -7.768025398254394531e-01 -1.557368040084838867e-02
6.412336975336074829e-02 -8.349244594573974609e-01 -1.367606129497289658e-02
1.577875316143035889e-01 -8.205152750015258789e-01 8.019081316888332367e-03
4.002571105957031250e-03 -7.706425786018371582e-01 1.374640222638845444e-02
1.693595498800277710e-01 -7.717416882514953613e-01 -3.954219631850719452e-03
8.153404295444488525e-02 -7.678462862968444824e-01 1.686882600188255310e-02
2.833366021513938904e-02 -8.210099339485168457e-01 -1.282868906855583191e-02
9.705768525600433350e-02 -8.908324241638183594e-01 -5.603470839560031891e-03
-3.294575214385986328e-02 -7.158173918724060059e-01 3.040695330128073692e-03
-3.661269694566726685e-02 -7.429292798042297363e-01 -2.002196153625845909e-03
-7.883206009864807129e-03 -7.135949730873107910e-01 -8.871600963175296783e-03
6.238085776567459106e-02 -6.742707490921020508e-01 -9.547892026603221893e-03
1.578173935413360596e-01 -7.566764950752258301e-01 8.660384453833103180e-03
7.398080080747604370e-02 -8.503677248954772949e-01 1.319547370076179504e-02
3.092275187373161316e-02 -8.024546504020690918e-01 1.511099375784397125e-02
6.065933033823966980e-02 -8.480990529060363770e-01 -1.253075059503316879e-02
5.413360521197319031e-02 -8.577669858932495117e-01 -1.125458255410194397e-02
1.695078983902931213e-02 -6.736648082733154297e-01 9.981877170503139496e-03
2.096020802855491638e-02 -7.384263277053833008e-01 -1.336680725216865540e-02
3.252400085330009460e-02 -8.637090325355529785e-01 -8.650490082800388336e-03
-3.899514675140380859e-03 -7.024441361427307129e-01 -8.524633012712001801e-03
4.120197892189025879e-02 -8.883905410766601562e-01 -2.951981034129858017e-03
1.185813844203948975e-01 -8.838150501251220703e-01 -5.352817475795745850e-03
1.019796878099441528e-01 -7.553260922431945801e-01 1.596863567829132080e-02
8.367691934108734131e-02 -8.288437128067016602e-01 -1.409788243472576141e-02
4.715407639741897583e-02 -8.644968867301940918e-01 -9.936365298926830292e-03
7.510220259428024292e-02 -8.689417839050292969e-01 -1.043050922453403473e-02
9.217113256454467773e-02 -7.343800663948059082e-01 -1.410846412181854248e-02
-3.504802286624908447e-02 -7.621075510978698730e-01 4.968696273863315582e-03
-1.276259869337081909e-02 -7.993199825286865234e-01 -8.629154413938522339e-03
1.369632482528686523e-01 -7.538165450096130371e-01 1.262274291366338730e-02
-2.895834296941757202e-02 -7.618874907493591309e-01 7.596906740218400955e-03
1.079674437642097473e-01 -7.700264453887939453e-01 -1.437412947416305542e-02
7.018981873989105225e-02 -8.086974620819091797e-01 1.611961796879768372e-02
-2.036292850971221924e-02 -7.460262179374694824e-01 9.950380772352218628e-03
1.174857020378112793e-01 -6.832990050315856934e-01 8.782664313912391663e-03
1.569935381412506104e-01 -8.504276275634765625e-01 -3.371299942955374718e-03
1.654858440160751343e-01 -7.433546781539916992e-01 4.261295311152935028e-03
5.924842134118080139e-02 -6.534626483917236328e-01 8.009789511561393738e-03
9.824660420417785645e-02 -8.634991049766540527e-01 1.122905500233173370e-02
-3.484582901000976562e-02 -7.424611449241638184e-01 5.038574803620576859e-03
4.669385403394699097e-02 -6.475656032562255859e-01 5.988060962408781052e-03
1.162085086107254028e-01 -7.383844852447509766e-01 1.441623549908399582e-02
1.120122894644737244e-02 -7.313256859779357910e-01 1.419855840504169464e-02
6.260926276445388794e-02 -7.537232637405395508e-01 1.694350689649581909e-02
9.437076747417449951e-02 -7.240208983421325684e-01 1.529131550341844559e-02
-1.137157529592514038e-02 -7.922188639640808105e-01 -9.329901076853275299e-03
3.825268894433975220e-02 -8.652378320693969727e-01 -9.037502110004425049e-03
4.408040642738342285e-02 -8.767911791801452637e-01 -7.420337758958339691e-03
1.136258244514465332e-03 -7.340229749679565430e-01 -1.131426263600587845e-02
3.389840200543403625e-02 -7.282803654670715332e-01 1.565071940422058105e-02
7.742274552583694458e-02 -8.778497576713562012e-01 9.388607926666736603e-03
1.248896792531013489e-01 -7.455055713653564453e-01 -1.222464255988597870e-02
2.409234642982482910e-03 -6.833367347717285156e-01 9.530665352940559387e-03
1.013976931571960449e-01 -8.213988542556762695e-01 -1.394786406308412552e-02
9.374062716960906982e-02 -8.036113977432250977e-01 1.593670062720775604e-02
1.651549041271209717e-01 -7.682200074195861816e-01 6.910429801791906357e-03
1.639724373817443848e-01 -8.233586549758911133e-01 -4.996475763618946075e-03
1.715573668479919434e-02 -7.281818985939025879e-01 -1.267017889767885208e-02
1.553952321410179138e-02 -8.457483649253845215e-01 -9.076850488781929016e-03
-2.475106716156005859e-02 -8.095687031745910645e-01 4.886193200945854187e-03
6.575246900320053101e-02 -7.060285210609436035e-01 -1.300612650811672211e-02
6.773006916046142578e-02 -8.021541833877563477e-01 -1.524756848812103271e-02
-1.451518386602401733e-02 -6.762602329254150391e-01 1.076331827789545059e-03
6.427533179521560669e-02 -8.028574585914611816e-01 1.632070541381835938e-02
9.685436636209487915e-02 -8.749876022338867188e-01 9.532121010124683380e-03
5.306836217641830444e-02 -8.049997687339782715e-01 1.602095738053321838e-02
9.698665887117385864e-02 -6.688297986984252930e-01 8.945985697209835052e-03
1.610214114189147949e-01 -7.251994609832763672e-01 -6.051351665519177914e-04
7.572148740291595459e-02 -8.080300092697143555e-01 -1.508145779371261597e-02
1.449496299028396606e-01 -7.121233940124511719e-01 -5.640887655317783356e-03
1.255417615175247192e-01 -8.374603390693664551e-01 -1.131645776331424713e-02
1.377905607223510742e-01 -6.966428756713867188e-01 6.657264195382595062e-03
1.098984777927398682e-01 -8.958680629730224609e-01 6.033877725712954998e-04
1.565500721335411072e-02 -7.603377699851989746e-01 1.500844955444335938e-02
-1.706773787736892700e-02 -8.264573216438293457e-01 -3.884539240971207619e-03
2.791722491383552551e-02 -8.421912193298339844e-01 1.182413566857576370e-02
-6.869852542877197266e-03 -6.879529356956481934e-01 8.514622226357460022e-03
1.473916769027709961e-01 -7.888168096542358398e-01 1.142870169132947922e-02
4.821457713842391968e-02 -7.639324665069580078e-01 1.677188836038112640e-02
1.645869389176368713e-02 -7.797135114669799805e-01 -1.339668221771717072e-02
7.544314861297607422e-02 -8.941820263862609863e-01 5.047842394560575485e-03
9.804401546716690063e-02 -6.533083915710449219e-01 1.333510968834161758e-03
1.387136578559875488e-01 -8.551845550537109375e-01 8.258026093244552612e-03
1.031528636813163757e-01 -8.564549088478088379e-01 1.186622958630323410e-02
-2.952530980110168457e-03 -7.315595149993896484e-01 1.261247508227825165e-02
5.209180712699890137e-02 -8.182944655418395996e-01 -1.432840619236230850e-02
1.498970985412597656e-01 -7.644786834716796875e-01 1.079462748020887375e-02
9.478311985731124878e-02 -8.133230805397033691e-01 -1.453541405498981476e-02
-3.496469557285308838e-02 -7.215195894241333008e-01 2.167002530768513680e-03
8.325909823179244995e-02 -8.045891523361206055e-01 1.617993414402008057e-02
4.683434963226318359e-04 -6.710134148597717285e-01 6.843036506325006485e-03
1.533025652170181274e-01 -8.271329402923583984e-01 8.575343526899814606e-03
1.745876371860504150e-01 -7.877696752548217773e-01 3.983367059845477343e-04
1.267838925123214722e-01 -6.845129728317260742e-01 -4.736375063657760620e-03
1.013354659080505371e-01 -8.100343942642211914e-01 1.538341958075761795e-02
1.494730710983276367e-01 -8.260099291801452637e-01 -8.710054680705070496e-03
1.308431476354598999e-01 -7.182712554931640625e-01 1.133753266185522079e-02
2.810473367571830750e-02 -7.253886461257934570e-01 1.524202898144721985e-02
3.851972892880439758e-02 -8.598762750625610352e-01 1.048320624977350235e-02
6.485226750373840332e-02 -6.980331540107727051e-01 1.449425797909498215e-02
-1.558838039636611938e-02 -8.060243725776672363e-01 -7.430070079863071442e-03
8.101649582386016846e-02 -8.156334757804870605e-01 -1.476523000746965408e-02
1.121997460722923279e-01 -8.832502365112304688e-01 6.640512030571699142e-03
-2.836275845766067505e-02 -7.395052313804626465e-01 7.663618307560682297e-03
7.123340666294097900e-02 -7.484068870544433594e-01 1.684092171490192413e-02
1.474727690219879150e-01 -8.421503305435180664e-01 -7.684967480599880219e-03
-1.312702149152755737e-02 -8.181419968605041504e-01 7.840025238692760468e-03
6.002818420529365540e-02 -8.759384751319885254e-01 9.264531545341014862e-03
6.604704260826110840e-02 -8.169105648994445801e-01 -1.471374370157718658e-02
3.832463175058364868e-02 -6.459559798240661621e-01 4.638674203306436539e-03
1.124804913997650146e-01 -6.951204538345336914e-01 1.138273440301418304e-02
1.324213296175003052e-01 -7.569801211357116699e-01 1.332807075232267380e-02
7.047476619482040405e-02 -8.915279507637023926e-01 5.843973252922296524e-03
1.079372763633728027e-01 -8.428045511245727539e-01 1.297579053789377213e-02
1.185368299484252930e-01 -6.961214542388916016e-01 1.069950498640537262e-02
1.240209639072418213e-01 -8.676763772964477539e-01 8.512624539434909821e-03
-3.315553069114685059e-03 -8.022363781929016113e-01 1.144775003194808960e-02
-1.059653609991073608e-02 -6.764831542968750000e-01 -2.446564612910151482e-03
1.316323429346084595e-01 -7.474388480186462402e-01 -1.152624376118183136e-02
-4.489928483963012695e-03 -7.389528751373291016e-01 1.261184085160493851e-02
-2.536163479089736938e-02 -7.762516140937805176e-01 -6.705210078507661819e-03
1.045633256435394287e-01 -6.745461225509643555e-01 -6.789980921894311905e-03
1.081511825323104858e-01 -7.637982368469238281e-01 1.570988260209560394e-02
1.295224577188491821e-02 -8.252019286155700684e-01 -1.094191614538431168e-02
4.117237031459808350e-02 -8.587723374366760254e-01 -1.027988083660602570e-02
1.141322553157806396e-01 -8.909245133399963379e-01 3.631373168900609016e-03
7.341501116752624512e-02 -7.002221941947937012e-01 1.452642679214477539e-02
1.430611014366149902e-01 -8.654611110687255859e-01 5.247727036476135254e-03
4.390575736761093140e-02 -8.701100349426269531e-01 9.230969473719596863e-03
-2.055391669273376465e-04 -8.068477511405944824e-01 -1.044026389718055725e-02
3.610538318753242493e-02 -7.590385079383850098e-01 -1.472748629748821259e-02
1.384378969669342041e-01 -6.904878020286560059e-01 -2.297098282724618912e-03
1.147441267967224121e-01 -8.428926467895507812e-01 -1.184867136180400848e-02
5.374243855476379395e-02 -8.281559944152832031e-01 -1.383758243173360825e-02
1.305036842823028564e-01 -8.641288876533508301e-01 8.203188888728618622e-03
1.512900590896606445e-01 -8.584996461868286133e-01 -3.777997335419058800e-03
-1.835940778255462646e-02 -7.944315671920776367e-01 8.970093913376331329e-03
8.990177512168884277e-02 -8.049590587615966797e-01 -1.494416967034339905e-02
9.447102993726730347e-02 -6.991951465606689453e-01 1.349060889333486557e-02
3.394284471869468689e-02 -8.416278362274169922e-01 1.243113633245229721e-02
-3.325535356998443604e-02 -7.824061512947082520e-01 -3.012718399986624718e-03
8.460704982280731201e-02 -8.679282069206237793e-01 1.100296527147293091e-02
9.179269522428512573e-02 -6.778079867362976074e-01 1.110885292291641235e-02
3.539952635765075684e-02 -7.182285189628601074e-01 1.529220398515462875e-02
1.403113007545471191e-01 -7.031689882278442383e-01 7.299255114048719406e-03
1.008087396621704102e-01 -8.810967206954956055e-01 8.135247044265270233e-03
4.257878288626670837e-02 -6.709156632423400879e-01 1.129023823887109756e-02
1.534740626811981201e-01 -7.870188951492309570e-01 -9.151937440037727356e-03
1.589551568031311035e-01 -7.197476029396057129e-01 1.970986486412584782e-04
3.031908720731735229e-02 -7.336187958717346191e-01 1.564720273017883301e-02
1.609879136085510254e-01 -8.418369293212890625e-01 -3.457925049588084221e-03
-4.972696304321289062e-03 -7.168117761611938477e-01 1.164727192372083664e-02
4.149250686168670654e-02 -8.346476554870605469e-01 -1.280242484062910080e-02
8.733003586530685425e-02 -8.372958898544311523e-01 1.425774861127138138e-02
1.261258721351623535e-01 -7.391713857650756836e-01 1.341961137950420380e-02
1.606416702270507812e-01 -8.109552264213562012e-01 7.890919223427772522e-03
1.051868423819541931e-01 -7.101238965988159180e-01 1.364081911742687225e-02
7.860345393419265747e-02 -8.585315942764282227e-01 1.229217182844877243e-02
