-3.401159048080444336e-01 -2.449682354927062988e-01 3.398057818412780762e-02
-5.815440416336059570e-01 -9.203723073005676270e-02 9.770556353032588959e-03
-3.405638039112091064e-01 -2.494024634361267090e-01 4.554915428161621094e-02
-3.659100830554962158e-01 -2.878662049770355225e-01 2.313701063394546509e-02
-3.376272022724151611e-01 -2.917392849922180176e-01 2.480105496942996979e-02
-5.498487949371337891e-01 -1.022270694375038147e-01 -7.337306439876556396e-02
-4.967829585075378418e-01 -1.082449406385421753e-01 -7.053921371698379517e-02
-5.693295598030090332e-01 -1.113082617521286011e-01 -3.457347676157951355e-02
-5.107522606849670410e-01 -1.410010308027267456e-01 8.062740415334701538e-02
-4.376129508018493652e-01 -1.373174190521240234e-01 -3.349021449685096741e-02
-4.441787302494049072e-01 -1.254961937665939331e-01 -8.491252548992633820e-03
-4.916702806949615479e-01 -1.058090627193450928e-01 -6.265012919902801514e-02
-3.713997006416320801e-01 -2.284347265958786011e-01 7.876880466938018799e-02
-4.154440760612487793e-01 -1.507432460784912109e-01 1.282401476055383682e-02
-4.676852226257324219e-01 -2.097914814949035645e-01 -5.883736908435821533e-02
-4.119891822338104248e-01 -1.644667983055114746e-01 -3.743753582239151001e-02
-4.237963855266571045e-01 -2.092008590698242188e-01 9.397301822900772095e-02
-3.397510945796966553e-01 -2.469983249902725220e-01 -1.862510340288281441e-03
-5.642188191413879395e-01 -5.020486563444137573e-02 1.397332549095153809e-02
-3.649274408817291260e-01 -2.407325506210327148e-01 7.719720155000686646e-02
-5.064811706542968750e-01 -1.860781759023666382e-01 1.810041256248950958e-02
-5.199043750762939453e-01 -1.666102558374404907e-01 3.750320896506309509e-02
-4.805001914501190186e-01 -2.078544497489929199e-01 3.218035399913787842e-02
-4.106371104717254639e-01 -1.811896264553070068e-01 -6.079053878784179688e-02
-4.099361896514892578e-01 -1.741369068622589111e-01 -5.090804025530815125e-02
-4.792900979518890381e-01 -9.632387757301330566e-02 -5.496534518897533417e-03
-4.571012258529663086e-01 -2.306398153305053711e-01 -2.004685252904891968e-02
-4.049562513828277588e-01 -2.276424169540405273e-01 -7.259334623813629150e-02
-4.275971949100494385e-01 -1.406625211238861084e-01 -8.508877828717231750e-03
-4.860353171825408936e-01 -1.031750440597534180e-01 -5.073617026209831238e-02
-5.618652105331420898e-01 -1.231442466378211975e-01 -3.081864677369594574e-02
-4.565940201282501221e-01 -1.153255999088287354e-01 -1.240009441971778870e-02
-5.215120911598205566e-01 -1.143028065562248230e-01 7.902877032756805420e-02
-4.705412089824676514e-01 -2.209141850471496582e-01 -3.176598111167550087e-03
-5.366317629814147949e-01 -1.565151959657669067e-01 -5.768969655036926270e-03
-5.154619812965393066e-01 -9.762036800384521484e-02 7.224383950233459473e-02
-4.232034683227539062e-01 -1.807230859994888306e-01 9.202122688293457031e-02
-5.449087619781494141e-01 -1.358619630336761475e-01 -5.396233871579170227e-02
-4.102970361709594727e-01 -2.657772898674011230e-01 4.481244832277297974e-03
-4.922944307327270508e-01 -8.640316128730773926e-02 8.703649975359439850e-03
-4.215896129608154297e-01 -1.470751911401748657e-01 -1.239967904984951019e-02
-3.915615081787109375e-01 -2.763132154941558838e-01 1.823613420128822327e-02
-4.024040997028350830e-01 -1.704999953508377075e-01 -2.653367258608341217e-02
-5.904095172882080078e-01 -7.400580495595932007e-02 1.230818219482898712e-03
-5.416885614395141602e-01 -1.417894810438156128e-01 3.514603897929191589e-02
-4.590043127536773682e-01 -1.767945736646652222e-01 -8.790577203035354614e-02
-4.082325100898742676e-01 -1.595807522535324097e-01 3.423938900232315063e-02
-5.345877408981323242e-01 -7.207710295915603638e-02 -5.048652738332748413e-02
-3.978995084762573242e-01 -1.821139752864837646e-01 6.779892742633819580e-02
-3.705809712409973145e-01 -1.995926052331924438e-01 2.257046662271022797e-02
-5.709270238876342773e-01 -4.735983908176422119e-02 -1.341010630130767822e-02
-4.712423086166381836e-01 -2.167555987834930420e-01 -3.294733911752700806e-02
-3.929519653320312500e-01 -1.766694486141204834e-01 4.076389595866203308e-02
-3.572638630867004395e-01 -2.682145237922668457e-01 -4.013059288263320923e-02
-5.143380165100097656e-01 -1.267630457878112793e-01 -8.579366654157638550e-02
-5.071774721145629883e-01 -9.690810739994049072e-02 6.854701787233352661e-02
-3.747263848781585693e-01 -2.091573029756546021e-01 -3.669776394963264465e-02
-5.306220650672912598e-01 -8.355148136615753174e-02 6.239952147006988525e-02
-5.150095820426940918e-01 -1.692815572023391724e-01 4.401406645774841309e-02
-5.126551389694213867e-01 -8.394009619951248169e-02 -4.933315515518188477e-02
-4.413296580314636230e-01 -2.442523241043090820e-01 -1.011143205687403679e-03
-4.675363004207611084e-01 -1.704895347356796265e-01 9.379517287015914917e-02
-4.212011694908142090e-01 -1.575601845979690552e-01 -4.335826262831687927e-02
-4.603500664234161377e-01 -2.290077507495880127e-01 -1.122102234512567520e-02
-4.835487008094787598e-01 -9.265786409378051758e-02 4.806370474398136139e-03
-4.425817728042602539e-01 -1.845321506261825562e-01 9.669029712677001953e-02
-4.094605743885040283e-01 -1.579179614782333374e-01 -4.834145307540893555e-03
-4.460347592830657959e-01 -2.383528053760528564e-01 2.641964517533779144e-02
-4.946113824844360352e-01 -1.386600434780120850e-01 -8.807049691677093506e-02
-3.946418166160583496e-01 -2.747601270675659180e-01 -2.892456715926527977e-03
-5.426281690597534180e-01 -1.445147544145584106e-01 2.502405270934104919e-02
-5.156270265579223633e-01 -8.752123266458511353e-02 -5.918618291616439819e-02
-5.120297074317932129e-01 -1.095411255955696106e-01 -7.984525710344314575e-02
-4.920281767845153809e-01 -1.752884238958358765e-01 -7.704870402812957764e-02
-5.126893520355224609e-01 -1.792929023504257202e-01 2.053004689514636993e-02
-3.781182765960693359e-01 -2.836042046546936035e-01 1.031291298568248749e-02
-5.224218368530273438e-01 -8.861900120973587036e-02 6.558308750391006470e-02
-3.776581883430480957e-01 -1.944697946310043335e-01 -1.170066464692354202e-02
-3.432100117206573486e-01 -2.540405988693237305e-01 -2.261554636061191559e-02
-4.327693879604339600e-01 -1.454564779996871948e-01 -4.233661293983459473e-02
-5.325856208801269531e-01 -6.213210523128509521e-02 1.416767947375774384e-02
-5.391780138015747070e-01 -1.284566968679428101e-01 -7.130452990531921387e-02
-4.895524978637695312e-01 -9.345442056655883789e-02 4.187296330928802490e-02
-4.395411014556884766e-01 -2.433379888534545898e-01 -2.338612265884876251e-02
-4.935663640499114990e-01 -1.978724151849746704e-01 -3.029549308121204376e-02
-3.976187109947204590e-01 -1.702639460563659668e-01 -4.642255604267120361e-03
-4.924414753913879395e-01 -1.683887988328933716e-01 7.928448915481567383e-02
-4.814845621585845947e-01 -2.107737064361572266e-01 1.064650155603885651e-02
-4.206174612045288086e-01 -2.282761931419372559e-01 8.387721329927444458e-02
-5.405671596527099609e-01 -5.845788866281509399e-02 1.525845471769571304e-02
-5.878210067749023438e-01 -8.030773699283599854e-02 -2.507283538579940796e-02
-4.315089881420135498e-01 -1.510814577341079712e-01 -5.092254653573036194e-02
-4.956329464912414551e-01 -9.466176480054855347e-02 -4.763419553637504578e-02
-4.996074140071868896e-01 -8.244375884532928467e-02 -1.344091817736625671e-02
-5.588428378105163574e-01 -1.296518594026565552e-01 -1.271133124828338623e-02
-5.543150305747985840e-01 -7.880768924951553345e-02 5.618524923920631409e-02
-3.975749313831329346e-01 -1.777214407920837402e-01 5.879208073019981384e-02
-4.604617357254028320e-01 -1.166808605194091797e-01 -3.266126289963722229e-02
-3.986314833164215088e-01 -2.699510455131530762e-01 -2.029828727245330811e-02
-4.266627132892608643e-01 -1.775856912136077881e-01 -7.447269558906555176e-02
-5.078154206275939941e-01 -1.867940127849578857e-01 -2.313524717465043068e-03
-4.523696601390838623e-01 -1.257990300655364990e-01 -3.880387172102928162e-02
-4.347283542156219482e-01 -2.482189089059829712e-01 -1.396546140313148499e-02
-5.293486714363098145e-01 -1.526784449815750122e-01 -5.690576136112213135e-02
-3.670129776000976562e-01 -2.744224965572357178e-01 5.967782437801361084e-02
-4.301463663578033447e-01 -1.517598181962966919e-01 7.029864937067031860e-02
-4.087810814380645752e-01 -2.500773072242736816e-01 -5.459158495068550110e-02
-4.192693829536437988e-01 -1.962623596191406250e-01 9.526615589857101440e-02
-5.220895409584045410e-01 -1.096348613500595093e-01 -8.166565001010894775e-02
-3.534970283508300781e-01 -2.774263620376586914e-01 -3.117672167718410492e-02
-4.325027763843536377e-01 -2.428692579269409180e-01 -4.237197712063789368e-02
-5.873454809188842773e-01 -7.226935774087905884e-02 -3.567959368228912354e-02
-5.645894408226013184e-01 -9.834678471088409424e-02 -6.129948049783706665e-02
-5.113744735717773438e-01 -1.775281727313995361e-01 3.259989619255065918e-02
-5.150409936904907227e-01 -1.494759321212768555e-01 7.135599851608276367e-02
-5.245809555053710938e-01 -9.700803458690643311e-02 7.260186970233917236e-02
-3.807874023914337158e-01 -1.892678886651992798e-01 -5.212259478867053986e-03
-3.494628071784973145e-01 -2.357063740491867065e-01 5.037710443139076233e-02
-4.891843199729919434e-01 -1.624915301799774170e-01 -8.662700653076171875e-02
-4.703910052776336670e-01 -2.135335355997085571e-01 -4.590155929327011108e-02
-5.625402927398681641e-01 -8.887526392936706543e-02 -6.567468494176864624e-02
-5.109018087387084961e-01 -7.412008196115493774e-02 1.030804030597209930e-02
-4.189021587371826172e-01 -1.522738039493560791e-01 -2.336497232317924500e-02
-4.234917461872100830e-01 -2.243666797876358032e-01 -7.405097037553787231e-02
-5.546318292617797852e-01 -1.164036616683006287e-01 -6.174800544977188110e-02
-3.413473367691040039e-01 -2.928084135055541992e-01 6.295477971434593201e-03
-5.528354644775390625e-01 -8.968327939510345459e-02 -7.096977531909942627e-02
-5.009401440620422363e-01 -1.915533393621444702e-01 -2.743099816143512726e-02
-3.892405629158020020e-01 -2.519532442092895508e-01 -5.875211954116821289e-02
-5.700203776359558105e-01 -6.732314079999923706e-02 4.122385382652282715e-02
-4.424715042114257812e-01 -2.162918150424957275e-01 -7.344843447208404541e-02
-3.959535658359527588e-01 -2.614674866199493408e-01 6.049777939915657043e-02
-4.556295871734619141e-01 -1.222373396158218384e-01 5.357020348310470581e-02
-3.862450718879699707e-01 -2.663163840770721436e-01 6.084291264414787292e-02
-4.133964776992797852e-01 -1.529986262321472168e-01 2.113591879606246948e-02
-4.327833056449890137e-01 -2.171670943498611450e-01 -7.655511051416397095e-02
-3.536703288555145264e-01 -2.756146788597106934e-01 5.984899401664733887e-02
-5.008069276809692383e-01 -8.057065308094024658e-02 -5.824898835271596909e-04
-4.127917289733886719e-01 -2.625059783458709717e-01 2.552938275039196014e-02
-4.951149523258209229e-01 -9.317376464605331421e-02 5.120077729225158691e-02
-4.017522037029266357e-01 -1.749789714813232422e-01 -3.585822880268096924e-02
-4.239924550056457520e-01 -2.413175702095031738e-01 6.472362577915191650e-02
-4.693977534770965576e-01 -1.715366244316101074e-01 -8.841542154550552368e-02
-4.852522313594818115e-01 -1.669791191816329956e-01 8.611519634723663330e-02
-5.892745256423950195e-01 -6.474467366933822632e-02 1.311835832893848419e-02
-3.941180408000946045e-01 -2.457537204027175903e-01 -6.311064213514328003e-02
-5.092122554779052734e-01 -1.147979646921157837e-01 8.202173560857772827e-02
-3.674636781215667725e-01 -2.151255905628204346e-01 -2.965240739285945892e-02
-3.912957906723022461e-01 -2.048148512840270996e-01 -5.840052664279937744e-02
-4.082705378532409668e-01 -2.587192654609680176e-01 5.047726258635520935e-02
-5.189532637596130371e-01 -1.576213240623474121e-01 -6.676090508699417114e-02
-4.620336890220642090e-01 -1.221075654029846191e-01 6.429949402809143066e-02
-4.312903881072998047e-01 -1.449850052595138550e-01 5.912933126091957092e-02
-3.723327219486236572e-01 -1.985148787498474121e-01 2.587295603007078171e-04
-3.307021856307983398e-01 -2.776392996311187744e-01 -2.503021387383341789e-03
-5.024803876876831055e-01 -1.919291019439697266e-01 -1.006430387496948242e-02
-3.884190320968627930e-01 -2.681368589401245117e-01 -3.891291096806526184e-02
-4.060823321342468262e-01 -2.557331621646881104e-01 -4.764818027615547180e-02
-4.341673851013183594e-01 -2.324211299419403076e-01 -6.045180559158325195e-02
-3.904577791690826416e-01 -1.814717054367065430e-01 4.843662679195404053e-02
-4.444405436515808105e-01 -1.567487567663192749e-01 8.917763829231262207e-02
-4.992821812629699707e-01 -1.213428080081939697e-01 8.495354652404785156e-02
-4.106245338916778564e-01 -1.976425945758819580e-01 9.277508407831192017e-02
-3.305777311325073242e-01 -2.745190560817718506e-01 3.676010668277740479e-02
-4.250357151031494141e-01 -1.419571638107299805e-01 2.222981117665767670e-02
-5.171286463737487793e-01 -7.227010279893875122e-02 -2.164008654654026031e-02
-5.533398389816284180e-01 -7.250010222196578979e-02 -6.054514646530151367e-02
-4.861283898353576660e-01 -2.054827809333801270e-01 -2.543225884437561035e-02
-4.748827219009399414e-01 -1.272660195827484131e-01 8.251444250345230103e-02
-5.388790369033813477e-01 -1.536826491355895996e-01 -1.635290309786796570e-02
-4.623631834983825684e-01 -1.857437640428543091e-01 -8.556547015905380249e-02
-5.144681334495544434e-01 -1.076029464602470398e-01 7.864072918891906738e-02
-4.012472033500671387e-01 -2.042215913534164429e-01 9.039713442325592041e-02
-4.374600350856781006e-01 -2.369435429573059082e-01 5.349848791956901550e-02
-4.140896201133728027e-01 -2.352439463138580322e-01 8.128438889980316162e-02
-3.925430178642272949e-01 -1.744646430015563965e-01 7.229539100080728531e-03
-4.350523352622985840e-01 -1.892057657241821289e-01 -8.357314765453338623e-02
-3.901550173759460449e-01 -1.917990744113922119e-01 -4.159069061279296875e-02
-4.973915815353393555e-01 -8.694476634263992310e-02 -2.887617610394954681e-02
-5.905545949935913086e-01 -7.459446787834167480e-02 -1.962696388363838196e-02
-4.184653460979461670e-01 -1.830550730228424072e-01 -7.099817693233489990e-02
-3.687105774879455566e-01 -2.097116410732269287e-01 5.465327948331832886e-02
-3.716473579406738281e-01 -2.770224809646606445e-01 -3.188059478998184204e-02
-3.733868896961212158e-01 -2.504923045635223389e-01 -5.568190664052963257e-02
-4.782545566558837891e-01 -1.559604406356811523e-01 9.295818954706192017e-02
-5.854101181030273438e-01 -8.795270323753356934e-02 -4.237678833305835724e-03
-5.267285108566284180e-01 -8.331168442964553833e-02 -6.208838522434234619e-02
-3.880667388439178467e-01 -2.757876515388488770e-01 -1.827721670269966125e-02
-4.290803074836730957e-01 -2.529913783073425293e-01 9.967482648789882660e-03
-5.105022192001342773e-01 -1.627296805381774902e-01 6.343133747577667236e-02
-4.163063168525695801e-01 -2.572935521602630615e-01 -3.002260066568851471e-02
-4.174866080284118652e-01 -1.595197468996047974e-01 6.296796351671218872e-02
-4.614467620849609375e-01 -1.602098494768142700e-01 9.522192925214767456e-02
-5.301706790924072266e-01 -1.557931005954742432e-01 -4.871761798858642578e-02
-5.435129404067993164e-01 -1.133968904614448547e-01 6.396003067493438721e-02
-4.711017906665802002e-01 -1.616426259279251099e-01 9.424482285976409912e-02
-4.820621907711029053e-01 -2.083251476287841797e-01 2.387540042400360107e-02
-4.521484375000000000e-01 -2.354942560195922852e-01 -1.135668810456991196e-02
-5.343387126922607422e-01 -1.584578007459640503e-01 4.665074869990348816e-03
-3.902964293956756592e-01 -1.940222531557083130e-01 7.255974411964416504e-02
-5.040844082832336426e-01 -9.333521127700805664e-02 6.159969791769981384e-02
-5.796945095062255859e-01 -7.881107926368713379e-02 3.049483895301818848e-02
-5.407555103302001953e-01 -5.735988169908523560e-02 -6.777473725378513336e-03
-4.535075128078460693e-01 -2.342116832733154297e-01 1.377332955598831177e-02
-4.472008049488067627e-01 -2.363141775131225586e-01 -3.010858409106731415e-02
-5.129415392875671387e-01 -7.704168558120727539e-02 3.553165867924690247e-02
-5.910067558288574219e-01 -5.731561034917831421e-02 5.056988447904586792e-03
-5.514136552810668945e-01 -1.326140910387039185e-01 -4.382336884737014771e-02
-4.162730276584625244e-01 -2.537137269973754883e-01 -4.048112779855728149e-02
-4.511325657367706299e-01 -1.804908514022827148e-01 -8.696291595697402954e-02
-4.789985120296478271e-01 -1.787784993648529053e-01 -8.304269611835479736e-02
-4.083203077316284180e-01 -1.875243335962295532e-01 8.637325465679168701e-02
-4.628811478614807129e-01 -2.199060171842575073e-01 4.397070407867431641e-02
-4.529613852500915527e-01 -2.323371022939682007e-01 2.892750129103660583e-02
-3.325850963592529297e-01 -2.581598460674285889e-01 1.413288433104753494e-02
-5.050908327102661133e-01 -1.069199964404106140e-01 -7.480327039957046509e-02
-5.374107360839843750e-01 -1.397057920694351196e-01 4.887279868125915527e-02
-4.040843844413757324e-01 -2.123296260833740234e-01 -7.306510955095291138e-02
-5.181964635848999023e-01 -6.947366893291473389e-02 5.774699151515960693e-03
-4.232549965381622314e-01 -1.486854702234268188e-01 4.929175227880477905e-02
-4.082264304161071777e-01 -2.640808522701263428e-01 -2.238688804209232330e-02
-3.970976173877716064e-01 -1.875645965337753296e-01 7.431116700172424316e-02
-4.489268958568572998e-01 -1.677996516227722168e-01 -8.384529501199722290e-02
-5.108256936073303223e-01 -7.753067463636398315e-02 -2.756675519049167633e-02
-3.412360250949859619e-01 -2.557390332221984863e-01 5.367752909660339355e-02
-5.379775166511535645e-01 -1.002876162528991699e-01 -7.765690982341766357e-02
-3.349303007125854492e-01 -2.637630701065063477e-01 4.469315707683563232e-02
-4.688336849212646484e-01 -2.217018157243728638e-01 -1.528827659785747528e-02
-3.532675504684448242e-01 -2.857095599174499512e-01 4.451312124729156494e-02
-3.574340939521789551e-01 -2.884671390056610107e-01 3.418528661131858826e-02
-5.808755159378051758e-01 -8.888292312622070312e-02 1.858178526163101196e-02
-3.764437735080718994e-01 -2.361629903316497803e-01 8.379274606704711914e-02
-4.765192568302154541e-01 -1.173261553049087524e-01 7.287264615297317505e-02
-3.539835214614868164e-01 -2.393961846828460693e-01 -3.182820603251457214e-02
-3.567066788673400879e-01 -2.907033860683441162e-01 2.400990761816501617e-02
-4.208371937274932861e-01 -1.461689323186874390e-01 -7.346214260905981064e-04
-3.785785436630249023e-01 -2.698200941085815430e-01 6.070606037974357605e-02
-5.517196655273437500e-01 -1.385612636804580688e-01 -1.528494060039520264e-02
-5.174789428710937500e-01 -1.439423263072967529e-01 -8.039160072803497314e-02
-4.305931925773620605e-01 -2.326959669589996338e-01 7.082334160804748535e-02
-3.460204601287841797e-01 -2.331841289997100830e-01 2.352676913142204285e-02
-5.715681314468383789e-01 -5.638584494590759277e-02 -4.157995432615280151e-02
-3.328116536140441895e-01 -2.663983702659606934e-01 -5.128082819283008575e-03
-4.161004126071929932e-01 -1.577352732419967651e-01 -3.146824613213539124e-02
-5.280041694641113281e-01 -1.609827131032943726e-01 2.753442339599132538e-02
-4.452604353427886963e-01 -1.236452013254165649e-01 1.934438012540340424e-02
-4.850500226020812988e-01 -1.919927299022674561e-01 6.050192937254905701e-02
-4.173377156257629395e-01 -2.612163424491882324e-01 5.055714398622512817e-03
-4.012804031372070312e-01 -2.545977234840393066e-01 6.697770953178405762e-02
-5.335112214088439941e-01 -6.759084761142730713e-02 3.828577324748039246e-02
-5.535733699798583984e-01 -8.949381113052368164e-02 5.968476831912994385e-02
-4.513349533081054688e-01 -2.213139533996582031e-01 6.277939677238464355e-02
-4.611297845840454102e-01 -1.204666942358016968e-01 -4.449236392974853516e-02
-4.968144893646240234e-01 -1.181868389248847961e-01 -7.968338578939437866e-02
-5.450091361999511719e-01 -9.602239727973937988e-02 6.589043140411376953e-02
-4.866566061973571777e-01 -1.205250322818756104e-01 -7.561123371124267578e-02
-4.784730672836303711e-01 -9.902469068765640259e-02 3.304437175393104553e-02
-4.210389256477355957e-01 -2.376972436904907227e-01 7.334158569574356079e-02
-5.449327230453491211e-01 -6.160365790128707886e-02 3.409143909811973572e-02
-5.288288593292236328e-01 -1.478271931409835815e-01 -6.508775800466537476e-02
-4.513703286647796631e-01 -1.223822310566902161e-01 -2.515485696494579315e-02
-4.125286936759948730e-01 -2.506565451622009277e-01 6.195468083024024963e-02
-5.278118252754211426e-01 -1.656491905450820923e-01 4.981925711035728455e-03
-4.444857239723205566e-01 -1.261505484580993652e-01 3.427892923355102539e-02
-4.542355835437774658e-01 -2.201757133007049561e-01 -5.850978195667266846e-02
-4.737873375415802002e-01 -1.367318481206893921e-01 8.878041058778762817e-02
-4.822686910629272461e-01 -1.854977607727050781e-01 -7.554806023836135864e-02
-3.808463513851165771e-01 -2.246059477329254150e-01 -5.897689610719680786e-02
-5.735253095626831055e-01 -8.651360869407653809e-02 -5.496979877352714539e-02
-5.453974008560180664e-01 -1.462380141019821167e-01 -1.458622328937053680e-02
-4.048992097377777100e-01 -1.656483411788940430e-01 4.640140011906623840e-02
-3.939022421836853027e-01 -1.753345727920532227e-01 -1.030519697815179825e-02
-4.034683406352996826e-01 -1.942989230155944824e-01 -6.419123709201812744e-02
-4.390777051448822021e-01 -1.288003921508789062e-01 1.422232296317815781e-02
-3.550687432289123535e-01 -2.196427881717681885e-01 1.559044420719146729e-02
-4.793354272842407227e-01 -2.127035260200500488e-01 -1.586453989148139954e-02
-3.589705228805541992e-01 -2.316388636827468872e-01 -3.366646915674209595e-02
-3.650198876857757568e-01 -2.067346125841140747e-01 2.541781961917877197e-02
-4.824225306510925293e-01 -1.367200016975402832e-01 9.017229825258255005e-02
-3.857260942459106445e-01 -2.794057130813598633e-01 -3.073316765949130058e-03
-5.350500345230102539e-01 -1.562310457229614258e-01 1.429243106395006180e-02
-5.816479921340942383e-01 -6.308738887310028076e-02 -4.369620233774185181e-02
-4.028555154800415039e-01 -2.693432867527008057e-01 -1.039285585284233093e-02
-4.780799150466918945e-01 -1.082141697406768799e-01 5.971356108784675598e-02
-4.536865949630737305e-01 -1.196826100349426270e-01 4.003001376986503601e-02
-4.614906907081604004e-01 -1.101295426487922668e-01 -2.437680726870894432e-03
-4.494202435016632080e-01 -2.380882203578948975e-01 1.429152442142367363e-03
-4.694397747516632080e-01 -1.072698906064033508e-01 -2.546664327383041382e-02
-4.161261916160583496e-01 -2.552344202995300293e-01 4.591058939695358276e-02
-5.816081762313842773e-01 -4.688522964715957642e-02 -3.929153084754943848e-03
-4.138840734958648682e-01 -1.671585589647293091e-01 -4.677239060401916504e-02
-5.569929480552673340e-01 -1.218663603067398071e-01 3.325156867504119873e-02
-5.037053227424621582e-01 -1.762273460626602173e-01 -6.235916912555694580e-02
-4.541443884372711182e-01 -1.700520515441894531e-01 9.628680348396301270e-02
-5.284188389778137207e-01 -6.632121652364730835e-02 2.621995471417903900e-02
-5.365324616432189941e-01 -1.404682099819183350e-01 -6.267867237329483032e-02
-4.908656775951385498e-01 -1.470097601413726807e-01 8.989665657281875610e-02
-3.771824538707733154e-01 -1.957546621561050415e-01 4.569286480545997620e-02
-5.438365340232849121e-01 -1.201751828193664551e-01 -7.203151285648345947e-02
-4.312423467636108398e-01 -2.495648860931396484e-01 2.634571306407451630e-02
-5.332999229431152344e-01 -1.232378929853439331e-01 -7.902725040912628174e-02
-4.276326894760131836e-01 -1.419773697853088379e-01 3.907195478677749634e-02
-3.481974005699157715e-01 -2.931530773639678955e-01 1.160640455782413483e-02
-5.424319505691528320e-01 -1.074314191937446594e-01 -7.702433317899703979e-02
-3.655258417129516602e-01 -2.166452109813690186e-01 5.948796495795249939e-02
-3.718118667602539062e-01 -2.001441270112991333e-01 3.772496059536933899e-02
-3.458294868469238281e-01 -2.340762913227081299e-01 7.312237285077571869e-03
-4.662612676620483398e-01 -1.093704625964164734e-01 3.853404894471168518e-02
-3.814274370670318604e-01 -2.813346982002258301e-01 2.108218707144260406e-02
-5.019358992576599121e-01 -1.000461131334304810e-01 -6.473605334758758545e-02
-5.603088140487670898e-01 -1.238747537136077881e-01 1.709562912583351135e-02
-5.256969928741455078e-01 -6.997379660606384277e-02 3.475397825241088867e-02
-4.051415920257568359e-01 -1.610820740461349487e-01 9.571784175932407379e-03
-3.374239802360534668e-01 -2.545800507068634033e-01 -7.206801325082778931e-03
-4.843817949295043945e-01 -2.087462991476058960e-01 2.095606643706560135e-03
-4.443827867507934570e-01 -1.496270447969436646e-01 -6.703803688287734985e-02
-4.851242005825042725e-01 -1.899330019950866699e-01 -6.743454933166503906e-02
-5.230042338371276855e-01 -1.266105771064758301e-01 7.692573964595794678e-02
-4.029799103736877441e-01 -2.460438013076782227e-01 -6.183145195245742798e-02
-5.292351841926574707e-01 -1.597590893507003784e-01 -4.073489457368850708e-02
-4.349840879440307617e-01 -1.532856822013854980e-01 7.850419729948043823e-02
-5.926350951194763184e-01 -5.708370357751846313e-02 -1.495272666215896606e-02
-3.781062960624694824e-01 -2.822878956794738770e-01 -8.289477787911891937e-03
-3.633424043655395508e-01 -2.648081779479980469e-01 7.043296843767166138e-02
-3.855648636817932129e-01 -2.121504843235015869e-01 8.313586562871932983e-02
-4.994769096374511719e-01 -8.168218284845352173e-02 1.307189837098121643e-02
-4.551632404327392578e-01 -1.993380039930343628e-01 -8.075936883687973022e-02
-4.294070303440093994e-01 -1.442515701055526733e-01 -3.090128488838672638e-02
-4.405106306076049805e-01 -1.751390546560287476e-01 9.593994915485382080e-02
-3.938664197921752930e-01 -2.689756155014038086e-01 4.617691412568092346e-02
-5.852211117744445801e-01 -6.679835170507431030e-02 2.259141393005847931e-02
-4.256146550178527832e-01 -1.581263691186904907e-01 -5.261116474866867065e-02
-3.489144146442413330e-01 -2.865200042724609375e-01 -1.679823175072669983e-02
-5.855109691619873047e-01 -8.176868408918380737e-02 1.256506424397230148e-02
-4.502116441726684570e-01 -1.482369452714920044e-01 8.613033592700958252e-02
-3.302508592605590820e-01 -2.861441969871520996e-01 6.908789277076721191e-03
-4.979599714279174805e-01 -8.631494641304016113e-02 3.608181700110435486e-02
-4.203467965126037598e-01 -1.700660884380340576e-01 -6.113830953836441040e-02
-3.930298089981079102e-01 -1.819202452898025513e-01 -2.886876277625560760e-02
-4.711500704288482666e-01 -2.197501063346862793e-01 1.171457208693027496e-02
-4.600375890731811523e-01 -2.296366393566131592e-01 -2.548854565247893333e-03
-4.396047890186309814e-01 -2.387906908988952637e-01 4.424895346164703369e-02
-5.604617595672607422e-01 -5.707071721553802490e-02 -4.020010307431221008e-02
-5.917453169822692871e-01 -6.047110259532928467e-02 -2.341517060995101929e-02
-3.740452229976654053e-01 -2.011339217424392700e-01 -1.870324648916721344e-02
-4.027740955352783203e-01 -2.665232717990875244e-01 3.691830113530158997e-02
-5.378060340881347656e-01 -5.870249867439270020e-02 3.463099477812647820e-03
-5.284497737884521484e-01 -1.410523355007171631e-01 6.214119866490364075e-02
-3.601039052009582520e-01 -2.182110249996185303e-01 4.755261912941932678e-02
-3.799903690814971924e-01 -2.593363523483276367e-01 -5.280506983399391174e-02
-5.592944622039794922e-01 -5.021753907203674316e-02 6.351064890623092651e-03
-3.912093937397003174e-01 -1.841929405927658081e-01 5.778991430997848511e-02
-3.646405637264251709e-01 -2.073630690574645996e-01 6.907491013407707214e-03
-4.803957343101501465e-01 -1.521527916193008423e-01 -8.891902118921279907e-02
-3.370965421199798584e-01 -2.487522065639495850e-01 1.176589261740446091e-02
-3.466010689735412598e-01 -2.787316441535949707e-01 -2.598140761256217957e-02
-5.679287314414978027e-01 -6.158982962369918823e-02 -4.914899542927742004e-02
-4.341656863689422607e-01 -2.016197443008422852e-01 -8.288504928350448608e-02
-4.033984839916229248e-01 -2.699441313743591309e-01 1.047647465020418167e-02
-3.959069848060607910e-01 -2.691084444522857666e-01 -2.849617786705493927e-02
-5.431914329528808594e-01 -5.731279402971267700e-02 -1.779460720717906952e-02
-4.086257219314575195e-01 -2.022511661052703857e-01 -7.321727275848388672e-02
-4.018980562686920166e-01 -1.889128684997558594e-01 -5.732681229710578918e-02
-4.993057548999786377e-01 -1.930011361837387085e-01 1.900446228682994843e-02
-3.611961901187896729e-01 -2.853431105613708496e-01 -1.814554259181022644e-02
-3.342941999435424805e-01 -2.862369418144226074e-01 -4.051137715578079224e-03
-5.613884329795837402e-01 -1.125083565711975098e-01 3.725207224488258362e-02
-4.128172993659973145e-01 -2.629421949386596680e-01 -1.341240666806697845e-02
-5.714626312255859375e-01 -1.103521212935447693e-01 6.484743207693099976e-03
-4.805659949779510498e-01 -9.554722905158996582e-02 2.006900310516357422e-02
-3.736344873905181885e-01 -2.833579778671264648e-01 3.125541657209396362e-02
-5.284522175788879395e-01 -1.634136736392974854e-01 -2.968551032245159149e-02
-5.012971758842468262e-01 -1.891039609909057617e-01 2.803841419517993927e-02
-3.583759367465972900e-01 -2.158741801977157593e-01 5.345208570361137390e-03
-5.123871564865112305e-01 -9.427716583013534546e-02 -6.596035510301589966e-02
-4.616391062736511230e-01 -2.201381921768188477e-01 -4.687837883830070496e-02
-4.569863379001617432e-01 -1.661944985389709473e-01 -8.657389134168624878e-02
-3.599074780941009521e-01 -2.130449712276458740e-01 1.911607012152671814e-02
-5.005807280540466309e-01 -1.872984766960144043e-01 3.665700927376747131e-02
-4.385028481483459473e-01 -1.487395316362380981e-01 -5.832801759243011475e-02
-3.535991609096527100e-01 -2.272129803895950317e-01 4.655243828892707825e-02
-5.323345065116882324e-01 -6.641846895217895508e-02 -3.378164023160934448e-02
-5.316078662872314453e-01 -1.620559096336364746e-01 -1.142925024032592773e-02
-4.821547567844390869e-01 -2.069696933031082153e-01 -3.506733477115631104e-02
-4.893437623977661133e-01 -1.829429268836975098e-01 -7.161860167980194092e-02
-3.699603378772735596e-01 -2.002508044242858887e-01 1.273900642991065979e-02
-4.285095036029815674e-01 -2.485835552215576172e-01 3.938489779829978943e-02
-3.760583698749542236e-01 -2.813717424869537354e-01 -1.671762019395828247e-02
-5.798140168190002441e-01 -8.633689582347869873e-02 -4.410471022129058838e-02
-4.034629464149475098e-01 -2.691709995269775391e-01 2.014248631894588470e-02
-3.606054782867431641e-01 -2.570206820964813232e-01 7.368816435337066650e-02
-4.625072479248046875e-01 -1.305273622274398804e-01 -6.435819715261459351e-02
-4.730672240257263184e-01 -1.958562582731246948e-01 7.198233157396316528e-02
-3.945086002349853516e-01 -2.466195523738861084e-01 8.026835322380065918e-02
-5.063853859901428223e-01 -1.490229815244674683e-01 -8.456408232450485229e-02
-5.022004842758178711e-01 -1.856387257575988770e-01 -4.550123214721679688e-02
-3.854541778564453125e-01 -1.886444985866546631e-01 5.295482277870178223e-02
-5.303994417190551758e-01 -1.364243924617767334e-01 -7.442621141672134399e-02
-5.609861612319946289e-01 -1.138082668185234070e-01 -5.357955396175384521e-02
-3.621342182159423828e-01 -2.148304879665374756e-01 -1.244431361556053162e-02
-3.978922069072723389e-01 -2.629020512104034424e-01 -4.139431938529014587e-02
-4.760538041591644287e-01 -2.089162468910217285e-01 4.206857457756996155e-02
-5.923140048980712891e-01 -6.980004161596298218e-02 -7.714431732892990112e-03
-3.924592137336730957e-01 -2.135341465473175049e-01 8.857019990682601929e-02
-3.727810680866241455e-01 -2.163553535938262939e-01 -4.231350123882293701e-02
-4.469617605209350586e-01 -2.301306575536727905e-01 5.194124206900596619e-02
-5.024560093879699707e-01 -1.308784782886505127e-01 -8.699236065149307251e-02
-5.428383946418762207e-01 -7.923151552677154541e-02 5.927827209234237671e-02
-5.044906139373779297e-01 -1.895989924669265747e-01 6.287411786615848541e-03
-4.653680920600891113e-01 -1.238892972469329834e-01 -5.818622559309005737e-02
-5.486097335815429688e-01 -1.408512443304061890e-01 1.021575182676315308e-02
-3.714570701122283936e-01 -2.035127282142639160e-01 4.811459034681320190e-02
-4.940584003925323486e-01 -1.573313921689987183e-01 8.506926894187927246e-02
-4.702446758747100830e-01 -1.859636604785919189e-01 8.467686176300048828e-02
-5.806852579116821289e-01 -9.704270958900451660e-02 -4.944060929119586945e-03
-5.053954124450683594e-01 -7.867829501628875732e-02 2.145226672291755676e-02
-5.467445254325866699e-01 -1.334614455699920654e-01 3.853784874081611633e-02
-4.445957541465759277e-01 -2.129042446613311768e-01 8.158372342586517334e-02
-3.449730277061462402e-01 -2.914497256278991699e-01 2.992700412869453430e-02
-5.816376805305480957e-01 -5.480375140905380249e-02 -3.540231660008430481e-02
-5.736386775970458984e-01 -5.842777341604232788e-02 3.137425333261489868e-02
-4.453465640544891357e-01 -1.428890526294708252e-01 7.642818242311477661e-02
-4.696047604084014893e-01 -1.037218123674392700e-01 1.897780224680900574e-02
-4.598200023174285889e-01 -2.125665247440338135e-01 6.535207480192184448e-02
-3.540434539318084717e-01 -2.504837512969970703e-01 6.953048706054687500e-02
-3.597937822341918945e-01 -2.906812429428100586e-01 9.184616617858409882e-03
-4.896101653575897217e-01 -1.954197883605957031e-01 4.417768120765686035e-02
-3.932850956916809082e-01 -2.108423858880996704e-01 -6.446353346109390259e-02
-4.985419809818267822e-01 -1.783525645732879639e-01 6.020776927471160889e-02
-5.011513829231262207e-01 -1.524805128574371338e-01 8.238208293914794922e-02
-4.615862965583801270e-01 -2.014337927103042603e-01 7.812608778476715088e-02
-5.419008135795593262e-01 -1.213979274034500122e-01 6.114574149250984192e-02
-5.675001144409179688e-01 -1.171130836009979248e-01 -2.162441052496433258e-02
-5.258961319923400879e-01 -1.003710627555847168e-01 -7.760286331176757812e-02
-4.859246611595153809e-01 -9.115087240934371948e-02 1.380785088986158371e-02
-5.759609937667846680e-01 -1.050504222512245178e-01 -1.530347391963005066e-02
-5.570645332336425781e-01 -5.648005753755569458e-02 2.951744198799133301e-02
-3.994519710540771484e-01 -2.521232068538665771e-01 -5.667334049940109253e-02
-3.899740874767303467e-01 -2.595595717430114746e-01 6.846421957015991211e-02
-4.324161112308502197e-01 -1.360200345516204834e-01 2.987126819789409637e-02
-3.550232648849487305e-01 -2.223823815584182739e-01 3.855753690004348755e-02
-4.934255480766296387e-01 -8.753967285156250000e-02 -1.842881739139556885e-02
-5.152040123939514160e-01 -1.765851527452468872e-01 -3.267193213105201721e-02
-5.857291221618652344e-01 -8.712922036647796631e-02 -1.816545613110065460e-02
-5.265777111053466797e-01 -6.468579918146133423e-02 6.468603387475013733e-03
-5.687529444694519043e-01 -8.005546778440475464e-02 4.591545835137367249e-02
-4.758036136627197266e-01 -9.858699887990951538e-02 1.286316476762294769e-02
-4.628672003746032715e-01 -1.448608636856079102e-01 -7.923012226819992065e-02
-4.851284325122833252e-01 -1.403960883617401123e-01 -8.707965910434722900e-02
-3.883474171161651611e-01 -2.402849793434143066e-01 8.543150871992111206e-02
-5.254727005958557129e-01 -1.196405291557312012e-01 -8.314792066812515259e-02
-4.245618879795074463e-01 -2.480110079050064087e-01 -4.223803430795669556e-02
-4.426787495613098145e-01 -1.359378695487976074e-01 6.101899594068527222e-02
-4.589567482471466064e-01 -2.254880964756011963e-01 -3.728329390287399292e-02
-4.382416307926177979e-01 -2.278330177068710327e-01 6.942979246377944946e-02
-3.799470365047454834e-01 -2.087627500295639038e-01 -4.597229883074760437e-02
-4.308019876480102539e-01 -2.402056008577346802e-01 -5.080691352486610413e-02
-4.303013086318969727e-01 -1.401483118534088135e-01 -1.934484764933586121e-02
-5.915910005569458008e-01 -5.429235845804214478e-02 -2.829272998496890068e-03
-3.564067780971527100e-01 -2.448398470878601074e-01 -3.969458490610122681e-02
-5.536483526229858398e-01 -6.202882528305053711e-02 3.955457359552383423e-02
-4.059149324893951416e-01 -2.394534945487976074e-01 8.174932748079299927e-02
-4.929232597351074219e-01 -1.914722025394439697e-01 -5.250777676701545715e-02
-4.843961000442504883e-01 -1.306084990501403809e-01 -8.211377263069152832e-02
-4.452222883701324463e-01 -2.274989187717437744e-01 6.058759987354278564e-02
-3.465142250061035156e-01 -2.534991502761840820e-01 6.141074746847152710e-02
-4.119031727313995361e-01 -1.886457800865173340e-01 -6.871603429317474365e-02
-4.451979994773864746e-01 -2.193989306688308716e-01 7.353349030017852783e-02
-5.741750597953796387e-01 -5.009159445762634277e-02 1.629563048481941223e-02
-4.751067459583282471e-01 -2.011521905660629272e-01 6.121173128485679626e-02
-5.487448573112487793e-01 -1.423904001712799072e-01 -7.937437854707241058e-03
-4.843098521232604980e-01 -1.101879253983497620e-01 -6.090717762708663940e-02
-4.213660359382629395e-01 -1.967847496271133423e-01 -7.919168472290039062e-02
-4.072476625442504883e-01 -1.747210025787353516e-01 7.171528041362762451e-02
-5.773465633392333984e-01 -6.958378106355667114e-02 -5.091427639126777649e-02
-4.225501418113708496e-01 -2.334710061550140381e-01 -6.689611822366714478e-02
-3.855993747711181641e-01 -2.277203351259231567e-01 8.756569027900695801e-02
-4.676789343357086182e-01 -1.325631290674209595e-01 8.323560655117034912e-02
-4.321303367614746094e-01 -1.712558418512344360e-01 9.164378046989440918e-02
5.964421033859252930e-01 4.297626018524169922e-02 1.524764392524957657e-02
7.467610836029052734e-01 2.714480757713317871e-01 1.359814777970314026e-02
7.337091565132141113e-01 2.567153871059417725e-01 4.170857369899749756e-02
3.661586642265319824e-01 2.232816517353057861e-01 -4.536980763077735901e-02
5.444074273109436035e-01 1.723608523607254028e-01 9.910909831523895264e-02
8.457639217376708984e-01 9.149341285228729248e-02 -1.011795178055763245e-02
8.028055429458618164e-01 8.143132925033569336e-02 2.944529429078102112e-02
3.291150331497192383e-01 1.656726300716400146e-01 5.585880950093269348e-02
4.953187108039855957e-01 1.117909252643585205e-01 8.574928343296051025e-02
4.704924821853637695e-01 2.016242593526840210e-01 9.324698895215988159e-02
6.994810104370117188e-01 8.319353312253952026e-02 -6.322985887527465820e-02
5.646319985389709473e-01 1.903225481510162354e-01 -9.213465452194213867e-02
5.703301429748535156e-01 1.343016624450683594e-01 9.586917608976364136e-02
7.807408571243286133e-01 7.896120846271514893e-02 3.866574913263320923e-02
6.515135169029235840e-01 2.506417036056518555e-01 -7.884898036718368530e-02
4.326159358024597168e-01 9.069429337978363037e-02 -2.747179381549358368e-02
8.399109244346618652e-01 1.292929500341415405e-01 -5.565251782536506653e-02
3.463226556777954102e-01 2.269967198371887207e-01 -3.412953391671180725e-02
6.825565695762634277e-01 9.100862592458724976e-02 7.313391566276550293e-02
7.809295058250427246e-01 1.013787984848022461e-01 -6.244618445634841919e-02
4.582611024379730225e-01 2.531767189502716064e-01 -6.390941888093948364e-02
8.202978372573852539e-01 1.154736429452896118e-01 4.431881755590438843e-02
8.043618202209472656e-01 2.426971048116683960e-01 1.675066538155078888e-02
7.407646775245666504e-01 1.679142117500305176e-01 -8.796846866607666016e-02
3.567055463790893555e-01 1.103359162807464600e-01 1.531922817230224609e-02
3.515034317970275879e-01 1.430724263191223145e-01 6.024451926350593567e-02
8.468585014343261719e-01 9.504780918359756470e-02 -2.125966548919677734e-02
5.976369380950927734e-01 9.335734695196151733e-02 -6.934139132499694824e-02
6.354183554649353027e-01 2.966794371604919434e-01 -3.431154042482376099e-02
5.510914325714111328e-01 2.412919104099273682e-01 -8.206945657730102539e-02
4.996912479400634766e-01 3.004990220069885254e-01 -2.669651247560977936e-02
8.824323415756225586e-01 1.379511058330535889e-01 -2.064029872417449951e-02
7.195816040039062500e-01 6.560457497835159302e-02 -4.434666037559509277e-02
7.387602925300598145e-01 2.354963272809982300e-01 5.647014454007148743e-02
6.333864927291870117e-01 2.347184419631958008e-01 7.979471236467361450e-02
6.494208574295043945e-01 2.858793437480926514e-01 -5.002249032258987427e-02
7.606809139251708984e-01 2.715626060962677002e-01 -1.733130402863025665e-02
5.620303153991699219e-01 1.896370500326156616e-01 9.762651473283767700e-02
4.579534828662872314e-01 9.127471596002578735e-02 -3.931858390569686890e-02
7.345853447914123535e-01 5.713152885437011719e-02 -2.775190025568008423e-02
3.798592686653137207e-01 2.596287727355957031e-01 -3.362908586859703064e-02
6.627268195152282715e-01 1.757920086383819580e-01 9.107778221368789673e-02
7.985637187957763672e-01 2.337787449359893799e-01 3.140927106142044067e-02
7.043297290802001953e-01 2.340818494558334351e-01 -8.109552413225173950e-02
4.281259477138519287e-01 1.049251854419708252e-01 -3.973439335823059082e-02
7.012751102447509766e-01 1.151476800441741943e-01 -8.076493442058563232e-02
7.125657200813293457e-01 6.902554631233215332e-02 -4.930118843913078308e-02
4.951761066913604736e-01 6.394730508327484131e-02 4.394124820828437805e-02
6.440092921257019043e-01 1.797341853380203247e-01 9.305113554000854492e-02
5.312384366989135742e-01 2.509897947311401367e-01 7.883013039827346802e-02
7.418911457061767578e-01 5.253092944622039795e-02 -9.864658117294311523e-03
7.366737723350524902e-01 6.613973528146743774e-02 -4.164451360702514648e-02
4.348654448986053467e-01 7.331100106239318848e-02 1.446322165429592133e-02
7.582464814186096191e-01 5.530180782079696655e-02 3.321009222418069839e-03
6.704747676849365234e-01 1.221804767847061157e-01 8.627900481224060059e-02
6.912369132041931152e-01 1.487525403499603271e-01 8.718154579401016235e-02
6.945618987083435059e-01 2.366382628679275513e-01 -8.128982037305831909e-02
7.653254270553588867e-01 1.245874091982841492e-01 6.761708855628967285e-02
6.066036224365234375e-01 6.496404111385345459e-02 -4.658752307295799255e-02
6.960886716842651367e-01 2.613816261291503906e-01 5.036848410964012146e-02
5.394297242164611816e-01 3.024740219116210938e-01 2.514428831636905670e-02
7.817272543907165527e-01 1.362032890319824219e-01 -7.654030621051788330e-02
5.536904335021972656e-01 5.805118381977081299e-02 4.928318783640861511e-02
7.397736310958862305e-01 1.325588822364807129e-01 7.583190500736236572e-02
5.464500188827514648e-01 2.235476523637771606e-01 9.041454643011093140e-02
6.738684773445129395e-01 2.271279990673065186e-01 -8.688854426145553589e-02
3.271073102951049805e-01 1.492815762758255005e-01 4.644211754202842712e-02
7.127439379692077637e-01 2.571725845336914062e-01 -6.635603308677673340e-02
3.691388964653015137e-01 1.860701590776443481e-01 7.609647512435913086e-02
5.945850014686584473e-01 9.925043582916259766e-02 8.449792116880416870e-02
7.771529555320739746e-01 1.470466554164886475e-01 -7.975010573863983154e-02
7.865009307861328125e-01 2.219010889530181885e-01 4.652401804924011230e-02
3.742788136005401611e-01 2.501248121261596680e-01 5.669763311743736267e-02
7.639639377593994141e-01 1.337754577398300171e-01 6.978356093168258667e-02
6.733427047729492188e-01 1.911768019199371338e-01 8.749999850988388062e-02
6.347003579139709473e-01 1.598955243825912476e-01 -9.368042647838592529e-02
4.928973317146301270e-01 1.507265716791152954e-01 -7.888852059841156006e-02
7.543524503707885742e-01 1.307916492223739624e-01 7.190254330635070801e-02
6.395025253295898438e-01 7.206437736749649048e-02 6.577856838703155518e-02
5.118312835693359375e-01 1.224001720547676086e-01 -7.304068654775619507e-02
7.586013674736022949e-01 2.034941464662551880e-01 6.521643698215484619e-02
7.561762928962707520e-01 5.981662869453430176e-02 2.358003519475460052e-02
7.295919656753540039e-01 5.558626353740692139e-02 2.856606617569923401e-02
7.874894738197326660e-01 2.315699905157089233e-01 3.943151608109474182e-02
4.071246981620788574e-01 1.353555619716644287e-01 -5.080762878060340881e-02
6.969889402389526367e-01 2.910563051700592041e-01 -8.504226803779602051e-03
5.573120713233947754e-01 5.104734003543853760e-02 -1.536656916141510010e-02
6.666110157966613770e-01 2.971931695938110352e-01 -2.956442302092909813e-03
4.493188560009002686e-01 1.238019168376922607e-01 8.386720716953277588e-02
5.564326047897338867e-01 2.130274921655654907e-01 9.328175336122512817e-02
6.566615104675292969e-01 4.217205941677093506e-02 8.714693831279873848e-04
5.952250957489013672e-01 2.841787040233612061e-01 4.921160265803337097e-02
6.720300912857055664e-01 4.284298419952392578e-02 8.529908955097198486e-03
6.590929627418518066e-01 2.638808786869049072e-01 5.759575217962265015e-02
3.951393961906433105e-01 1.992175579071044922e-01 -5.983281880617141724e-02
8.735876083374023438e-01 1.892868429422378540e-01 -2.843511663377285004e-02
4.106063246726989746e-01 2.763652503490447998e-01 4.456147551536560059e-02
8.078304529190063477e-01 9.672305732965469360e-02 4.045438021421432495e-02
6.279271841049194336e-01 1.534187197685241699e-01 -9.267459809780120850e-02
6.045351028442382812e-01 2.828355431556701660e-01 -5.821404233574867249e-02
4.211063385009765625e-01 9.995187073945999146e-02 -3.195093572139739990e-02
4.520085453987121582e-01 1.832362264394760132e-01 9.334124624729156494e-02
4.519409537315368652e-01 2.967420518398284912e-01 -1.715534739196300507e-02
4.068198204040527344e-01 8.961543440818786621e-02 4.066182300448417664e-02
3.162309825420379639e-01 2.102549970149993896e-01 4.678350314497947693e-02
6.264739036560058594e-01 7.594162225723266602e-02 6.967794150114059448e-02
5.785508751869201660e-01 3.015397191047668457e-01 2.411838807165622711e-02
3.911719918251037598e-01 2.500865459442138672e-01 -4.524259269237518311e-02
6.547433137893676758e-01 2.965605258941650391e-01 -2.753279916942119598e-02
8.739010691642761230e-01 1.223160922527313232e-01 -2.257562987506389618e-02
5.946657061576843262e-01 2.092385888099670410e-01 9.242930263280868530e-02
4.074234366416931152e-01 1.973450779914855957e-01 -6.384817510843276978e-02
6.412426233291625977e-01 1.808775812387466431e-01 -9.497801959514617920e-02
5.743289589881896973e-01 1.911650896072387695e-01 9.703215211629867554e-02
6.247544884681701660e-01 2.967746853828430176e-01 -3.660641983151435852e-02
6.774525642395019531e-01 2.210403084754943848e-01 7.855927199125289917e-02
6.026924848556518555e-01 1.774690449237823486e-01 9.697332233190536499e-02
3.798339366912841797e-01 1.942304074764251709e-01 7.878214120864868164e-02
6.568205356597900391e-01 2.027029097080230713e-01 -9.324144572019577026e-02
4.863582253456115723e-01 7.185175269842147827e-02 5.365553125739097595e-02
5.792952775955200195e-01 2.134902626276016235e-01 -9.094967693090438843e-02
8.829990029335021973e-01 1.668512821197509766e-01 -2.542507275938987732e-02
5.849583148956298828e-01 1.150239408016204834e-01 9.075543284416198730e-02
6.027468442916870117e-01 1.236309111118316650e-01 9.259045869112014771e-02
3.296021223068237305e-01 1.527519822120666504e-01 -1.667615771293640137e-02
6.080306172370910645e-01 1.112033575773239136e-01 -7.947921752929687500e-02
5.510456562042236328e-01 4.722848534584045410e-02 4.011315293610095978e-03
6.760517954826354980e-01 1.142254471778869629e-01 -8.165979385375976562e-02
4.884790182113647461e-01 2.117109447717666626e-01 -8.144774287939071655e-02
4.564815461635589600e-01 9.893954545259475708e-02 -4.559586197137832642e-02
7.239944338798522949e-01 1.875424981117248535e-01 -8.970121294260025024e-02
6.652221679687500000e-01 2.493285238742828369e-01 -7.842362672090530396e-02
3.764235973358154297e-01 2.470738291740417480e-01 -4.052961990237236023e-02
6.289085745811462402e-01 2.873691916465759277e-01 -5.114061757922172546e-02
3.436458706855773926e-01 2.485277503728866577e-01 4.207899793982505798e-02
8.301107287406921387e-01 8.216844499111175537e-02 -1.168299838900566101e-02
3.577745258808135986e-01 2.639749050140380859e-01 -1.349175442010164261e-02
7.282962799072265625e-01 2.810441255569458008e-01 3.483473788946866989e-03
7.520633935928344727e-01 2.743936479091644287e-01 -1.987908780574798584e-02
7.437368035316467285e-01 2.546072006225585938e-01 3.959553316235542297e-02
3.743153214454650879e-01 2.771859467029571533e-01 1.794778369367122650e-02
5.031139850616455078e-01 2.835099399089813232e-01 -5.157420784235000610e-02
3.277474045753479004e-01 1.858170479536056519e-01 5.810545012354850769e-02
5.439565777778625488e-01 2.158727645874023438e-01 -8.797589689493179321e-02
