-1.805296540260314941e-01 -1.380051672458648682e-01 1.723508983850479126e-01
-2.433811128139495850e-01 1.506446301937103271e-02 9.524493664503097534e-02
-3.785869777202606201e-01 4.409476369619369507e-02 -1.909163966774940491e-02
-5.911692976951599121e-03 -7.776329666376113892e-02 -1.254611313343048096e-01
1.491834223270416260e-02 -1.090566068887710571e-01 -7.136668264865875244e-02
-1.619408726692199707e-01 -2.123816013336181641e-01 7.015191763639450073e-02
1.519943773746490479e-02 -1.011622995138168335e-01 -4.339125379920005798e-02
-7.087418437004089355e-02 -1.566805243492126465e-01 1.053653582930564880e-01
-2.850006818771362305e-01 3.712986409664154053e-02 -1.458461880683898926e-01
-4.116684794425964355e-01 -1.731064915657043457e-02 1.191769465804100037e-01
-3.235982060432434082e-01 3.215299546718597412e-02 -1.451587080955505371e-01
-3.284939527511596680e-01 4.577412456274032593e-02 -1.047602891921997070e-01
-3.393891453742980957e-01 -5.541808903217315674e-03 1.324641108512878418e-01
-7.186606526374816895e-03 -1.650000512599945068e-01 -4.055900499224662781e-02
-3.048040568828582764e-01 5.391771346330642700e-02 -3.276119381189346313e-02
-4.270039200782775879e-01 7.008038461208343506e-03 7.016430795192718506e-02
-3.587819635868072510e-02 -2.464139088988304138e-02 -8.353185653686523438e-02
-4.728379845619201660e-01 -7.716410607099533081e-02 8.136915415525436401e-02
-8.356118202209472656e-02 -1.678528785705566406e-01 -1.458011120557785034e-01
-2.858541011810302734e-01 -7.002680003643035889e-02 1.847403496503829956e-01
-1.663537621498107910e-01 3.658697009086608887e-02 -3.238651156425476074e-02
-1.282325834035873413e-01 -9.044183045625686646e-02 -2.192428708076477051e-01
-1.637175679206848145e-01 -2.040693163871765137e-02 -2.123064100742340088e-01
-1.642581373453140259e-01 -1.737484931945800781e-01 1.449229270219802856e-01
-1.643941402435302734e-01 -3.429745882749557495e-02 -2.206870317459106445e-01
-2.856448292732238770e-01 -7.967487722635269165e-02 1.877116709947586060e-01
-1.303957402706146240e-01 2.449502795934677124e-02 -1.038268432021141052e-01
-2.684910297393798828e-01 -1.792204678058624268e-01 1.464950293302536011e-01
-2.856718599796295166e-01 4.778153449296951294e-02 -1.123913228511810303e-01
-9.951382875442504883e-02 -4.778093099594116211e-02 1.032636836171150208e-01
-1.252852082252502441e-01 -2.146129310131072998e-01 2.903001569211483002e-02
-1.219564005732536316e-01 -1.551001518964767456e-02 -1.915500611066818237e-01
-2.000657171010971069e-01 -4.992172122001647949e-03 1.123649850487709045e-01
-7.044181227684020996e-02 -1.607399582862854004e-01 -1.489128321409225464e-01
-3.949064612388610840e-01 3.938433527946472168e-02 -1.295865420252084732e-02
-3.580962121486663818e-02 -1.690441370010375977e-01 5.184771120548248291e-02
-2.083719372749328613e-01 -2.609842643141746521e-02 -2.219548821449279785e-01
-2.045271247625350952e-01 1.813292503356933594e-03 1.037926673889160156e-01
-2.839598655700683594e-01 -2.066009938716888428e-01 6.474837660789489746e-02
-7.535234093666076660e-02 2.364598214626312256e-03 -6.798437982797622681e-02
-4.160428047180175781e-02 -1.724795401096343994e-01 5.533456057310104370e-02
-1.499778032302856445e-01 -1.567586660385131836e-01 -1.783419102430343628e-01
-6.186148524284362793e-02 -1.566658765077590942e-01 9.705813974142074585e-02
-2.137565016746520996e-01 -2.061162590980529785e-01 9.945809841156005859e-02
-1.110724955797195435e-01 -1.288465410470962524e-01 1.448777019977569580e-01
-3.819586634635925293e-01 -1.765975654125213623e-01 2.383544482290744781e-02
-2.260923385620117188e-03 -7.386345416307449341e-02 -1.126734018325805664e-01
-1.951057612895965576e-01 -2.067375183105468750e-01 -8.036163449287414551e-02
-2.879004180431365967e-01 2.124848961830139160e-02 9.228443354368209839e-02
-1.275617182254791260e-01 -1.126267239451408386e-01 1.546780019998550415e-01
-4.128774404525756836e-01 -1.166840940713882446e-01 -1.060497984290122986e-01
-5.798758566379547119e-02 -1.312533915042877197e-01 1.048242822289466858e-01
1.469410955905914307e-02 -1.173791065812110901e-01 -6.901083886623382568e-02
-3.003434538841247559e-01 -1.274795085191726685e-01 1.842327266931533813e-01
-1.543541252613067627e-01 -1.083502024412155151e-01 1.668100506067276001e-01
-1.060046702623367310e-01 1.527461409568786621e-02 -1.007016897201538086e-01
-4.321730136871337891e-01 -8.911662548780441284e-02 1.346164047718048096e-01
-4.172284901142120361e-02 -4.259815439581871033e-02 2.860194630920886993e-02
-1.322448253631591797e-02 -1.592898070812225342e-01 -8.850511163473129272e-02
-1.467565000057220459e-01 -1.286877840757369995e-01 -2.044403254985809326e-01
-2.033121883869171143e-01 1.870776712894439697e-02 -1.775978356599807739e-01
6.864115595817565918e-03 -7.431897521018981934e-02 -6.372252851724624634e-02
-2.243644446134567261e-01 -1.818264126777648926e-01 1.464703828096389771e-01
-2.063559442758560181e-01 -2.197101116180419922e-01 7.466288283467292786e-03
-2.229541540145874023e-01 3.155392408370971680e-02 -1.568169891834259033e-01
-3.488553464412689209e-01 -1.381371319293975830e-01 -1.392358839511871338e-01
-1.501156091690063477e-01 3.292962908744812012e-02 -4.556790739297866821e-02
-4.295772314071655273e-01 -8.029018342494964600e-02 1.383565217256546021e-01
-2.261869013309478760e-01 -1.575107872486114502e-02 -2.164646834135055542e-01
-2.502263188362121582e-01 7.684156298637390137e-04 1.206879988312721252e-01
-3.774284124374389648e-01 -4.041608795523643494e-02 1.552249640226364136e-01
-3.078867793083190918e-01 -1.927607506513595581e-01 -5.829625576734542847e-02
-1.921281665563583374e-01 -1.132219284772872925e-01 -2.161893993616104126e-01
-2.763802409172058105e-01 -9.658396244049072266e-03 -2.074187994003295898e-01
-2.975031137466430664e-01 -1.581508070230484009e-01 -1.442684531211853027e-01
-4.889949560165405273e-01 -5.276310443878173828e-02 -7.659835740923881531e-03
-2.090696692466735840e-01 2.305899560451507568e-02 6.397426128387451172e-02
-1.504380851984024048e-01 3.357190638780593872e-02 -7.414908707141876221e-02
-4.838570356369018555e-01 -7.904635369777679443e-02 4.234316200017929077e-02
-5.431118607521057129e-02 -5.039312690496444702e-02 5.982603877782821655e-02
-2.535772621631622314e-01 -1.236218959093093872e-02 1.386869847774505615e-01
-3.571080267429351807e-01 -1.870474219322204590e-01 1.029624044895172119e-02
-2.138076722621917725e-02 -1.293745189905166626e-01 6.229350715875625610e-02
-1.341744065284729004e-01 -2.018349319696426392e-01 8.873976767063140869e-02
-3.288832902908325195e-01 -1.122390180826187134e-01 1.833576112985610962e-01
-3.583917021751403809e-01 -8.682728558778762817e-02 -1.779752522706985474e-01
-3.238700628280639648e-01 -3.728113695979118347e-02 1.652104258537292480e-01
-1.692067086696624756e-01 3.144188225269317627e-02 4.438593983650207520e-03
-4.577763974666595459e-01 3.556258976459503174e-03 2.459730394184589386e-02
-2.366891205310821533e-01 5.124387890100479126e-02 -7.054449617862701416e-02
-4.333668351173400879e-01 -3.410734236240386963e-03 8.308487385511398315e-02
-2.677250206470489502e-01 -1.529329419136047363e-01 -1.653356999158859253e-01
-1.596636176109313965e-01 -1.400446593761444092e-01 1.649464815855026245e-01
-1.540125757455825806e-01 -2.189906537532806396e-01 -7.051820866763591766e-03
-3.620924055576324463e-02 -2.408270537853240967e-02 -5.368712544441223145e-02
-3.693305253982543945e-01 4.567273706197738647e-02 -1.300868764519691467e-02
-2.453455179929733276e-01 5.212678760290145874e-02 -6.992390006780624390e-02
-3.366579413414001465e-01 -1.703504323959350586e-01 -9.344075620174407959e-02
-1.706909388303756714e-01 -2.615452930331230164e-02 -2.176417559385299683e-01
-3.502541184425354004e-01 -1.659083366394042969e-01 -8.999015390872955322e-02
-3.097819983959197998e-01 3.676505386829376221e-02 -1.404326111078262329e-01
-2.873223721981048584e-01 -1.004883050918579102e-01 1.903626769781112671e-01
-1.906891763210296631e-01 -1.804431676864624023e-01 -1.438305377960205078e-01
-2.584866583347320557e-01 -1.518777608871459961e-01 1.753644794225692749e-01
-2.018064558506011963e-01 -2.057386934757232666e-01 1.003450974822044373e-01
-4.366450011730194092e-01 1.788482815027236938e-02 -5.779547244310379028e-02
-4.138876199722290039e-01 -7.647711783647537231e-02 -1.396743357181549072e-01
-6.330484151840209961e-02 -7.817633450031280518e-03 -2.961695380508899689e-02
-8.106543123722076416e-02 -1.908342540264129639e-01 -9.779032319784164429e-02
-3.165478408336639404e-01 -1.861824542284011841e-01 1.133964285254478455e-01
-2.265963405370712280e-01 -9.067593514919281006e-02 1.852360218763351440e-01
-4.367586374282836914e-01 -1.782824099063873291e-02 1.001843661069869995e-01
-4.262942671775817871e-01 -1.300867199897766113e-01 1.089520975947380066e-01
-4.566082358360290527e-01 -5.722847580909729004e-02 -9.522706270217895508e-02
-4.820509850978851318e-01 -8.057796210050582886e-02 4.982893168926239014e-02
-3.917523622512817383e-01 4.092552512884140015e-02 -3.292059898376464844e-02
-1.602223515510559082e-01 -4.481233283877372742e-02 1.396764218807220459e-01
-3.187035918235778809e-01 4.537776112556457520e-03 -1.847516596317291260e-01
-4.678235352039337158e-01 -3.940897062420845032e-02 -7.633833587169647217e-02
-2.701521217823028564e-01 -1.987692415714263916e-01 -7.191180437803268433e-02
-3.612636327743530273e-01 -2.615867182612419128e-02 -1.829194277524948120e-01
-3.044812083244323730e-01 5.012557655572891235e-02 3.057518973946571350e-03
-2.349255084991455078e-01 -1.842271834611892700e-01 1.430933922529220581e-01
-4.385034441947937012e-01 -8.176599442958831787e-02 -1.088379397988319397e-01
-2.556116282939910889e-01 -8.509244769811630249e-02 -2.206407487392425537e-01
-1.123589351773262024e-01 6.945006549358367920e-03 -1.460205912590026855e-01
-2.707696557044982910e-01 2.516897022724151611e-02 8.164439350366592407e-02
-2.048122584819793701e-01 -1.259093880653381348e-01 -2.069344222545623779e-01
-1.124023124575614929e-01 -4.437013342976570129e-02 1.098413839936256409e-01
-1.944051533937454224e-01 4.416409879922866821e-02 -4.135552793741226196e-02
-1.114533245563507080e-01 9.261593222618103027e-04 -1.591595858335494995e-01
-4.716310203075408936e-01 -1.025852262973785400e-01 5.138700455427169800e-02
-2.995312213897705078e-01 -2.056824862957000732e-01 3.869029879570007324e-02
-3.497534394264221191e-01 -8.545701950788497925e-02 -1.838641315698623657e-01
-2.807777523994445801e-01 2.236072719097137451e-02 8.922391384840011597e-02
-4.803570508956909180e-01 -8.378779888153076172e-02 -1.792640239000320435e-02
-4.108141660690307617e-01 1.312661916017532349e-02 7.264357805252075195e-02
-3.407130241394042969e-01 -1.940630376338958740e-02 -1.911624521017074585e-01
-3.999880552291870117e-01 -1.670078039169311523e-01 1.792370714247226715e-02
-2.110624313354492188e-02 -1.278939843177795410e-01 -1.425607055425643921e-01
-3.022012114524841309e-01 -1.698909103870391846e-01 -1.216250136494636536e-01
5.546957254409790039e-04 -8.384383469820022583e-02 3.246307373046875000e-03
-2.447267025709152222e-01 -2.016944587230682373e-01 -7.856392860412597656e-02
-1.765316575765609741e-01 -2.140656113624572754e-01 6.802527606487274170e-02
-1.880937367677688599e-01 -2.174691557884216309e-01 -3.116076812148094177e-02
-2.997638583183288574e-01 -2.698726952075958252e-03 1.316335350275039673e-01
-1.876355260610580444e-01 -7.772608846426010132e-02 1.715280115604400635e-01
-8.341678977012634277e-02 -1.867644488811492920e-03 -1.982450485229492188e-03
-2.165743708610534668e-01 -3.408335149288177490e-02 -2.253913879394531250e-01
-1.176488101482391357e-01 -9.511065483093261719e-02 -2.153611183166503906e-01
-2.909198403358459473e-03 -6.103562563657760620e-02 -8.789834380149841309e-02
-2.985095977783203125e-02 -1.408886015415191650e-01 7.017302513122558594e-02
-1.267347335815429688e-01 -1.505518853664398193e-01 -1.819355189800262451e-01
-4.598956704139709473e-01 -1.139826327562332153e-01 -2.218477800488471985e-02
-4.763311743736267090e-01 -3.581175208091735840e-02 6.241339445114135742e-02
-3.179577589035034180e-01 -2.930707484483718872e-02 -2.043804079294204712e-01
-3.748993277549743652e-01 -1.465630829334259033e-01 1.409792602062225342e-01
-3.521913290023803711e-01 4.657381027936935425e-02 3.727411851286888123e-03
-4.003674387931823730e-01 -9.944233298301696777e-02 1.566842943429946899e-01
-3.317410051822662354e-01 -1.121171116828918457e-01 -1.772097349166870117e-01
-2.487106621265411377e-01 -7.556574791669845581e-02 1.843830645084381104e-01
-4.199026226997375488e-01 -6.163425743579864502e-03 9.946245700120925903e-02
-3.498118221759796143e-01 -1.802536398172378540e-01 -4.929760843515396118e-02
-4.415739178657531738e-01 -9.612543135881423950e-02 -9.199280291795730591e-02
-3.774873614311218262e-01 2.259873598814010620e-02 7.400400191545486450e-02
-1.956669986248016357e-02 -4.646882042288780212e-02 -1.121089607477188110e-01
-3.654945790767669678e-01 2.759969234466552734e-02 6.767342239618301392e-02
-1.693587303161621094e-01 -2.056050002574920654e-01 9.472534060478210449e-02
-3.801681399345397949e-01 -1.366243660449981689e-01 -1.140714958310127258e-01
-1.208815723657608032e-01 -2.147244513034820557e-01 -2.093253843486309052e-02
-4.068540036678314209e-01 3.171449154615402222e-02 1.772015355527400970e-02
-1.141093149781227112e-01 -1.814948916435241699e-01 -1.352480500936508179e-01
-1.728526651859283447e-01 9.197473526000976562e-03 -1.833049654960632324e-01
-1.352906525135040283e-01 -8.010990172624588013e-02 -2.225373238325119019e-01
-3.163752257823944092e-01 2.539800107479095459e-02 8.425825089216232300e-02
-2.213173061609268188e-01 4.949568957090377808e-02 -5.424692481756210327e-02
-3.237751126289367676e-02 -8.288703858852386475e-02 6.446870416402816772e-02
-4.369939565658569336e-01 -1.395983546972274780e-01 5.985591560602188110e-02
-2.744542658329010010e-01 -2.053094208240509033e-01 -4.145532101392745972e-02
-3.235534727573394775e-01 -3.178540617227554321e-02 1.610246896743774414e-01
-1.829306483268737793e-01 -1.313335895538330078e-01 -2.040776908397674561e-01
-2.126889526844024658e-01 4.683838039636611938e-02 -3.071705251932144165e-02
-2.751151025295257568e-01 -1.412234455347061157e-01 -1.763953864574432373e-01
-3.514787554740905762e-02 -1.847008317708969116e-01 -5.047662556171417236e-02
-3.721942305564880371e-01 -1.784955710172653198e-01 -1.009853743016719818e-02
-4.170003533363342285e-01 -1.558032184839248657e-01 5.392275750637054443e-03
-1.240175366401672363e-01 -4.598736390471458435e-02 -2.144233733415603638e-01
-4.522433280944824219e-01 -9.253934025764465332e-03 -8.465132862329483032e-02
-1.533845663070678711e-01 7.947593927383422852e-03 -1.765027493238449097e-01
-4.036758542060852051e-01 -1.647239327430725098e-01 4.233098030090332031e-02
-3.058361411094665527e-01 -1.717208921909332275e-01 -1.156381815671920776e-01
-1.866199970245361328e-01 -2.202889919281005859e-01 1.395077444612979889e-02
-3.932883739471435547e-01 -1.171449571847915649e-02 1.230486705899238586e-01
-1.318825185298919678e-01 -1.725353002548217773e-01 -1.547337770462036133e-01
-2.482983767986297607e-01 -1.788349747657775879e-01 -1.325391978025436401e-01
-2.880858182907104492e-01 -1.998238563537597656e-01 -5.204845964908599854e-02
-1.833558082580566406e-02 -1.192817911505699158e-01 5.879388749599456787e-02
-1.586290597915649414e-01 -1.306623220443725586e-03 8.323808014392852783e-02
-8.663499355316162109e-02 -4.176974296569824219e-03 1.225915364921092987e-02
-1.418098062276840210e-01 -3.405223041772842407e-02 -2.147609740495681763e-01
-2.447346746921539307e-01 -2.257346734404563904e-02 1.482111960649490356e-01
-3.560017645359039307e-01 -1.880119442939758301e-01 2.469494752585887909e-02
-4.662778377532958984e-01 -1.031332463026046753e-01 7.113324850797653198e-02
-2.347679585218429565e-01 1.938893646001815796e-02 -1.812617480754852295e-01
-1.165936887264251709e-02 -8.344893902540206909e-02 -1.394739449024200439e-01
-2.361494302749633789e-01 4.871299117803573608e-02 -9.791582077741622925e-02
-3.973273634910583496e-01 -1.375009417533874512e-01 -9.340319037437438965e-02
-4.698500633239746094e-01 -7.433395087718963623e-02 8.858583867549896240e-02
-7.031902670860290527e-02 -1.976344138383865356e-01 -6.239344179630279541e-02
-2.848287820816040039e-01 7.891222834587097168e-03 1.155960634350776672e-01
-2.658258080482482910e-01 7.833600044250488281e-03 1.131049171090126038e-01
-2.778592705726623535e-01 2.495334297418594360e-02 8.334450423717498779e-02
-2.661488652229309082e-01 -1.652193963527679443e-01 1.637053042650222778e-01
-4.599987268447875977e-01 -3.293393179774284363e-02 -8.887764811515808105e-02
-2.795946896076202393e-01 -1.740399003028869629e-01 -1.271651238203048706e-01
-2.828015387058258057e-01 -1.921757161617279053e-01 -8.314463496208190918e-02
-7.903482019901275635e-02 -4.078084975481033325e-02 7.592573016881942749e-02
-2.216883450746536255e-01 -6.688477098941802979e-02 -2.293962389230728149e-01
-1.232957914471626282e-01 -1.057385504245758057e-01 -2.132759392261505127e-01
-4.414442181587219238e-02 -6.677079200744628906e-02 -1.733270734548568726e-01
-6.117460131645202637e-02 -1.729951500892639160e-01 -1.228908896446228027e-01
-1.588997393846511841e-01 1.901086419820785522e-02 3.745541721582412720e-02
-4.733613133430480957e-01 -9.064222127199172974e-02 -3.235475718975067139e-02
-4.699423909187316895e-01 -1.088640093803405762e-01 1.802075840532779694e-02
-2.267774045467376709e-01 -2.177433073520660400e-01 3.546241670846939087e-02
-2.624156177043914795e-01 3.666323423385620117e-02 5.038019269704818726e-02
-4.748402833938598633e-01 -8.006207644939422607e-02 7.496788352727890015e-02
-1.735204160213470459e-01 -4.869295284152030945e-02 1.490610688924789429e-01
-5.075027048587799072e-02 -1.708059310913085938e-01 -1.179362013936042786e-01
-4.544860124588012695e-02 -2.378717809915542603e-02 -1.231501717120409012e-02
-3.692659139633178711e-01 3.508177399635314941e-02 4.386084526777267456e-02
-1.644770205020904541e-01 2.185257524251937866e-02 -1.545993238687515259e-01
-2.908576130867004395e-01 4.057306051254272461e-02 4.380270838737487793e-02
-3.824216127395629883e-01 -1.744057834148406982e-01 -4.053514450788497925e-03
-3.247870504856109619e-02 -1.136213466525077820e-01 7.784917205572128296e-02
-1.458635330200195312e-01 9.240940213203430176e-03 5.100213736295700073e-02
-3.586435317993164062e-02 -1.134800389409065247e-01 -1.658834218978881836e-01
-2.180871963500976562e-01 -2.068237960338592529e-01 -7.344751060009002686e-02
-4.875965118408203125e-01 -7.292602956295013428e-02 1.545121334493160248e-02
-2.259266823530197144e-01 -2.159183323383331299e-01 5.486552417278289795e-02
-1.963680684566497803e-01 4.505931586027145386e-02 -7.218934595584869385e-02
-4.221996665000915527e-01 -5.530279874801635742e-02 -1.385161876678466797e-01
-4.586998522281646729e-01 -7.368724048137664795e-02 -8.429458737373352051e-02
-1.218491718173027039e-01 -1.199690997600555420e-02 7.310649752616882324e-02
-2.173591405153274536e-01 -1.618602573871612549e-01 -1.682739108800888062e-01
-2.434725761413574219e-01 -1.236687749624252319e-01 -2.023009061813354492e-01
-1.837988495826721191e-01 1.792360842227935791e-02 6.072149425745010376e-02
-1.429630368947982788e-01 2.861644327640533447e-02 -2.573147602379322052e-02
-7.631255686283111572e-02 -7.989034056663513184e-03 -1.357832551002502441e-01
-1.982987523078918457e-01 -2.006342113018035889e-01 1.126133576035499573e-01
-2.312462478876113892e-01 5.084463208913803101e-02 -5.352767556905746460e-02
-4.114110767841339111e-01 -1.345259845256805420e-01 1.220584735274314880e-01
-6.233204901218414307e-02 -1.463762521743774414e-01 1.037852689623832703e-01
-2.907609641551971436e-01 -1.885235011577606201e-01 -8.744777739048004150e-02
-8.667455613613128662e-02 -1.066095754504203796e-01 -2.007348239421844482e-01
-9.501601755619049072e-02 -7.912278175354003906e-02 -2.095239013433456421e-01
-3.927468061447143555e-01 -4.864192381501197815e-02 -1.651102453470230103e-01
-8.009785413742065430e-02 -1.519306451082229614e-01 -1.650365293025970459e-01
-1.596692949533462524e-01 3.435169160366058350e-02 -2.940770238637924194e-02
-3.000762462615966797e-01 -1.113942414522171021e-01 -1.931209117174148560e-01
-4.092754423618316650e-01 3.501047194004058838e-02 -2.737966366112232208e-02
-4.663525223731994629e-01 -1.190605014562606812e-02 -5.718943476676940918e-02
-8.245469629764556885e-02 -5.228817462921142578e-04 -9.666305035352706909e-03
-4.093227386474609375e-01 -1.268591433763504028e-01 -9.595549106597900391e-02
-4.746876657009124756e-01 -3.476160392165184021e-02 -5.925384163856506348e-02
-3.390196561813354492e-01 1.294608414173126221e-02 -1.675674319267272949e-01
-1.335316002368927002e-01 1.901790499687194824e-02 -1.348550915718078613e-01
-1.387680172920227051e-01 -6.046593189239501953e-04 6.645169854164123535e-02
-2.419668287038803101e-01 -2.072521448135375977e-01 -5.987402796745300293e-02
-1.557911932468414307e-01 -2.016067504882812500e-01 9.980348497629165649e-02
-2.462490200996398926e-01 -1.882520914077758789e-01 1.358873546123504639e-01
-2.834146320819854736e-01 -3.126591816544532776e-02 -2.157888263463973999e-01
-2.228609919548034668e-01 -2.131357789039611816e-01 -4.388312250375747681e-02
-2.376955002546310425e-01 -2.006616890430450439e-01 -8.539783954620361328e-02
-2.371798306703567505e-01 -1.735737323760986328e-01 -1.457289606332778931e-01
-2.941204011440277100e-01 -4.411842301487922668e-02 1.714817136526107788e-01
-3.228684067726135254e-01 -2.172219380736351013e-02 1.522257030010223389e-01
-1.969696730375289917e-01 -1.592535972595214844e-01 -1.747777014970779419e-01
-3.471199274063110352e-01 3.236620128154754639e-02 6.210274249315261841e-02
-3.403684198856353760e-01 -1.905152648687362671e-01 -1.746764406561851501e-02
-2.859326303005218506e-01 -3.946810960769653320e-02 -2.170613408088684082e-01
-2.506240904331207275e-01 -2.148804366588592529e-01 -1.426024362444877625e-03
-9.708203375339508057e-02 7.353149354457855225e-03 -1.102345436811447144e-02
-4.276385605335235596e-01 -1.014584302902221680e-02 -1.208534613251686096e-01
-9.735509753227233887e-03 -5.718344449996948242e-02 -1.645052619278430939e-02
-1.736463606357574463e-02 -7.026566565036773682e-02 -1.413906067609786987e-01
-2.584066092967987061e-01 -1.811578273773193359e-01 1.454218477010726929e-01
-3.980304598808288574e-01 3.897574543952941895e-02 -2.820725739002227783e-02
-1.455335617065429688e-01 -3.860399127006530762e-03 -1.898879110813140869e-01
-3.491379916667938232e-01 4.410167783498764038e-02 1.988136954605579376e-02
-2.461823821067810059e-02 -1.699647605419158936e-01 -8.450267463922500610e-02
-4.493484497070312500e-01 -1.202255189418792725e-01 -3.751584142446517944e-02
-4.505537450313568115e-01 -4.664115607738494873e-02 1.108379885554313660e-01
-4.373820722103118896e-01 1.637462526559829712e-02 2.772624231874942780e-02
-4.053006172180175781e-01 -1.293591409921646118e-02 1.180822029709815979e-01
-7.083456218242645264e-02 -1.781648993492126465e-01 8.294068276882171631e-02
-4.366574883460998535e-01 -1.177837103605270386e-01 1.105866506695747375e-01
-4.035910964012145996e-01 -1.547389328479766846e-01 9.382051229476928711e-02
-3.324477672576904297e-01 -3.994803503155708313e-02 1.660299450159072876e-01
-2.328197956085205078e-01 -4.709437489509582520e-04 -2.047812193632125854e-01
-2.887627184391021729e-01 5.376095324754714966e-02 -2.810502797365188599e-02
-2.080820053815841675e-01 -2.161041200160980225e-01 5.972588062286376953e-02
-2.356293946504592896e-01 -1.656294316053390503e-01 1.646715104579925537e-01
-3.734105825424194336e-01 -1.156456768512725830e-03 1.179837509989738464e-01
-3.266448378562927246e-01 -1.957827955484390259e-01 6.437298655509948730e-02
-3.594934940338134766e-01 -7.117120176553726196e-02 -1.836832910776138306e-01
-1.851309835910797119e-01 -4.783603921532630920e-02 1.531330049037933350e-01
-2.014363408088684082e-01 1.775465905666351318e-02 7.206588983535766602e-02
-3.869779407978057861e-02 -2.524882927536964417e-02 -2.916265837848186493e-02
-2.718915045261383057e-02 -1.682469248771667480e-01 3.777787089347839355e-02
-1.134501472115516663e-01 1.833799481391906738e-02 -1.013519018888473511e-01
-3.614313602447509766e-01 4.816431552171707153e-02 -3.238941729068756104e-02
-2.640103101730346680e-01 -3.367710858583450317e-02 -2.206635624170303345e-01
-3.723435997962951660e-01 -1.809296756982803345e-01 3.827842324972152710e-02
-3.113784193992614746e-01 -5.471212416887283325e-02 -2.098792344331741333e-01
-1.748421341180801392e-01 -2.151996195316314697e-01 -4.698238521814346313e-02
-3.274249434471130371e-01 -1.974914819002151489e-01 5.890749394893646240e-03
-2.928476929664611816e-01 1.305057853460311890e-02 1.077769324183464050e-01
-4.828319847583770752e-01 -7.692822068929672241e-02 -1.909624040126800537e-02
-2.383247315883636475e-01 -2.036346048116683960e-01 -7.548432797193527222e-02
-9.772029519081115723e-02 1.360297203063964844e-02 -6.145367026329040527e-02
-2.089352309703826904e-01 -1.739604771137237549e-02 1.323432177305221558e-01
-2.183503955602645874e-01 -1.752362847328186035e-01 1.541701853275299072e-01
-1.348738372325897217e-01 -1.719913035631179810e-01 1.349806636571884155e-01
-4.328248500823974609e-01 -1.452742516994476318e-01 1.263493485748767853e-02
-2.542273700237274170e-02 -7.309901714324951172e-02 -1.550373136997222900e-01
-2.035580873489379883e-01 -6.115001812577247620e-02 -2.303809225559234619e-01
-5.116234719753265381e-02 -3.731076419353485107e-02 3.447868674993515015e-02
-3.811892271041870117e-01 -1.676581203937530518e-01 -4.203429818153381348e-02
-4.880732893943786621e-01 -3.876305371522903442e-02 -1.077460125088691711e-03
-3.456552028656005859e-01 -9.789842367172241211e-02 -1.793863326311111450e-01
-3.670690059661865234e-01 -1.695237904787063599e-01 -5.959394574165344238e-02
7.624223828315734863e-03 -8.136344701051712036e-02 -2.872152067720890045e-02
-2.638834714889526367e-01 -1.973886042833328247e-01 1.131210550665855408e-01
-4.856655597686767578e-01 -3.817023709416389465e-02 3.341367095708847046e-02
-1.478961110115051270e-01 -1.481746882200241089e-02 9.800041466951370239e-02
-4.616495966911315918e-01 -1.950211822986602783e-02 -7.758659124374389648e-02
-2.112510502338409424e-01 -1.376819163560867310e-01 -1.963655650615692139e-01
-2.829824686050415039e-01 5.449566990137100220e-02 -5.356568843126296997e-02
-1.732061803340911865e-01 2.564729005098342896e-02 3.080985136330127716e-02
-9.594929218292236328e-02 -2.102303504943847656e-01 5.026876926422119141e-03
-4.052430391311645508e-01 -1.544485092163085938e-01 -4.013086110353469849e-02
-8.176140487194061279e-02 -2.987054362893104553e-02 -1.793502122163772583e-01
-1.489700078964233398e-01 -2.351792156696319580e-02 1.107091531157493591e-01
-1.671046018600463867e-03 -1.004136279225349426e-01 2.359700761735439301e-02
-1.451231688261032104e-01 2.414888143539428711e-02 3.001572564244270325e-03
-9.304724633693695068e-02 -2.087882459163665771e-01 -2.869306504726409912e-02
-4.160603284835815430e-01 -1.508477926254272461e-01 7.989059388637542725e-02
-2.046668231487274170e-01 -2.180855572223663330e-01 4.589201509952545166e-02
-8.858005702495574951e-02 -1.804685592651367188e-01 -1.265493631362915039e-01
-4.316402971744537354e-02 -1.864188611507415771e-01 2.306160517036914825e-02
-3.564223647117614746e-02 -4.456154629588127136e-02 2.115663327276706696e-02
-3.061219453811645508e-01 -8.506131917238235474e-02 -2.052142918109893799e-01
-1.472496986389160156e-01 -2.027552574872970581e-02 -2.072897553443908691e-01
-2.313521504402160645e-02 -1.712254583835601807e-01 -7.743449509143829346e-02
-4.753371477127075195e-01 -7.001601159572601318e-02 -5.235760658979415894e-02
1.083593070507049561e-02 -1.196713745594024658e-01 -7.515116594731807709e-03
-2.421960383653640747e-01 2.134371548891067505e-02 8.233989775180816650e-02
-1.001534461975097656e-01 -9.662119299173355103e-02 1.355593055486679077e-01
-2.628445923328399658e-01 -2.058871090412139893e-01 8.688507974147796631e-02
-4.516357779502868652e-01 -3.499776124954223633e-03 5.924458056688308716e-02
-2.979926466941833496e-01 -8.503556251525878906e-02 -2.083249837160110474e-01
-1.642509698867797852e-01 -1.011339426040649414e-01 1.698576658964157104e-01
-3.545778393745422363e-01 -1.855287551879882812e-01 -1.418125443160533905e-02
-1.475813835859298706e-01 2.665431052446365356e-02 -1.232858747243881226e-01
-3.881619572639465332e-01 -6.864549964666366577e-02 -1.650092154741287231e-01
-2.702940106391906738e-01 -2.090129256248474121e-01 6.559409946203231812e-02
-1.768242269754409790e-01 -2.186868786811828613e-01 3.956440091133117676e-02
-3.715113103389739990e-01 -1.604811549186706543e-01 -7.817368954420089722e-02
-1.940504312515258789e-01 -2.159728705883026123e-01 6.135935336351394653e-02
-1.401840001344680786e-01 -2.124840021133422852e-01 -5.440665781497955322e-02
-3.363722860813140869e-01 2.424523234367370605e-02 8.431236445903778076e-02
-1.389797627925872803e-01 -1.905084848403930664e-01 1.137128844857215881e-01
-8.268722891807556152e-02 -1.842695176601409912e-01 -1.151804104447364807e-01
-3.098904490470886230e-01 5.265881866216659546e-02 -1.747842878103256226e-02
-2.954383194446563721e-01 -1.505209803581237793e-01 -1.561813801527023315e-01
-2.735344469547271729e-01 -1.860669255256652832e-01 -1.052607819437980652e-01
-8.898667991161346436e-02 -2.000322788953781128e-01 -7.459085434675216675e-02
-4.569606781005859375e-01 -9.533376246690750122e-02 1.008179485797882080e-01
-3.182712495326995850e-01 3.065066784620285034e-02 7.200829684734344482e-02
-4.212265610694885254e-01 -1.521463096141815186e-01 5.672264844179153442e-02
-3.531987667083740234e-01 -1.094905063509941101e-01 1.768795549869537354e-01
5.301669239997863770e-03 -1.400454491376876831e-01 -2.359829843044281006e-03
-1.508418470621109009e-01 -1.858682930469512939e-01 1.258366107940673828e-01
-3.044421672821044922e-01 -1.921297609806060791e-01 -6.426473706960678101e-02
-4.699133336544036865e-01 -7.071845233440399170e-03 2.098325081169605255e-02
-1.139029487967491150e-01 -2.100348770618438721e-01 -5.074834823608398438e-02
-3.232074677944183350e-01 3.619096428155899048e-02 -1.365392208099365234e-01
-1.629063785076141357e-01 -1.871993541717529297e-01 1.283559501171112061e-01
-2.994878292083740234e-01 1.666034013032913208e-02 1.017403453588485718e-01
-2.179501950740814209e-02 -1.573788225650787354e-01 4.436202347278594971e-02
-2.604524493217468262e-01 -2.086598277091979980e-01 -3.855293989181518555e-02
-2.933075428009033203e-01 -7.301333546638488770e-02 -2.137063741683959961e-01
-1.172052994370460510e-01 -8.719031512737274170e-02 1.431186944246292114e-01
-1.346930861473083496e-03 -1.307739615440368652e-01 -1.100111007690429688e-01
-3.382623791694641113e-01 -8.508495986461639404e-03 -1.865715831518173218e-01
-2.077466398477554321e-01 -1.004036068916320801e-01 1.829749643802642822e-01
-1.772584170103073120e-01 -1.290678679943084717e-01 1.737810820341110229e-01
-5.613875389099121094e-02 -4.162606224417686462e-02 -1.672521829605102539e-01
-1.964049339294433594e-01 1.265071332454681396e-03 -1.999215930700302124e-01
-4.448074102401733398e-01 -6.954905390739440918e-02 1.238875314593315125e-01
-2.698913514614105225e-01 4.070545732975006104e-02 -1.381542533636093140e-01
-1.167387962341308594e-01 1.704103499650955200e-02 -1.505641173571348190e-02
-2.123443633317947388e-01 -2.144554555416107178e-01 -4.207832366228103638e-02
-1.620684415102005005e-01 3.656349331140518188e-02 -4.687393456697463989e-02
-4.447253644466400146e-01 -4.168636351823806763e-02 1.140704080462455750e-01
-1.430236995220184326e-01 -2.240488305687904358e-02 1.054212227463722229e-01
-4.867374598979949951e-01 -7.312078773975372314e-02 -1.064704731106758118e-03
-2.012083530426025391e-01 2.767165005207061768e-02 -1.593238711357116699e-01
-1.357029974460601807e-01 -6.856443732976913452e-02 -2.229553908109664917e-01
-3.972266912460327148e-01 -1.654709577560424805e-01 6.720815598964691162e-02
-1.949133872985839844e-01 -2.101166546344757080e-01 -6.802320480346679688e-02
-4.478196501731872559e-01 -1.387178897857666016e-02 8.290347456932067871e-02
-3.286298513412475586e-01 -2.499312534928321838e-02 1.546692252159118652e-01
-4.899163246154785156e-01 -5.435516685247421265e-02 6.483048200607299805e-03
-3.169011175632476807e-01 -1.978647708892822266e-01 6.964822113513946533e-02
-1.440299451351165771e-01 -2.143940329551696777e-01 5.065273493528366089e-02
-1.934874951839447021e-01 3.060819953680038452e-02 -1.486071050167083740e-01
-3.649657964706420898e-01 2.369585633277893066e-02 -1.374153047800064087e-01
-9.560181200504302979e-02 -1.943533420562744141e-01 -9.809128940105438232e-02
-1.591326296329498291e-02 -1.531589925289154053e-01 3.826619684696197510e-02
-3.921604156494140625e-01 -7.159546017646789551e-02 1.621730178594589233e-01
-2.109623402357101440e-01 1.135848462581634521e-03 -2.021143585443496704e-01
-1.185218989849090576e-02 -4.684149101376533508e-02 -5.965135246515274048e-02
-2.123051434755325317e-01 -1.231401562690734863e-01 1.833951920270919800e-01
-3.691597282886505127e-01 3.749638050794601440e-02 3.518893569707870483e-02
3.933370113372802734e-03 -7.631160318851470947e-02 -9.480995684862136841e-02
-2.277781367301940918e-01 -2.144125103950500488e-01 -3.314177691936492920e-02
-4.150690734386444092e-01 -2.296809852123260498e-02 -1.417097896337509155e-01
-2.265210896730422974e-01 4.098296910524368286e-02 -1.307733058929443359e-01
-3.463054895401000977e-01 -1.870404481887817383e-01 -2.504346333444118500e-02
1.581688225269317627e-02 -1.039851605892181396e-01 -5.449604243040084839e-02
-1.131577938795089722e-01 1.431053131818771362e-02 -1.227435767650604248e-01
-1.391423195600509644e-01 1.403733342885971069e-02 -1.547685265541076660e-01
-2.491722106933593750e-01 5.271223932504653931e-02 -6.213519722223281860e-02
-4.228596091270446777e-01 -1.014149636030197144e-01 -1.115938052535057068e-01
-3.360121250152587891e-01 -1.905060112476348877e-01 7.757756859064102173e-02
-8.498473465442657471e-02 7.327876985073089600e-03 -5.919983983039855957e-02
-3.257271349430084229e-01 -1.036947444081306458e-01 1.854920238256454468e-01
-4.630815982818603516e-02 -1.970856636762619019e-02 -1.054289862513542175e-01
-3.196346759796142578e-01 -1.087640300393104553e-01 1.860114783048629761e-01
-4.012067317962646484e-01 -1.601133495569229126e-01 -2.773094177246093750e-02
-3.609313964843750000e-01 1.726196706295013428e-02 -1.499931812286376953e-01
-3.747229576110839844e-01 -1.798459589481353760e-01 1.793669722974300385e-02
-1.836060583591461182e-01 -2.228002250194549561e-02 -2.175588309764862061e-01
-2.801861464977264404e-01 1.324176788330078125e-02 1.062829419970512390e-01
-3.806076645851135254e-01 -1.769644916057586670e-01 1.536048017442226410e-02
3.096833825111389160e-03 -1.292191445827484131e-01 1.464708335697650909e-02
-4.082945585250854492e-01 -1.492952555418014526e-01 9.980175644159317017e-02
-4.785108566284179688e-01 -9.546747058629989624e-02 2.493271790444850922e-02
-7.890389859676361084e-02 -1.506170332431793213e-01 1.158372983336448669e-01
-2.217399030923843384e-01 -1.025296300649642944e-01 -2.194033414125442505e-01
-3.586731851100921631e-01 -1.791955828666687012e-01 -3.856736049056053162e-02
-6.171077489852905273e-02 -1.692221164703369141e-01 -1.300984770059585571e-01
-1.525223255157470703e-01 2.613025158643722534e-02 5.250558257102966309e-03
-5.229406058788299561e-02 -8.299587666988372803e-02 8.863726258277893066e-02
-3.032067418098449707e-02 -1.586157977581024170e-01 5.720077455043792725e-02
-3.849735260009765625e-01 -1.569486856460571289e-01 -6.860179454088211060e-02
-3.867167234420776367e-02 -2.911556512117385864e-02 -1.176077052950859070e-01
-1.631712019443511963e-01 -2.012493014335632324e-01 -9.952107071876525879e-02
-1.830616593360900879e-02 -4.076246917247772217e-02 -4.750729352235794067e-02
-3.294395804405212402e-01 -1.724840402603149414e-01 -9.526821970939636230e-02
-2.418104261159896851e-01 -1.767049431800842285e-01 1.529064774513244629e-01
-1.013442873954772949e-01 -2.092154622077941895e-01 -4.140509665012359619e-02
-1.134819537401199341e-01 -1.511606276035308838e-01 -1.781992167234420776e-01
-1.870019137859344482e-01 3.478776663541793823e-02 -1.312132477760314941e-01
-2.899298667907714844e-01 4.949606209993362427e-02 -1.037419438362121582e-01
-4.509018659591674805e-01 -2.771920338273048401e-02 9.600605070590972900e-02
-1.263748705387115479e-01 9.852200746536254883e-03 -1.534575074911117554e-01
-2.353640794754028320e-01 -3.129366412758827209e-02 1.546292006969451904e-01
-2.710474133491516113e-01 4.396609216928482056e-02 -1.279938369989395142e-01
-1.526511013507843018e-01 -2.182150781154632568e-01 -1.847338490188121796e-02
-1.806868910789489746e-01 3.762067109346389771e-02 -1.172039285302162170e-02
-3.712001740932464600e-01 -1.400606185197830200e-01 1.506965458393096924e-01
-4.834640026092529297e-01 -2.645031735301017761e-02 1.725762523710727692e-02
-1.289828717708587646e-01 1.522989571094512939e-02 1.437473110854625702e-02
-6.003060936927795410e-02 -1.720189750194549561e-01 7.990273833274841309e-02
-3.699083328247070312e-01 -1.435233056545257568e-01 -1.133908629417419434e-01
-3.243671357631683350e-01 -1.953778564929962158e-01 -2.174305170774459839e-02
-5.144084990024566650e-02 -1.003286838531494141e-01 9.610825031995773315e-02
-1.191315576434135437e-01 -7.135356962680816650e-02 1.363783031702041626e-01
-4.284776747226715088e-01 -1.418085843324661255e-01 -2.753556892275810242e-02
-4.090583324432373047e-01 3.170686960220336914e-02 -6.463921815156936646e-02
-4.028481841087341309e-01 -2.764903008937835693e-02 -1.543465703725814819e-01
-3.320679068565368652e-01 -1.948868334293365479e-01 5.798718333244323730e-02
-4.139587581157684326e-01 -1.500562429428100586e-01 8.726870268583297729e-02
-1.574096083641052246e-01 3.514710068702697754e-02 -8.410568535327911377e-02
-4.201301932334899902e-01 -1.414315402507781982e-01 9.773539006710052490e-02
-1.573199629783630371e-01 1.221121847629547119e-02 -1.710670441389083862e-01
-7.848894596099853516e-02 4.948675632476806641e-04 -1.086712330579757690e-01
-4.527641534805297852e-01 -1.316478848457336426e-02 7.521139830350875854e-02
-3.160994946956634521e-01 -7.239551842212677002e-02 -2.053243815898895264e-01
-2.899071276187896729e-01 -1.952878832817077637e-01 1.065768972039222717e-01
-2.850629091262817383e-01 -1.140399277210235596e-02 1.417123973369598389e-01
-3.878742456436157227e-03 -1.609356105327606201e-01 -2.004242688417434692e-02
-4.634974896907806396e-01 -6.121255457401275635e-03 -5.411218106746673584e-02
-3.868044018745422363e-01 -3.095863386988639832e-02 -1.677468717098236084e-01
-9.189739823341369629e-02 7.289506494998931885e-03 -2.428798191249370575e-02
-4.389479756355285645e-01 1.181875169277191162e-02 4.125425219535827637e-02
-4.536884129047393799e-01 -4.729101061820983887e-02 -1.011174768209457397e-01
-2.750264108180999756e-01 5.613997578620910645e-03 1.180070564150810242e-01
-3.231341838836669922e-01 3.332774341106414795e-02 6.466712802648544312e-02
1.050598919391632080e-02 -8.420310169458389282e-02 -4.212228953838348389e-02
-3.484715819358825684e-01 -1.310306638479232788e-01 1.694592833518981934e-01
-3.970218300819396973e-01 -1.326049119234085083e-01 -1.019841805100440979e-01
-4.119014739990234375e-01 3.218734264373779297e-02 3.114618360996246338e-03
-2.696305811405181885e-01 9.150661528110504150e-03 -1.927150934934616089e-01
-3.422702550888061523e-01 3.586421161890029907e-02 -1.273971199989318848e-01
-3.027489483356475830e-01 -1.899651288986206055e-01 -7.306408882141113281e-02
-3.828512430191040039e-01 -8.618668466806411743e-02 -1.613614410161972046e-01
-3.959577679634094238e-01 3.619431704282760620e-02 -6.943875551223754883e-02
-2.815761268138885498e-01 -5.016038566827774048e-02 1.750509738922119141e-01
-3.071483969688415527e-01 -2.030458152294158936e-01 4.923173785209655762e-02
-3.603783249855041504e-01 -1.842361390590667725e-01 6.031647324562072754e-02
-1.738816201686859131e-01 2.046396583318710327e-02 4.677030444145202637e-02
-8.867843449115753174e-02 -8.542999625205993652e-03 2.802763693034648895e-02
-3.320451080799102783e-01 3.766987472772598267e-02 -1.286471933126449585e-01
-4.199139773845672607e-02 -2.148288488388061523e-02 -9.711179882287979126e-02
-1.640043407678604126e-01 1.275590807199478149e-02 5.829142779111862183e-02
-1.796247065067291260e-01 -2.553533390164375305e-02 1.297158598899841309e-01
-2.460785210132598877e-02 -9.247802942991256714e-02 -1.589482873678207397e-01
-1.740612387657165527e-01 -7.866983115673065186e-02 -2.283627688884735107e-01
-3.492189943790435791e-01 -6.365996599197387695e-02 -1.914638578891754150e-01
-1.449055075645446777e-01 -1.947833150625228882e-01 1.091277524828910828e-01
-6.623357534408569336e-03 -1.417929828166961670e-01 3.019618801772594452e-02
-1.777719557285308838e-01 -1.883689314126968384e-02 -2.142971456050872803e-01
-1.447571814060211182e-02 -6.321824342012405396e-02 -1.292743384838104248e-01
-3.450990617275238037e-01 -5.730313807725906372e-02 1.736010164022445679e-01
-1.195424869656562805e-01 -3.989974409341812134e-02 -2.097801566123962402e-01
-3.755152225494384766e-02 -1.857568919658660889e-01 9.112674742937088013e-03
-3.329818546772003174e-01 5.219041556119918823e-02 -5.200604349374771118e-02
-4.025512337684631348e-01 3.649806231260299683e-02 -6.673485040664672852e-03
-3.179069161415100098e-01 -1.562677472829818726e-01 -1.348876506090164185e-01
-3.239568769931793213e-01 5.095674842596054077e-02 -7.984578609466552734e-02
-1.887449175119400024e-01 -1.912841349840164185e-01 1.288677006959915161e-01
-3.915669023990631104e-02 -1.476269066333770752e-01 7.844969630241394043e-02
-1.785010397434234619e-01 -1.536212861537933350e-03 9.615896642208099365e-02
-3.950245082378387451e-01 -1.520465016365051270e-01 1.129229739308357239e-01
-3.258137106895446777e-01 -1.149255037307739258e-02 1.412890702486038208e-01
-2.771877050399780273e-01 2.874268591403961182e-02 7.467114180326461792e-02
-2.216443419456481934e-01 -2.835051715373992920e-02 1.483081430196762085e-01
-2.507168054580688477e-01 3.563269227743148804e-02 4.960519820451736450e-02
-1.864646971225738525e-01 -9.048181027173995972e-02 1.753603667020797729e-01
-2.940524518489837646e-01 -2.053300440311431885e-01 5.809870362281799316e-02
-4.866560697555541992e-01 -5.025209113955497742e-02 4.144784063100814819e-02
-7.242727279663085938e-02 -9.975656867027282715e-04 -3.926102817058563232e-02
-3.392140865325927734e-01 -1.614532172679901123e-01 -1.098264157772064209e-01
-2.524425089359283447e-01 -1.926150918006896973e-02 1.462537795305252075e-01
-1.191143766045570374e-01 -1.114361286163330078e-01 1.500417441129684448e-01
-1.289816647768020630e-01 -1.765017360448837280e-01 1.274612098932266235e-01
-2.347369641065597534e-01 4.336213320493698120e-02 -1.247690543532371521e-01
-1.895532906055450439e-01 -3.375611081719398499e-02 -2.241535335779190063e-01
-1.944667100906372070e-02 -1.757130324840545654e-01 -4.009751975536346436e-02
-2.431343495845794678e-01 -1.461643874645233154e-01 -1.813996732234954834e-01
-7.980439066886901855e-02 -6.692856550216674805e-04 -1.177295446395874023e-01
-4.214668869972229004e-01 -1.437478959560394287e-01 8.953981846570968628e-02
-4.877410531044006348e-01 -4.179120063781738281e-02 -1.205170340836048126e-02
1.384250819683074951e-02 -1.293813735246658325e-01 -4.911684244871139526e-02
-3.591158688068389893e-01 -1.389207392930984497e-01 -1.300378888845443726e-01
-6.002254784107208252e-02 -9.913489222526550293e-03 -1.047558635473251343e-01
-2.278129756450653076e-01 -1.032059863209724426e-01 1.870784014463424683e-01
-2.992385625839233398e-01 4.329905658960342407e-02 3.482206165790557861e-02
-4.469578862190246582e-01 -3.311367705464363098e-02 -1.089075431227684021e-01
-3.131023943424224854e-01 -3.233801200985908508e-02 1.622997373342514038e-01
-4.313949644565582275e-01 -2.234441787004470825e-02 1.100653633475303650e-01
-3.453004956245422363e-01 -1.093355417251586914e-01 -1.714791655540466309e-01
-2.904685139656066895e-01 -2.070668339729309082e-01 -3.349892795085906982e-03
-2.548717856407165527e-01 -1.057207733392715454e-01 -2.116030007600784302e-01
-4.241566061973571777e-01 2.536206692457199097e-02 1.556752808392047882e-02
-4.241903424263000488e-01 -1.500925272703170776e-01 -1.619325950741767883e-03
-3.848981857299804688e-01 -1.088312044739723206e-01 1.628767102956771851e-01
-9.128025174140930176e-02 -7.328921556472778320e-02 -2.075665295124053955e-01
-4.673560261726379395e-01 -1.050301045179367065e-01 6.352910399436950684e-02
-2.471738904714584351e-01 -1.322807818651199341e-01 -1.942025870084762573e-01
-4.838486909866333008e-01 -4.975980147719383240e-02 -3.556437045335769653e-02
-3.659272193908691406e-01 -5.491185188293457031e-02 1.670818179845809937e-01
-2.411756813526153564e-01 2.726510912179946899e-02 -1.683983057737350464e-01
-3.202118575572967529e-01 -1.996461451053619385e-01 4.401480779051780701e-03
-1.590470224618911743e-01 -9.696438908576965332e-03 -2.018121182918548584e-01
-2.308788448572158813e-01 -1.974632740020751953e-01 -9.753153473138809204e-02
-2.546669840812683105e-01 -1.993689239025115967e-01 1.109997108578681946e-01
-4.345548152923583984e-01 -5.829296261072158813e-02 1.313070356845855713e-01
-3.553456664085388184e-01 -1.882222145795822144e-01 3.351942449808120728e-02
-1.494436562061309814e-01 3.318026661872863770e-02 -5.437497049570083618e-02
-3.178195059299468994e-01 -1.635842472314834595e-01 -1.226391196250915527e-01
-2.792396843433380127e-01 -1.969725191593170166e-01 1.077050939202308655e-01
-3.452180027961730957e-01 4.769022017717361450e-02 -8.171014487743377686e-02
-2.383540272712707520e-01 -2.171282470226287842e-01 1.562808640301227570e-02
-4.065233170986175537e-01 -1.099266931414604187e-01 1.482857465744018555e-01
-1.915407776832580566e-01 -1.052092611789703369e-01 1.793396323919296265e-01
-1.089352220296859741e-01 -8.495356142520904541e-02 1.370153874158859253e-01
-6.850159168243408203e-02 -1.882210373878479004e-03 -5.542085319757461548e-02
-6.880623102188110352e-02 -1.049834117293357849e-01 1.138293966650962830e-01
-1.918587386608123779e-01 3.908130526542663574e-02 -4.565807059407234192e-03
-5.080589652061462402e-02 -1.827765107154846191e-01 -8.990115672349929810e-02
-1.417880058288574219e-01 -1.369856894016265869e-01 -1.972883343696594238e-01
-2.348346263170242310e-01 4.962637275457382202e-02 -8.947119861841201782e-02
-2.091629356145858765e-01 4.623549431562423706e-02 -8.920709788799285889e-02
-4.015316963195800781e-01 -1.199398413300514221e-01 1.460084021091461182e-01
-9.932704269886016846e-02 -2.011490315198898315e-01 6.332151591777801514e-02
-1.236959770321846008e-01 -1.952839791774749756e-01 -1.083881631493568420e-01
-1.380898058414459229e-01 -2.159723937511444092e-01 -3.011506982147693634e-02
-1.860105693340301514e-01 -1.305820494890213013e-01 1.759585738182067871e-01
-2.075246423482894897e-01 -2.193965315818786621e-01 -2.840533852577209473e-04
-3.268597126007080078e-01 -3.563590720295906067e-02 -2.023298591375350952e-01
-2.735908627510070801e-01 -1.082063019275665283e-01 -2.049162536859512329e-01
-1.052123755216598511e-01 -2.081588506698608398e-01 -5.295815318822860718e-02
-1.241436898708343506e-01 -2.090052962303161621e-01 -6.336341798305511475e-02
-2.744830250740051270e-01 -3.484500199556350708e-02 -2.188648134469985962e-01
-4.896417260169982910e-02 -2.304135262966156006e-02 -1.249516010284423828e-01
-3.195665776729583740e-01 -1.993689686059951782e-01 5.197086185216903687e-02
4.110336303710937500e-04 -6.429432332515716553e-02 -4.406504333019256592e-02
-3.559009730815887451e-02 -1.023318320512771606e-01 -1.692252308130264282e-01
-4.467015862464904785e-01 -8.704575896263122559e-02 -9.316061437129974365e-02
4.226297140121459961e-03 -1.278864890336990356e-01 -1.001738756895065308e-01
-3.227829933166503906e-01 -1.993731409311294556e-01 1.366048119962215424e-02
-3.281034231185913086e-01 -1.322867572307586670e-01 1.758832186460494995e-01
-1.426973342895507812e-01 3.116039931774139404e-02 -7.338406890630722046e-02
-4.429531097412109375e-02 -1.904005408287048340e-01 4.977460950613021851e-03
-1.844010055065155029e-01 1.269563287496566772e-02 7.293733209371566772e-02
