-1.474706921726465225e-02 3.526679053902626038e-02 1.900082379579544067e-01
4.662312567234039307e-03 4.591072723269462585e-02 -3.689468652009963989e-02
-3.439995646476745605e-02 3.940762206912040710e-02 1.316906213760375977e-01
-1.179069280624389648e-02 -1.203813999891281128e-01 -9.829310700297355652e-03
-3.828289359807968140e-02 -7.358634471893310547e-02 8.726683259010314941e-02
-6.798923946917057037e-03 6.561987102031707764e-02 2.555827237665653229e-02
1.406407356262207031e-02 -6.654113531112670898e-05 7.180236279964447021e-02
5.578191950917243958e-03 -9.764529764652252197e-02 9.494702517986297607e-02
-3.469666093587875366e-02 -6.024153903126716614e-02 -1.601171344518661499e-01
-1.770252361893653870e-02 2.206115797162055969e-02 2.141257524490356445e-01
-3.271554037928581238e-02 6.337247788906097412e-02 2.252037869766354561e-03
9.621251374483108521e-04 -5.639095231890678406e-02 2.068344354629516602e-01
-4.138810187578201294e-02 -2.090683206915855408e-03 -1.448666155338287354e-01
-4.413523152470588684e-02 -4.034208506345748901e-02 8.553581684827804565e-02
1.507349312305450439e-03 -7.998727262020111084e-03 2.043211311101913452e-01
6.345050409436225891e-03 1.768630743026733398e-02 1.343844830989837646e-01
-3.910817950963973999e-02 4.747084155678749084e-02 3.770136460661888123e-02
-3.070438653230667114e-02 -1.680724881589412689e-02 2.165581881999969482e-01
-2.761319652199745178e-02 -5.076471716165542603e-02 2.152714431285858154e-01
-4.618247225880622864e-02 -3.685917332768440247e-02 2.989134192466735840e-02
-4.648848623037338257e-02 -2.739289775490760803e-02 -4.732592403888702393e-02
-4.611800611019134521e-02 -3.923827782273292542e-02 -1.414207555353641510e-02
-3.721378743648529053e-02 -8.533456921577453613e-02 5.333987995982170105e-03
3.700401633977890015e-03 -3.408352285623550415e-02 -2.099071145057678223e-01
1.383130066096782684e-02 -7.890611886978149414e-02 3.871103003621101379e-02
-1.532019954174757004e-02 -9.447258710861206055e-02 -1.653159111738204956e-01
-3.983514010906219482e-02 -7.469277083873748779e-02 3.930046036839485168e-02
-4.391009360551834106e-02 -4.510067775845527649e-02 -7.584517449140548706e-02
-3.049080632627010345e-02 -1.267135143280029297e-03 2.118880003690719604e-01
-4.198023304343223572e-02 -5.660831183195114136e-02 -8.026607334613800049e-02
8.188253268599510193e-03 3.812365233898162842e-03 1.451630890369415283e-01
-4.658489301800727844e-02 2.794422209262847900e-03 4.361266270279884338e-02
1.229766197502613068e-02 -7.283984124660491943e-02 9.722016751766204834e-02
1.507147401571273804e-02 2.203818410634994507e-03 -4.627438262104988098e-02
-4.273373261094093323e-02 -2.335068397223949432e-02 1.271792352199554443e-01
1.364471763372421265e-02 -9.287260472774505615e-03 -1.130182892084121704e-01
-3.478629887104034424e-02 -1.444659009575843811e-02 -1.997219771146774292e-01
1.750625297427177429e-02 -3.927735239267349243e-02 3.914531320333480835e-02
-2.675125375390052795e-02 4.460145905613899231e-02 -1.707407087087631226e-01
-3.772294521331787109e-02 2.905081212520599365e-02 -1.417916417121887207e-01
7.429637014865875244e-03 2.782209217548370361e-02 -1.077232733368873596e-01
-2.825464680790901184e-02 3.286028280854225159e-02 1.780969053506851196e-01
-1.097060367465019226e-02 7.022958993911743164e-02 6.546927616000175476e-03
-3.188721835613250732e-02 -7.036694884300231934e-02 -1.598239839076995850e-01
-3.903811424970626831e-02 4.444247856736183167e-02 -7.443538308143615723e-02
-4.001918807625770569e-02 -3.084289282560348511e-02 1.533879190683364868e-01
-3.540357947349548340e-02 4.451289400458335876e-02 1.072383448481559753e-01
-1.145243644714355469e-03 3.183095902204513550e-02 -1.727823317050933838e-01
-2.201728150248527527e-02 6.441569328308105469e-02 -1.105310618877410889e-01
-1.474206522107124329e-02 -1.197926402091979980e-01 1.401451043784618378e-02
-4.414286464452743530e-03 -7.448708266019821167e-02 -2.028164863586425781e-01
1.725016906857490540e-02 -2.552755177021026611e-02 4.199523851275444031e-02
-4.628185927867889404e-02 -3.290827572345733643e-02 -4.029831290245056152e-02
-3.093022108078002930e-02 1.957762986421585083e-02 -1.998338848352432251e-01
9.327270090579986572e-03 -6.550565361976623535e-02 -1.477971076965332031e-01
1.101505756378173828e-02 -5.405121669173240662e-02 1.425236612558364868e-01
-3.421890735626220703e-02 -9.133383631706237793e-02 5.491480603814125061e-02
1.300243102014064789e-02 -4.792009294033050537e-02 -1.310247778892517090e-01
-3.840567916631698608e-02 2.960128337144851685e-02 1.236936077475547791e-01
2.986671403050422668e-03 4.071732982993125916e-02 -1.104034408926963806e-01
-2.589559927582740784e-02 -1.085603088140487671e-01 -3.586922585964202881e-02
-2.980477549135684967e-02 6.165314093232154846e-02 -8.865601569414138794e-02
-1.986360922455787659e-02 7.167607545852661133e-04 -2.444080561399459839e-01
9.426869451999664307e-03 -8.901056647300720215e-02 8.475214987993240356e-02
1.128451712429523468e-02 2.440123632550239563e-02 -3.158753365278244019e-02
-1.100020669400691986e-02 -1.206008046865463257e-01 8.938014507293701172e-03
-3.915170952677726746e-02 4.433619603514671326e-02 6.010658666491508484e-02
-3.142130374908447266e-02 -9.867782890796661377e-02 -3.693481162190437317e-02
1.438958197832107544e-02 -3.032245486974716187e-02 -1.185456365346908569e-01
-4.439342767000198364e-02 -5.165392160415649414e-02 3.509741649031639099e-02
3.038508817553520203e-03 4.247702285647392273e-02 8.141366392374038696e-02
-2.241139486432075500e-02 -8.457041531801223755e-02 -1.748463064432144165e-01
1.196822151541709900e-03 -1.063951849937438965e-01 9.167101979255676270e-02
1.473730802536010742e-02 5.931964144110679626e-03 -3.552811965346336365e-02
-3.586609661579132080e-02 2.653722465038299561e-02 1.513006091117858887e-01
-4.143664985895156860e-02 3.785105794668197632e-02 -6.139057874679565430e-02
-4.272047430276870728e-02 -3.060520999133586884e-02 -1.221143528819084167e-01
-6.582287140190601349e-03 -5.244667455554008484e-02 -2.337821871042251587e-01
-3.857086971402168274e-02 -3.935774415731430054e-02 1.601236015558242798e-01
-3.793615102767944336e-02 -3.666054457426071167e-03 1.718812286853790283e-01
-4.214959591627120972e-02 -3.327549993991851807e-02 1.276491433382034302e-01
1.798567548394203186e-02 -3.836066648364067078e-02 -1.422063726931810379e-02
-3.622740879654884338e-02 -8.213825523853302002e-02 8.029922842979431152e-02
8.613061159849166870e-03 -6.036162003874778748e-02 -1.611752212047576904e-01
-2.707740850746631622e-02 -4.814633727073669434e-02 -2.187068611383438110e-01
9.466398507356643677e-03 -8.640284836292266846e-02 9.485349059104919434e-02
-4.078822582960128784e-02 -6.194729357957839966e-02 8.937494456768035889e-02
8.808266371488571167e-03 -2.977574244141578674e-03 1.496621817350387573e-01
-1.468885131180286407e-02 6.376722455024719238e-02 -1.142115145921707153e-01
-4.549768567085266113e-02 -2.636587992310523987e-02 -7.833424955606460571e-02
-7.374654058367013931e-03 -2.023797668516635895e-02 -2.468137890100479126e-01
-4.040330648422241211e-03 4.034775123000144958e-02 -1.658867597579956055e-01
-2.287380956113338470e-02 -1.001160889863967896e-01 -1.220749169588088989e-01
1.033073291182518005e-02 -9.211626648902893066e-02 4.888034611940383911e-02
1.524094678461551666e-02 -1.545101404190063477e-03 -5.879580229520797729e-02
-1.446937397122383118e-02 5.754506960511207581e-02 1.239993944764137268e-01
-3.101015836000442505e-02 5.281477048993110657e-02 1.089672818779945374e-01
-3.169264271855354309e-02 4.438035562634468079e-02 -1.487359404563903809e-01
1.042760536074638367e-02 -9.261904656887054443e-02 -3.946937248110771179e-02
-2.869401127099990845e-02 -1.042737364768981934e-01 -3.280893340706825256e-02
-2.419477328658103943e-02 -1.008634418249130249e-01 1.199670359492301941e-01
-3.045097738504409790e-02 5.991503968834877014e-02 7.729564607143402100e-02
-2.853950113058090210e-02 -2.720721438527107239e-02 2.245603948831558228e-01
1.550670526921749115e-02 -5.795183032751083374e-02 -7.757060974836349487e-02
-2.948650531470775604e-02 -7.076978683471679688e-02 -1.741683632135391235e-01
1.344259455800056458e-02 1.214309036731719971e-02 3.383568301796913147e-02
-2.534552849829196930e-02 -1.013984829187393188e-01 1.091811507940292358e-01
1.553702354431152344e-02 -6.370692700147628784e-02 5.762090906500816345e-02
1.792224869132041931e-02 -2.832855284214019775e-02 -3.574343398213386536e-03
-4.072229191660881042e-02 -5.205451697111129761e-02 -1.142438575625419617e-01
1.652754843235015869e-03 -3.288387507200241089e-02 -2.197133451700210571e-01
-3.946367651224136353e-02 4.427304491400718689e-02 -6.697396188974380493e-02
5.635848268866539001e-03 -7.362289354205131531e-03 1.799364984035491943e-01
3.287075087428092957e-04 5.530018359422683716e-03 1.963594108819961548e-01
-4.682860523462295532e-02 -1.759761199355125427e-02 -4.955386742949485779e-02
-4.331921041011810303e-02 -5.846690759062767029e-02 3.524350747466087341e-02
1.605358347296714783e-02 -4.288364946842193604e-02 7.932509481906890869e-02
-1.100878976285457611e-02 -7.167038321495056152e-02 2.179677188396453857e-01
-1.654180698096752167e-03 -5.155300348997116089e-02 2.199050635099411011e-01
-2.199026755988597870e-02 -1.146265398710966110e-02 2.395854443311691284e-01
-4.512194916605949402e-02 2.152943611145019531e-02 2.896407619118690491e-02
-4.210189729928970337e-02 -2.219926007091999054e-02 1.354276388883590698e-01
-4.332908987998962402e-02 -1.789451017975807190e-02 1.210323497653007507e-01
-4.630606248974800110e-02 -2.169680409133434296e-02 6.244029477238655090e-02
-4.610192775726318359e-02 -3.991833329200744629e-02 -5.314923357218503952e-03
-4.723965376615524292e-02 -2.234375476837158203e-02 -1.756379939615726471e-02
-4.493853077292442322e-02 -4.823506623506546021e-02 -2.663235925137996674e-02
-4.495965689420700073e-02 2.019481733441352844e-03 -9.184537827968597412e-02
4.380209371447563171e-03 -1.038540452718734741e-01 -6.928274780511856079e-02
7.498951628804206848e-03 -1.008694767951965332e-01 -3.818981349468231201e-02
-3.491473942995071411e-02 -8.800105750560760498e-02 -5.860842391848564148e-02
-8.197128772735595703e-03 6.812383234500885010e-02 -7.723736576735973358e-03
2.855436876416206360e-03 -8.087228983640670776e-02 1.654584109783172607e-01
1.028620824217796326e-02 -4.373040795326232910e-02 -1.620989441871643066e-01
-4.235781729221343994e-02 2.758777514100074768e-02 -8.736739307641983032e-02
-8.102990686893463135e-03 2.616373449563980103e-02 -2.111706584692001343e-01
-4.015604406595230103e-02 -7.249660789966583252e-02 4.815898463129997253e-02
-4.563572257757186890e-02 9.494855999946594238e-03 5.908134579658508301e-02
-4.027633927762508392e-03 5.474651977419853210e-02 -1.099293604493141174e-01
9.622860699892044067e-03 -6.003359705209732056e-02 -1.531056761741638184e-01
1.527037844061851501e-02 -3.922715783119201660e-02 9.578121453523635864e-02
-3.611895814538002014e-02 -1.787373423576354980e-02 1.881961673498153687e-01
-4.238976910710334778e-02 3.687741979956626892e-02 2.620698325335979462e-02
9.245984256267547607e-03 2.280224114656448364e-02 8.223474025726318359e-02
-6.949935108423233032e-03 -1.032001525163650513e-01 -1.356071084737777710e-01
-1.063274499028921127e-02 -1.191830337047576904e-01 -3.787010535597801208e-02
-4.479402303695678711e-02 -5.073797702789306641e-02 1.179437711834907532e-02
-3.997108340263366699e-02 -4.519109427928924561e-02 -1.368160396814346313e-01
9.344039484858512878e-03 -9.286640584468841553e-02 6.607443094253540039e-02
1.662399992346763611e-02 -1.188030559569597244e-02 3.238783776760101318e-02
-3.546337783336639404e-02 1.469854265451431274e-02 -1.809384971857070923e-01
1.488352939486503601e-02 -7.538687437772750854e-02 -1.568460650742053986e-02
-4.167912155389785767e-02 -3.383672237396240234e-02 -1.321572512388229370e-01
1.251147873699665070e-02 1.166166737675666809e-02 6.468939781188964844e-02
-3.814343735575675964e-02 -7.348842918872833252e-02 -8.325044810771942139e-02
-3.963210433721542358e-02 -1.588170975446701050e-02 1.615135967731475830e-01
-4.387935996055603027e-02 6.241543218493461609e-03 -1.062176525592803955e-01
3.224313259124755859e-03 -1.848246529698371887e-02 2.022137641906738281e-01
1.535864174365997314e-02 -1.244153175503015518e-02 7.351853698492050171e-02
-2.147278562188148499e-02 5.158373340964317322e-02 -1.639004349708557129e-01
3.721488639712333679e-03 -4.800412058830261230e-02 -2.037803679704666138e-01
-1.267342362552881241e-02 -5.284888669848442078e-02 -2.388754934072494507e-01
1.706264168024063110e-02 -2.677362784743309021e-02 5.052011832594871521e-02
1.001813262701034546e-02 2.587706595659255981e-02 -6.786870211362838745e-02
-5.238512530922889709e-04 -1.155728697776794434e-01 -2.962708473205566406e-03
-3.480087965726852417e-02 -6.382609903812408447e-02 1.566775888204574585e-01
-6.906342692673206329e-03 -1.166081726551055908e-01 -6.013121083378791809e-02
-2.395920455455780029e-05 2.223084121942520142e-02 -1.869260370731353760e-01
1.398533582687377930e-02 -2.151874825358390808e-02 1.102379783987998962e-01
-3.947663307189941406e-02 1.325812935829162598e-02 -1.512983292341232300e-01
-2.862581983208656311e-02 9.806118905544281006e-04 -2.245202809572219849e-01
2.042148262262344360e-03 4.917814955115318298e-02 5.155704170465469360e-02
5.275810137391090393e-03 -1.041566580533981323e-01 5.838992446660995483e-02
1.050318405032157898e-02 -8.388143777847290039e-02 8.947382122278213501e-02
6.166471168398857117e-03 -4.268569871783256531e-03 1.730137169361114502e-01
-1.044857595115900040e-02 5.134989693760871887e-02 1.382071822881698608e-01
-6.056154146790504456e-03 5.456308647990226746e-02 -1.252654492855072021e-01
1.264727674424648285e-02 1.495609804987907410e-02 -6.037106737494468689e-02
1.175826229155063629e-02 6.790084764361381531e-03 -1.106128618121147156e-01
8.863041177392005920e-03 2.694028988480567932e-02 -8.782293647527694702e-02
1.648098975419998169e-02 -6.200890988111495972e-03 -2.288978779688477516e-03
-4.664951562881469727e-02 -2.009680122137069702e-02 5.293969437479972839e-02
-6.165774539113044739e-04 -4.165495932102203369e-02 -2.256227135658264160e-01
-4.425187595188617706e-03 -1.168622374534606934e-01 5.289230495691299438e-02
9.719550609588623047e-03 -1.161626260727643967e-02 -1.628106236457824707e-01
1.245070062577724457e-02 -8.269093185663223267e-02 5.744645372033119202e-02
4.744250327348709106e-03 -5.893123894929885864e-02 -1.887928843498229980e-01
-4.716672375798225403e-02 -2.504856698215007782e-02 -1.177647802978754044e-02
-4.477835446596145630e-02 -6.146784871816635132e-03 -1.005803123116493225e-01
1.037340983748435974e-02 -6.304351612925529480e-03 -1.510933935642242432e-01
-2.578116580843925476e-02 7.035583257675170898e-02 1.874113641679286957e-02
-3.940839320421218872e-02 -5.060513317584991455e-02 1.370298862457275391e-01
4.754729568958282471e-03 -6.602956354618072510e-02 1.783298403024673462e-01
-2.971581369638442993e-02 -1.014972329139709473e-01 5.483578145503997803e-02
-2.284590527415275574e-02 4.091921821236610413e-02 -1.894658505916595459e-01
-4.418195225298404694e-03 -1.172442436218261719e-01 -3.919304162263870239e-02
2.363814041018486023e-03 3.442569077014923096e-02 -1.409458667039871216e-01
-2.563994750380516052e-02 -1.063304990530014038e-01 -6.406129896640777588e-02
-4.129488021135330200e-02 -4.675704985857009888e-02 -1.175852790474891663e-01
-3.423248976469039917e-02 4.994561895728111267e-02 -1.106832101941108704e-01
-1.304262503981590271e-02 4.781140014529228210e-02 1.561277657747268677e-01
8.951397612690925598e-03 -4.159194976091384888e-02 1.679442673921585083e-01
-4.090544208884239197e-02 -5.970164015889167786e-02 9.500248730182647705e-02
-1.582805067300796509e-03 -1.065689921379089355e-01 -1.032180935144424438e-01
1.659744977951049805e-02 -7.582135498523712158e-03 -1.720848307013511658e-02
-2.208816632628440857e-02 -1.023760885000228882e-01 -1.161499023437500000e-01
-1.069211028516292572e-02 -1.152392774820327759e-01 8.683579415082931519e-02
-1.224814914166927338e-03 -9.129747748374938965e-03 2.170151621103286743e-01
1.007902808487415314e-02 2.653145790100097656e-02 4.342369362711906433e-02
4.514889791607856750e-03 -8.868400752544403076e-02 1.365190893411636353e-01
-2.153309993445873260e-03 5.971163138747215271e-02 -4.018329828977584839e-02
1.155100762844085693e-02 -7.884345948696136475e-02 -9.160786122083663940e-02
1.451238431036472321e-02 -7.787766307592391968e-02 -1.300795236602425575e-03
-3.123373538255691528e-02 -4.897113889455795288e-03 -2.166161090135574341e-01
-9.787110611796379089e-04 3.199780359864234924e-03 2.050497382879257202e-01
-4.320192337036132812e-02 -3.255148231983184814e-02 -1.129493117332458496e-01
-1.714254729449748993e-02 6.113452091813087463e-02 1.112438663840293884e-01
-3.580892458558082581e-02 3.733564168214797974e-03 -1.880755722522735596e-01
-2.747277542948722839e-02 -1.075651198625564575e-01 5.187319591641426086e-03
-4.532251134514808655e-02 -4.624228924512863159e-02 -1.635748520493507385e-02
7.640836760401725769e-03 -3.070972859859466553e-03 -1.727592945098876953e-01
-2.489917539060115814e-02 -1.081007421016693115e-01 6.800320744514465332e-02
-4.194287955760955811e-02 2.726086229085922241e-02 -9.555807709693908691e-02
-3.223420307040214539e-02 -9.501691162586212158e-02 -5.650982633233070374e-02
-4.301186650991439819e-02 2.694454044103622437e-03 -1.223862841725349426e-01
-4.717195406556129456e-04 -1.152802109718322754e-01 2.185368165373802185e-02
-2.265043184161186218e-02 1.861607655882835388e-02 2.145528048276901245e-01
-4.528537020087242126e-02 -2.096312679350376129e-02 8.770541846752166748e-02
1.735566183924674988e-02 -1.632411405444145203e-02 -7.060105912387371063e-03
-2.639780007302761078e-02 1.559843868017196655e-02 -2.205061316490173340e-01
-4.515659064054489136e-02 2.316424995660781860e-02 -1.828562095761299133e-02
-4.389209300279617310e-02 3.046930581331253052e-02 1.623770222067832947e-02
1.563696376979351044e-02 -4.071343690156936646e-02 -9.632655233144760132e-02
-6.117406301200389862e-03 -1.012512445449829102e-01 1.474091559648513794e-01
-2.087774686515331268e-02 7.309682667255401611e-02 -1.386421546339988708e-02
1.002046652138233185e-02 -3.773542866110801697e-02 -1.669025272130966187e-01
-3.679723478853702545e-03 -4.471746832132339478e-02 -2.331473529338836670e-01
-2.830636315047740936e-02 5.426011607050895691e-02 1.181543171405792236e-01
1.522889174520969391e-02 -6.932863965630531311e-03 -7.697571069002151489e-02
2.199858427047729492e-03 -5.352757126092910767e-02 -2.067534476518630981e-01
-3.512888401746749878e-02 -6.275888532400131226e-03 -1.967252939939498901e-01
-4.622946307063102722e-02 -6.400864571332931519e-03 6.666686385869979858e-02
-4.307462275028228760e-02 3.523416444659233093e-02 9.138397872447967529e-04
-4.587267339229583740e-02 1.201963424682617188e-02 -5.036684498190879822e-02
-8.566298522055149078e-03 -9.917631745338439941e-02 -1.520750671625137329e-01
-4.300221055746078491e-02 -6.847850978374481201e-03 -1.275203526020050049e-01
-3.917523100972175598e-02 -6.096333637833595276e-02 -1.126733124256134033e-01
-4.219366237521171570e-02 -3.695869818329811096e-02 1.230538710951805115e-01
-3.677253797650337219e-02 -8.390709757804870605e-02 5.556604638695716858e-02
-4.181604087352752686e-02 -5.373853445053100586e-02 9.695875644683837891e-02
-1.784331165254116058e-03 4.125231131911277771e-02 -1.502448916435241699e-01
1.708948612213134766e-02 -3.256659954786300659e-02 5.414075031876564026e-02
-3.917798399925231934e-02 9.583715349435806274e-03 1.510566025972366333e-01
-3.146769851446151733e-02 -9.561584889888763428e-02 7.515233010053634644e-02
1.650292053818702698e-02 -3.979814052581787109e-02 -7.835707813501358032e-02
9.370218962430953979e-03 -2.933117374777793884e-02 1.648694574832916260e-01
-3.345831297338008881e-03 6.225505843758583069e-02 -1.109284628182649612e-02
1.111200265586376190e-02 -1.463419757783412933e-02 1.401275396347045898e-01
6.690917536616325378e-03 2.677004411816596985e-02 -1.214645579457283020e-01
-3.662913292646408081e-02 5.139249935746192932e-02 -7.367616146802902222e-02
9.215049445629119873e-03 -9.819960594177246094e-02 3.484587650746107101e-04
1.791594922542572021e-02 -3.259154036641120911e-02 -2.304424718022346497e-02
-4.566647484898567200e-02 -3.342476487159729004e-02 -6.124548241496086121e-02
1.029994897544384003e-02 -3.592678159475326538e-02 1.573344320058822632e-01
-1.248785294592380524e-02 5.984799936413764954e-02 -1.288741976022720337e-01
1.553966291248798370e-02 4.302579909563064575e-04 -3.287279605865478516e-02
1.241491921246051788e-02 -7.650664448738098145e-02 -8.560594171285629272e-02
-1.555274240672588348e-03 3.978200629353523254e-02 1.351062953472137451e-01
-1.550493761897087097e-03 -1.123309135437011719e-01 -6.691107153892517090e-02
-4.105419665575027466e-02 -5.480560660362243652e-02 1.067060455679893494e-01
-3.890609741210937500e-02 3.830739483237266541e-02 9.212291985750198364e-02
-3.658522292971611023e-02 -8.722783625125885010e-02 -1.179947284981608391e-03
-4.648498073220252991e-02 6.910929456353187561e-03 -4.184072464704513550e-02
-4.337161034345626831e-02 -3.864769265055656433e-02 -1.010715216398239136e-01
-2.485699579119682312e-02 -3.791766613721847534e-02 -2.339548766613006592e-01
-3.273613750934600830e-02 -7.730016112327575684e-02 1.415615379810333252e-01
-3.478076681494712830e-02 -9.221200644969940186e-02 -6.392163224518299103e-03
1.228808052837848663e-02 -3.080647438764572144e-04 1.045006066560745239e-01
9.932508692145347595e-03 -6.156025454401969910e-02 1.450778543949127197e-01
-3.685982152819633484e-02 -6.038602069020271301e-02 -1.406807601451873779e-01
1.196941547095775604e-02 2.010384202003479004e-02 -4.680314287543296814e-02
-5.063342861831188202e-03 6.368944421410560608e-03 2.163147479295730591e-01
-2.762020379304885864e-02 6.954473257064819336e-02 -2.084514126181602478e-03
-2.501547709107398987e-02 5.860941484570503235e-02 1.129094511270523071e-01
-4.350551217794418335e-02 -5.746762081980705261e-02 -2.917652018368244171e-02
-3.957227617502212524e-02 -1.231613010168075562e-02 -1.648536473512649536e-01
-2.961897104978561401e-02 2.727707847952842712e-02 -1.948531270027160645e-01
-4.557472467422485352e-02 1.949363201856613159e-02 -2.493155747652053833e-02
-3.889242559671401978e-02 -3.269687294960021973e-04 1.623839884996414185e-01
-2.445508912205696106e-02 -7.527463883161544800e-02 -1.884765326976776123e-01
-2.114263363182544708e-02 -8.817638456821441650e-02 -1.697171032428741455e-01
1.021025516092777252e-02 -8.026506006717681885e-02 -1.055918782949447632e-01
-3.276092559099197388e-02 -8.965423703193664551e-02 -8.467286080121994019e-02
-3.518746048212051392e-02 7.715892046689987183e-03 1.819067597389221191e-01
-3.425025567412376404e-02 -8.956292271614074707e-02 6.944422423839569092e-02
-4.264730960130691528e-02 3.689545392990112305e-02 9.522022679448127747e-03
-4.487172700464725494e-03 -1.183991134166717529e-01 2.754060924053192139e-02
-3.907780349254608154e-02 -7.892140746116638184e-02 1.485816575586795807e-02
3.635860979557037354e-03 -6.238731369376182556e-02 1.887728422880172729e-01
1.768336445093154907e-02 -4.062901064753532410e-02 -3.760126978158950806e-02
5.888108164072036743e-03 -2.369878813624382019e-03 -1.853326261043548584e-01
7.606055587530136108e-03 3.423078730702400208e-02 -7.101894170045852661e-02
-4.254868626594543457e-02 3.046067804098129272e-02 6.295344978570938110e-02
-3.926154971122741699e-02 -6.633567810058593750e-02 1.000493019819259644e-01
-4.382248222827911377e-02 -3.363399952650070190e-02 1.026469692587852478e-01
-1.218519359827041626e-02 -1.200205087661743164e-01 3.030259534716606140e-02
-1.687661372125148773e-02 6.233656778931617737e-02 -1.246841996908187866e-01
-3.510582819581031799e-02 -4.844321310520172119e-02 1.781712919473648071e-01
-3.474255651235580444e-02 3.245138376951217651e-02 -1.583299785852432251e-01
1.327578537166118622e-02 -2.921991236507892609e-02 -1.336354911327362061e-01
-6.788494065403938293e-04 4.255786165595054626e-02 1.189322918653488159e-01
-3.387437760829925537e-02 -1.230090390890836716e-02 2.007983773946762085e-01
-3.190284967422485352e-02 -8.503659814596176147e-02 -1.159946992993354797e-01
-4.737964645028114319e-02 -2.947127446532249451e-03 -9.850610047578811646e-03
-2.480554953217506409e-02 6.457278132438659668e-02 8.234476298093795776e-02
4.837874323129653931e-03 2.337639778852462769e-02 1.339605301618576050e-01
-4.266273230314254761e-02 3.338896483182907104e-02 4.456814751029014587e-02
-6.995507981628179550e-03 5.718194320797920227e-02 9.771042317152023315e-02
-3.195365890860557556e-03 -7.786314189434051514e-02 1.957212239503860474e-01
1.124998182058334351e-02 2.196114882826805115e-02 -5.867661163210868835e-02
-1.661249250173568726e-02 -9.394617751240730286e-03 2.434790134429931641e-01
1.331891305744647980e-02 -7.732720673084259033e-02 -6.416169553995132446e-02
7.857222110033035278e-03 -8.765408396720886230e-02 -1.083535775542259216e-01
-3.522548824548721313e-02 -6.677259504795074463e-02 -1.413729339838027954e-01
-3.278875350952148438e-02 4.002297297120094299e-02 -1.537894904613494873e-01
-1.514545548707246780e-02 5.206298455595970154e-02 -1.637487262487411499e-01
4.984689876437187195e-03 3.463762998580932617e-02 -1.128451749682426453e-01
-1.873692497611045837e-02 -3.553354144096374512e-01 -2.138469219207763672e-01
-1.483765058219432831e-02 -2.705202698707580566e-01 -1.951787620782852173e-01
3.255489841103553772e-02 -3.649304807186126709e-01 9.900160133838653564e-02
-3.852394595742225647e-02 -2.955649197101593018e-01 1.398777589201927185e-02
2.665949054062366486e-02 -2.373441159725189209e-01 -2.820132859051227570e-02
1.701373979449272156e-02 -3.054890036582946777e-01 1.963348686695098877e-01
2.667288854718208313e-02 -3.978947699069976807e-01 -1.259576678276062012e-01
-3.906609863042831421e-02 -3.806328177452087402e-01 6.933347880840301514e-02
-1.840605959296226501e-02 -2.937155961990356445e-01 1.962633281946182251e-01
-1.230716332793235779e-02 -4.946198761463165283e-01 -1.282195374369621277e-02
2.416777051985263824e-02 -2.491399049758911133e-01 9.814471006393432617e-02
-8.384693413972854614e-03 -4.694882929325103760e-01 -1.279846131801605225e-01
3.434206545352935791e-02 -3.271121978759765625e-01 7.816595584154129028e-02
-8.728597313165664673e-03 -4.779261350631713867e-01 -1.066068336367607117e-01
-3.658384084701538086e-02 -4.018883407115936279e-01 -7.909845560789108276e-02
-2.990786917507648468e-02 -3.314507007598876953e-01 -1.657894104719161987e-01
-5.285780411213636398e-03 -3.472484648227691650e-01 -2.358574718236923218e-01
-2.261163853108882904e-02 -4.648319780826568604e-01 1.027962937951087952e-01
1.618341170251369476e-02 -4.623574018478393555e-01 1.002721413969993591e-01
2.082224562764167786e-02 -2.569422721862792969e-01 -1.460104882717132568e-01
-3.938782215118408203e-02 -3.983898162841796875e-01 -1.720733009278774261e-02
-2.831211499869823456e-02 -4.356147050857543945e-01 1.236786991357803345e-01
-3.037730231881141663e-02 -2.574105858802795410e-01 7.607463747262954712e-02
2.199492417275905609e-02 -4.579004645347595215e-01 4.242385551333427429e-02
3.279394656419754028e-02 -4.013934433460235596e-01 -2.695799805223941803e-02
-3.825488965958356857e-04 -2.523764967918395996e-01 -1.949056833982467651e-01
-3.175405040383338928e-02 -4.364003539085388184e-01 -7.609271258115768433e-02
1.653123088181018829e-02 -4.744345545768737793e-01 3.498291969299316406e-02
-9.830770082771778107e-03 -2.966795265674591064e-01 2.170329689979553223e-01
2.759663388133049011e-02 -2.630600035190582275e-01 9.218537062406539917e-02
-7.448863238096237183e-03 -1.935919523239135742e-01 -8.490824839100241661e-04
-1.007745228707790375e-02 -2.896341681480407715e-01 -2.184040397405624390e-01
2.127411030232906342e-02 -4.113059639930725098e-01 1.580548435449600220e-01
-3.321055695414543152e-02 -2.954725027084350586e-01 -1.198749914765357971e-01
-2.043896168470382690e-02 -2.742775678634643555e-01 -1.803089380264282227e-01
9.776014834642410278e-03 -2.175812721252441406e-01 -1.245624199509620667e-01
3.130191192030906677e-02 -2.604656815528869629e-01 -4.660598468035459518e-03
5.507972557097673416e-03 -2.475080490112304688e-01 -1.849044561386108398e-01
3.495211526751518250e-02 -3.728497326374053955e-01 -4.028191417455673218e-02
1.454416848719120026e-02 -3.090167939662933350e-01 -2.095620483160018921e-01
2.915026992559432983e-02 -3.104910254478454590e-01 1.312347203493118286e-01
3.040371835231781006e-02 -4.193151295185089111e-01 3.611124679446220398e-02
3.206441923975944519e-02 -3.997479081153869629e-01 -5.409727245569229126e-02
-3.856373205780982971e-02 -3.352482020854949951e-01 8.385270088911056519e-02
2.680372446775436401e-02 -4.296483099460601807e-01 -6.667220592498779297e-02
2.755162119865417480e-02 -2.455354928970336914e-01 4.342271760106086731e-02
-3.149209171533584595e-02 -4.513454437255859375e-01 3.274616599082946777e-02
-2.816993556916713715e-02 -3.759920299053192139e-01 -1.708093732595443726e-01
2.152532525360584259e-02 -2.363137006759643555e-01 -1.039163172245025635e-01
2.246597781777381897e-03 -3.474252521991729736e-01 -2.347974926233291626e-01
3.029395639896392822e-02 -3.071445822715759277e-01 -1.223867759108543396e-01
3.449748083949089050e-02 -3.804663419723510742e-01 -3.789111599326133728e-02
2.874403726309537888e-03 -3.759315907955169678e-01 2.320141047239303589e-01
-3.494022786617279053e-02 -2.714349627494812012e-01 3.795022517442703247e-02
-2.232500165700912476e-02 -3.077207803726196289e-01 1.914989352226257324e-01
-2.358806878328323364e-02 -2.207841128110885620e-01 1.217816397547721863e-02
-3.965728729963302612e-02 -3.395624458789825439e-01 6.629696488380432129e-02
-5.201338324695825577e-03 -2.466522157192230225e-01 -1.866654902696609497e-01
-3.541267663240432739e-02 -3.669875264167785645e-01 1.251293122768402100e-01
3.343166783452033997e-02 -2.845208048820495605e-01 -4.984054341912269592e-02
4.256330896168947220e-03 -4.258427023887634277e-01 -1.905612349510192871e-01
3.433103486895561218e-02 -3.340724706649780273e-01 8.024178445339202881e-02
9.711513295769691467e-03 -2.126569300889968872e-01 9.568236023187637329e-02
2.606974169611930847e-02 -2.603875994682312012e-01 -1.124950870871543884e-01
2.424672432243824005e-02 -4.454521238803863525e-01 -5.120201408863067627e-02
7.965898141264915466e-03 -3.869178593158721924e-01 2.213345468044281006e-01
1.787915825843811035e-02 -2.290962934494018555e-01 9.978153556585311890e-02
-2.556858956813812256e-02 -2.874474525451660156e-01 1.614404022693634033e-01
3.046033903956413269e-02 -4.106376767158508301e-01 -5.844240263104438782e-02
3.487762436270713806e-02 -3.809742331504821777e-01 2.497026696801185608e-02
-3.733045980334281921e-02 -3.466568887233734131e-01 -1.041900664567947388e-01
2.144483663141727448e-02 -2.183571904897689819e-01 -7.073848973959684372e-03
-2.629277668893337250e-02 -4.290990233421325684e-01 1.469407528638839722e-01
2.829606086015701294e-02 -4.165163338184356689e-01 8.932708948850631714e-02
1.179112866520881653e-02 -4.692150354385375977e-01 -9.316959232091903687e-02
2.317531034350395203e-02 -4.389207661151885986e-01 9.982549399137496948e-02
-1.632655970752239227e-02 -2.198537290096282959e-01 -1.082936301827430725e-01
1.432075724005699158e-02 -4.627179503440856934e-01 -9.680491685867309570e-02
2.807036601006984711e-02 -2.528988420963287354e-01 6.139684095978736877e-02
-1.105459593236446381e-02 -2.318743467330932617e-01 1.418784856796264648e-01
-9.404189884662628174e-03 -2.166383564472198486e-01 1.122255995869636536e-01
2.250200696289539337e-02 -2.302580773830413818e-01 6.228680908679962158e-02
-8.869728073477745056e-03 -4.109569787979125977e-01 -2.066907137632369995e-01
2.906115259975194931e-04 -1.989785283803939819e-01 6.649265438318252563e-02
4.113382659852504730e-03 -1.987853944301605225e-01 6.028912216424942017e-02
1.705331355333328247e-02 -4.048139154911041260e-01 -1.762904524803161621e-01
-4.009737074375152588e-02 -3.358318805694580078e-01 -5.433243885636329651e-02
2.397456206381320953e-03 -2.394641637802124023e-01 -1.777857244014739990e-01
2.635326609015464783e-02 -4.385613203048706055e-01 -4.080946370959281921e-02
-3.923948481678962708e-02 -3.370214998722076416e-01 7.317008078098297119e-02
3.350030258297920227e-02 -3.356888592243194580e-01 9.326186031103134155e-02
-2.520401403307914734e-02 -3.700676262378692627e-01 -1.875266432762145996e-01
-2.394249476492404938e-02 -3.694343566894531250e-01 1.967991143465042114e-01
-2.714658528566360474e-02 -4.680798649787902832e-01 -3.810147754848003387e-03
1.967105269432067871e-02 -4.531392455101013184e-01 -8.245933055877685547e-02
-7.467267103493213654e-03 -2.025315463542938232e-01 -8.832529187202453613e-02
-3.817554935812950134e-02 -3.410704731941223145e-01 -9.220548719167709351e-02
2.398698963224887848e-02 -3.345532715320587158e-01 1.745138615369796753e-01
1.468991860747337341e-02 -3.224443495273590088e-01 2.102546244859695435e-01
-3.502026572823524475e-02 -3.156082928180694580e-01 1.156579628586769104e-01
-9.326372295618057251e-03 -4.927616119384765625e-01 -4.742723703384399414e-02
-7.256743963807821274e-03 -2.089641094207763672e-01 -1.118918508291244507e-01
-1.035101711750030518e-02 -2.048560976982116699e-01 6.986795365810394287e-02
-7.816683501005172729e-03 -4.958554506301879883e-01 4.949320852756500244e-02
2.882763557136058807e-02 -2.542713582515716553e-01 5.260754749178886414e-02
-1.388035528361797333e-02 -2.348996698856353760e-01 -1.526295989751815796e-01
-1.771259307861328125e-02 -2.513992786407470703e-01 -1.647430658340454102e-01
2.737824432551860809e-02 -3.052732646465301514e-01 1.424003839492797852e-01
-1.727474853396415710e-02 -4.874747097492218018e-01 -2.951458469033241272e-02
-4.098710045218467712e-02 -3.317653536796569824e-01 -6.298135034739971161e-03
3.079272434115409851e-02 -4.051311314105987549e-01 7.483706623315811157e-02
-3.737770393490791321e-02 -4.147072136402130127e-01 4.267153888940811157e-02
-3.931218758225440979e-02 -3.198878765106201172e-01 -5.836457386612892151e-02
3.051569685339927673e-02 -4.203926920890808105e-01 -1.075345650315284729e-02
3.475680574774742126e-02 -3.724691569805145264e-01 -4.692558571696281433e-02
-9.945318102836608887e-03 -1.958405524492263794e-01 -2.183987386524677277e-02
-3.484581410884857178e-02 -4.361293613910675049e-01 -4.405421204864978790e-04
-1.269907876849174500e-02 -3.168894946575164795e-01 2.224348485469818115e-01
1.327826268970966339e-02 -3.559100329875946045e-01 -2.149711549282073975e-01
1.711815968155860901e-02 -3.277775049209594727e-01 -2.050564289093017578e-01
-1.934597082436084747e-02 -2.443598806858062744e-01 1.349346488714218140e-01
-5.135777406394481659e-03 -4.977415204048156738e-01 3.541191294789314270e-02
-3.811992332339286804e-02 -3.376212418079376221e-01 9.173836559057235718e-02
-1.469319686293601990e-02 -2.051135450601577759e-01 4.120907932519912720e-02
-2.535438723862171173e-02 -4.639308750629425049e-01 8.140961825847625732e-02
1.874466240406036377e-02 -4.685701131820678711e-01 3.656540811061859131e-02
-3.622496873140335083e-02 -3.580111563205718994e-01 1.182064712047576904e-01
1.560494862496852875e-02 -2.302337586879730225e-01 -1.290745139122009277e-01
-3.459908440709114075e-02 -3.201500773429870605e-01 1.231675073504447937e-01
3.148392960429191589e-02 -3.342944681644439697e-01 -1.179824545979499817e-01
2.331063710153102875e-02 -3.117699921131134033e-01 1.716279983520507812e-01
-2.677914872765541077e-02 -2.299358248710632324e-01 -1.279914192855358124e-02
-2.892024815082550049e-02 -4.266445934772491455e-01 1.326301395893096924e-01
2.808446064591407776e-02 -3.504597544670104980e-01 -1.463374942541122437e-01
-4.370504990220069885e-03 -4.800815284252166748e-01 1.218643113970756531e-01
2.692540176212787628e-02 -2.395563125610351562e-01 -3.766141086816787720e-02
1.747937873005867004e-03 -4.873022437095642090e-01 9.125570207834243774e-02
2.999106049537658691e-02 -4.088587164878845215e-01 -7.126886397600173950e-02
-2.291995659470558167e-02 -3.855150043964385986e-01 -1.904432773590087891e-01
1.135156117379665375e-02 -4.798377156257629395e-01 7.303390651941299438e-02
4.408261738717556000e-04 -4.911473989486694336e-01 7.713018357753753662e-02
3.329930081963539124e-02 -3.964691162109375000e-01 3.610247746109962463e-02
2.121965214610099792e-02 -3.025666475296020508e-01 1.775604784488677979e-01
1.942477002739906311e-02 -4.617201983928680420e-01 -5.302270874381065369e-02
-3.524735197424888611e-02 -3.064747452735900879e-01 -1.090653836727142334e-01
1.993908733129501343e-02 -2.543036043643951416e-01 1.368643045425415039e-01
-3.765869140625000000e-02 -3.037799000740051270e-01 6.589524447917938232e-02
-1.731705851852893829e-02 -2.059851139783859253e-01 -1.626664958894252777e-02
1.762209273874759674e-02 -2.886146903038024902e-01 -1.901130378246307373e-01
2.830774709582328796e-02 -4.137789905071258545e-01 9.471458196640014648e-02
3.512035682797431946e-02 -3.331601917743682861e-01 -6.574294716119766235e-02
-1.092570088803768158e-02 -4.597784876823425293e-01 -1.438469886779785156e-01
-2.711302414536476135e-02 -3.451646566390991211e-01 -1.827048957347869873e-01
-3.119158092886209488e-03 -2.274924814701080322e-01 1.456890851259231567e-01
2.250778116285800934e-02 -3.926937878131866455e-01 -1.600270569324493408e-01
-1.661016792058944702e-02 -4.622072577476501465e-01 -1.243068501353263855e-01
2.769844047725200653e-02 -2.740160822868347168e-01 -1.172987371683120728e-01
1.171333529055118561e-02 -4.724208116531372070e-01 -8.326157927513122559e-02
-3.514151275157928467e-02 -4.070278406143188477e-01 9.955655038356781006e-02
-4.111723229289054871e-02 -3.629991710186004639e-01 -1.905294321477413177e-02
3.374380618333816528e-02 -2.794651985168457031e-01 -3.334204084239900112e-04
-2.202435396611690521e-02 -4.353130459785461426e-01 -1.490319818258285522e-01
1.359683088958263397e-02 -2.042552530765533447e-01 -5.162753909826278687e-02
-9.012159891426563263e-03 -2.561382651329040527e-01 -1.930851042270660400e-01
-2.255047298967838287e-02 -2.520686388015747070e-01 1.317259520292282104e-01
1.054369658231735229e-02 -2.029618620872497559e-01 5.362282693386077881e-02
-1.281495392322540283e-02 -4.548610150814056396e-01 -1.489032953977584839e-01
3.138827532529830933e-02 -2.915346622467041016e-01 9.189687669277191162e-02
3.375460952520370483e-02 -3.777179419994354248e-01 -6.243175640702247620e-02
-1.268697716295719147e-02 -2.572915554046630859e-01 -1.872763782739639282e-01
-2.577216550707817078e-02 -3.335548043251037598e-01 -1.883798688650131226e-01
3.493997082114219666e-02 -3.105917572975158691e-01 5.417160317301750183e-02
-1.187137141823768616e-02 -4.776934981346130371e-01 -1.008043363690376282e-01
3.628411516547203064e-02 -3.527856469154357910e-01 2.293788082897663116e-02
3.208633139729499817e-02 -3.820019364356994629e-01 9.106976538896560669e-02
-3.489746898412704468e-02 -4.220663011074066162e-01 7.682436704635620117e-02
-2.385804802179336548e-02 -2.972712218761444092e-01 -1.835938692092895508e-01
-4.093889892101287842e-02 -3.319362401962280273e-01 1.316350512206554413e-02
-3.597023710608482361e-02 -2.901305258274078369e-01 -7.725313305854797363e-02
1.516220718622207642e-02 -4.291670620441436768e-01 1.686097532510757446e-01
-1.168085634708404541e-02 -4.662618935108184814e-01 1.456493437290191650e-01
3.326357901096343994e-02 -3.963549137115478516e-01 -3.049697540700435638e-02
3.541641682386398315e-02 -3.042446970939636230e-01 -3.213657811284065247e-02
-3.093590028584003448e-02 -2.490280270576477051e-01 3.311682492494583130e-02
-5.569471977651119232e-03 -4.128239154815673828e-01 2.168510109186172485e-01
-2.303605340421199799e-02 -2.899652719497680664e-01 -1.823817044496536255e-01
-2.937067858874797821e-02 -4.591126441955566406e-01 -2.369506843388080597e-02
3.214579075574874878e-02 -4.096135199069976807e-01 9.767867624759674072e-03
1.967471651732921600e-02 -2.137279957532882690e-01 -7.147747091948986053e-04
2.740740031003952026e-02 -2.465235292911529541e-01 -6.200594827532768250e-02
-3.467950597405433655e-02 -3.911947607994079590e-01 -1.141993701457977295e-01
-2.718686684966087341e-02 -4.484753608703613281e-01 1.078857332468032837e-01
3.474905714392662048e-02 -3.489270806312561035e-01 -7.026023417711257935e-02
-2.020095102488994598e-02 -2.117401361465454102e-01 -8.726863190531730652e-03
2.335649356245994568e-02 -4.444322884082794189e-01 -6.865240633487701416e-02
-3.206948935985565186e-02 -4.476327896118164062e-01 4.153468832373619080e-02
1.514769159257411957e-02 -2.057378739118576050e-01 2.495977282524108887e-02
-9.711258113384246826e-03 -4.437721371650695801e-01 1.843114346265792847e-01
3.641258552670478821e-02 -3.269749879837036133e-01 -2.180513739585876465e-02
-2.593572996556758881e-02 -2.412725389003753662e-01 -9.440774470567703247e-02
-3.562080860137939453e-02 -3.846463859081268311e-01 1.154038086533546448e-01
2.688831835985183716e-02 -4.080213308334350586e-01 1.197513639926910400e-01
3.579637780785560608e-02 -3.052272200584411621e-01 -3.655686508864164352e-03
3.164891898632049561e-02 -3.851297497749328613e-01 -8.767456561326980591e-02
2.466714940965175629e-02 -4.428595304489135742e-01 6.820931285619735718e-02
-3.100338857620954514e-03 -2.181322872638702393e-01 1.261033862829208374e-01
-3.175927698612213135e-02 -3.912337720394134521e-01 -1.393507122993469238e-01
3.109106048941612244e-02 -4.129475951194763184e-01 4.461359977722167969e-02
-2.331134863197803497e-02 -4.723315238952636719e-01 -5.277898162603378296e-02
3.092709928750991821e-02 -3.137553930282592773e-01 -1.192417964339256287e-01
3.500386327505111694e-02 -3.569074571132659912e-01 6.251768022775650024e-02
3.278193250298500061e-02 -3.862492442131042480e-01 -6.780917197465896606e-02
-3.460709005594253540e-02 -4.015249311923980713e-01 1.122051179409027100e-01
-4.035301506519317627e-02 -3.710066378116607666e-01 4.686561599373817444e-02
3.549855574965476990e-02 -3.733121752738952637e-01 -1.173050701618194580e-02
-3.996124863624572754e-02 -3.175546824932098389e-01 -3.423999622464179993e-02
-2.204634621739387512e-02 -3.613511621952056885e-01 -2.023290246725082397e-01
2.938072383403778076e-02 -3.000378906726837158e-01 1.220716759562492371e-01
-3.779829666018486023e-02 -3.726679086685180664e-01 -9.149871021509170532e-02
-2.850012481212615967e-02 -3.250626325607299805e-01 -1.725915074348449707e-01
1.460409490391612053e-03 -3.542570471763610840e-01 2.364119142293930054e-01
-3.652366995811462402e-02 -3.740697205066680908e-01 1.110164895653724670e-01
2.821938879787921906e-02 -4.194384217262268066e-01 -7.343696057796478271e-02
-3.563025593757629395e-02 -3.716628253459930420e-01 1.216030046343803406e-01
2.259459532797336578e-02 -4.577263295650482178e-01 -4.653935786336660385e-03
-3.837949037551879883e-02 -3.214820027351379395e-01 7.648583501577377319e-02
3.363028168678283691e-02 -3.861465454101562500e-01 -4.967615753412246704e-02
3.392975404858589172e-02 -3.210946619510650635e-01 8.222746104001998901e-02
2.577821537852287292e-02 -4.182817935943603516e-01 -1.048855781555175781e-01
1.936921477317810059e-02 -3.034917414188385010e-01 -1.906153559684753418e-01
-1.484822668135166168e-02 -2.648261487483978271e-01 1.803323030471801758e-01
2.947693690657615662e-02 -2.506348788738250732e-01 -2.541150338947772980e-02
3.504318371415138245e-02 -3.809339702129364014e-01 -3.297083778306841850e-03
3.476496785879135132e-02 -3.402762115001678467e-01 -7.254821807146072388e-02
-3.092607110738754272e-02 -2.584164142608642578e-01 -8.171881735324859619e-02
2.737171575427055359e-02 -4.219122827053070068e-01 -7.934179902076721191e-02
2.373099140822887421e-02 -3.203292191028594971e-01 1.726590842008590698e-01
-2.865950390696525574e-02 -4.588340520858764648e-01 5.699413642287254333e-02
-2.725091576576232910e-02 -2.741237878799438477e-01 1.361220180988311768e-01
1.900325529277324677e-02 -4.381022751331329346e-01 -1.229494884610176086e-01
2.601982560008764267e-03 -4.492423236370086670e-01 -1.628352403640747070e-01
3.489113599061965942e-02 -3.371949791908264160e-01 7.049374282360076904e-02
-3.182990709319710732e-03 -4.421636164188385010e-01 1.901053190231323242e-01
2.162693440914154053e-02 -4.611899554729461670e-01 1.677698339335620403e-03
3.249772638082504272e-02 -3.599652051925659180e-01 1.023656278848648071e-01
-3.792018070816993713e-02 -3.669134080410003662e-01 -9.278791397809982300e-02
1.784027740359306335e-02 -2.629958689212799072e-01 1.587535291910171509e-01
-3.910305723547935486e-02 -3.687442839145660400e-01 -7.332624495029449463e-02
1.922973617911338806e-02 -3.227172791957855225e-01 1.946159005165100098e-01
-9.229606948792934418e-03 -3.180146813392639160e-01 2.279442548751831055e-01
-4.053937271237373352e-02 -3.425716757774353027e-01 4.589574411511421204e-02
-3.780817613005638123e-02 -3.643144667148590088e-01 9.838426113128662109e-02
-1.217714743688702583e-03 -2.024651020765304565e-01 8.119115233421325684e-02
2.678116224706172943e-02 -3.191234171390533447e-01 1.534737050533294678e-01
-3.945662826299667358e-02 -3.049865961074829102e-01 -8.302332833409309387e-03
-3.422230482101440430e-02 -4.142386615276336670e-01 1.005627885460853577e-01
2.801589295268058777e-02 -2.423681616783142090e-01 -6.244285497814416885e-03
-3.053995966911315918e-02 -3.422395288944244385e-01 1.634968966245651245e-01
1.136938855051994324e-02 -3.121144771575927734e-01 2.154092192649841309e-01
-2.941775135695934296e-02 -2.431670129299163818e-01 3.715477138757705688e-02
7.569483947008848190e-03 -2.219571471214294434e-01 1.259602457284927368e-01
-4.058369621634483337e-02 -3.224732875823974609e-01 -9.412890300154685974e-03
-1.917569339275360107e-02 -4.747694134712219238e-01 9.560063481330871582e-02
2.657106705009937286e-02 -3.891226053237915039e-01 -1.357992887496948242e-01
-2.114943228662014008e-02 -2.968829274177551270e-01 1.891123205423355103e-01
3.355643153190612793e-02 -3.709299564361572266e-01 7.925552874803543091e-02
2.477951347827911377e-02 -2.424840927124023438e-01 7.543493062257766724e-02
-2.543489076197147369e-02 -4.688352346420288086e-01 5.866273120045661926e-02
8.031535893678665161e-03 -4.627755284309387207e-01 1.417920738458633423e-01
-3.569445759057998657e-02 -3.202055692672729492e-01 1.118958145380020142e-01
-4.088941961526870728e-02 -3.728613555431365967e-01 2.048778906464576721e-02
-2.539210952818393707e-02 -2.256042957305908203e-01 3.486242145299911499e-03
-2.189826592803001404e-02 -3.855419456958770752e-01 2.000154405832290649e-01
-3.927689418196678162e-02 -3.875219523906707764e-01 -5.037859827280044556e-02
3.244069591164588928e-02 -3.173590600490570068e-01 1.011332347989082336e-01
-2.856754697859287262e-02 -4.573864936828613281e-01 6.540931016206741333e-02
-2.937518432736396790e-02 -4.459906220436096191e-01 9.251455217599868774e-02
1.816056296229362488e-02 -2.968038618564605713e-01 -1.924969404935836792e-01
-2.910309843719005585e-02 -4.590993523597717285e-01 -3.101760894060134888e-02
-3.186702355742454529e-02 -3.223315179347991943e-01 1.475494951009750366e-01
-3.983585536479949951e-02 -3.523676395416259766e-01 -6.476325541734695435e-02
2.580796927213668823e-02 -4.270790517330169678e-01 9.810735285282135010e-02
2.758130058646202087e-02 -4.333510398864746094e-01 4.923713207244873047e-02
3.623344004154205322e-02 -3.373727798461914062e-01 -3.469739109277725220e-02
-3.880661353468894958e-02 -3.959044814109802246e-01 -4.671555012464523315e-02
-7.926044985651969910e-03 -2.286594063043594360e-01 -1.563856005668640137e-01
2.521375566720962524e-02 -4.467953443527221680e-01 -1.865054853260517120e-02
2.375078015029430389e-02 -3.029053807258605957e-01 1.646170914173126221e-01
2.921061217784881592e-02 -3.742105364799499512e-01 -1.256411969661712646e-01
-3.434372693300247192e-02 -2.668728232383728027e-01 -4.308548197150230408e-02
-5.945446435362100601e-03 -3.840878009796142578e-01 -2.255878001451492310e-01
1.517299003899097443e-02 -4.252949953079223633e-01 1.731122732162475586e-01
-3.951177746057510376e-02 -3.473957180976867676e-01 -7.119735330343246460e-02
-3.752493113279342651e-02 -2.853913307189941406e-01 -3.387253032997250557e-03
-1.698934286832809448e-02 -2.814946174621582031e-01 1.908741146326065063e-01
2.620790526270866394e-02 -4.303049445152282715e-01 8.523523807525634766e-02
