-2.984433472156524658e-01 2.654556632041931152e-01 1.694798469543457031e-01
-3.058444559574127197e-01 1.203090250492095947e-01 -2.619015872478485107e-01
-3.223988115787506104e-01 4.071722626686096191e-01 2.137904614210128784e-01
-3.289908468723297119e-01 3.084139227867126465e-01 -5.152547731995582581e-02
-3.270367383956909180e-01 3.604906499385833740e-01 -1.061770245432853699e-01
-3.013975322246551514e-01 3.788315057754516602e-01 -3.557692170143127441e-01
-3.274503648281097412e-01 3.543502688407897949e-01 1.083088368177413940e-01
-3.285970091819763184e-01 2.328862398862838745e-01 2.143212407827377319e-01
-3.278586268424987793e-01 2.896091938018798828e-01 -1.986856013536453247e-01
-3.034893274307250977e-01 1.514348685741424561e-01 2.373257279396057129e-01
-3.108940124511718750e-01 3.449282944202423096e-01 4.379771351814270020e-01
-3.287422358989715576e-01 3.254437446594238281e-01 -4.480348899960517883e-03
-3.221284747123718262e-01 2.431843280792236328e-01 4.443331062793731689e-01
-2.988366782665252686e-01 3.346459567546844482e-01 -3.144223093986511230e-01
-3.244945406913757324e-01 3.685840666294097900e-01 -2.611370384693145752e-01
-3.291763961315155029e-01 2.033931910991668701e-01 4.507400095462799072e-02
-3.040749728679656982e-01 1.221412122249603271e-01 1.522510200738906860e-01
-2.984709441661834717e-01 3.399990499019622803e-01 1.221350431442260742e-01
-3.250269591808319092e-01 1.287340521812438965e-01 -1.031037196516990662e-01
-2.974283695220947266e-01 2.894059419631958008e-01 9.577154368162155151e-02
-2.968935072422027588e-01 2.484372407197952271e-01 -1.339380741119384766e-01
-3.285659551620483398e-01 2.206103205680847168e-01 2.057179808616638184e-01
-3.252263069152832031e-01 2.330054193735122681e-01 -3.208919167518615723e-01
-3.008285164833068848e-01 1.575351357460021973e-01 -1.912219971418380737e-01
-2.967498302459716797e-01 3.161951601505279541e-01 -1.430400907993316650e-01
-3.054727911949157715e-01 4.607985317707061768e-01 -1.336964070796966553e-01
-3.000700473785400391e-01 1.609691679477691650e-01 -1.343571692705154419e-01
-3.130918145179748535e-01 7.454012334346771240e-02 -1.401395201683044434e-01
-3.127973079681396484e-01 4.497733116149902344e-01 -3.138028681278228760e-01
-3.263290226459503174e-01 2.477988600730895996e-01 -2.845382094383239746e-01
-3.005475699901580811e-01 1.682709008455276489e-01 -2.218954861164093018e-01
-3.065679073333740234e-01 4.390145838260650635e-01 -3.221117854118347168e-01
-2.981103062629699707e-01 3.713648915290832520e-01 -1.531246155500411987e-01
-2.994731962680816650e-01 1.680501699447631836e-01 6.754882633686065674e-05
-3.029915690422058105e-01 4.358495473861694336e-01 5.116245895624160767e-02
-3.278347551822662354e-01 1.629769355058670044e-01 8.524980396032333374e-02
-3.263180851936340332e-01 3.072127401828765869e-01 3.049932420253753662e-01
-2.976035475730895996e-01 3.167550265789031982e-01 9.025246649980545044e-02
-3.252631723880767822e-01 3.964546918869018555e-01 -8.435380458831787109e-02
-3.089162707328796387e-01 4.743941426277160645e-01 -1.122828498482704163e-01
-3.284032344818115234e-01 2.986607253551483154e-01 -1.472750008106231689e-01
-3.249887228012084961e-01 3.927780091762542725e-01 1.374190449714660645e-01
-3.264224529266357422e-01 3.632899522781372070e-01 -1.562908142805099487e-01
-3.030771613121032715e-01 2.327593863010406494e-01 -4.414880275726318359e-01
-2.983168661594390869e-01 2.462407350540161133e-01 -2.806242704391479492e-01
-3.049610257148742676e-01 2.527248561382293701e-01 -4.902145862579345703e-01
-3.247922956943511963e-01 3.363427519798278809e-01 -3.072122931480407715e-01
-2.965973019599914551e-01 2.800567746162414551e-01 -1.739223301410675049e-02
-3.273897767066955566e-01 1.522944569587707520e-01 5.328121781349182129e-02
-2.993078827857971191e-01 1.720131337642669678e-01 -1.085708886384963989e-01
-3.139230906963348389e-01 1.595874726772308350e-01 4.351500272750854492e-01
-3.231233656406402588e-01 1.643910557031631470e-01 3.626735806465148926e-01
-3.227592110633850098e-01 3.106620311737060547e-01 -3.981292545795440674e-01
-3.010372221469879150e-01 4.244065582752227783e-01 -5.465410649776458740e-02
-3.063651621341705322e-01 2.682236731052398682e-01 -5.143975615501403809e-01
-3.285742998123168945e-01 1.829513311386108398e-01 8.692900091409683228e-02
-3.266569375991821289e-01 3.706504702568054199e-01 -9.488561004400253296e-02
-3.009252548217773438e-01 4.016001820564270020e-01 -2.736655175685882568e-01
-2.987632751464843750e-01 1.865086555480957031e-01 3.077633120119571686e-02
-3.002426326274871826e-01 1.535363495349884033e-01 -6.991390883922576904e-02
-3.246845304965972900e-01 2.981238365173339844e-01 3.704874813556671143e-01
-3.281112611293792725e-01 2.828220427036285400e-01 -1.854977011680603027e-01
-3.263632953166961670e-01 2.303755432367324829e-01 -2.730135321617126465e-01
-3.160522878170013428e-01 3.916078805923461914e-01 -4.364598989486694336e-01
-3.269139826297760010e-01 3.604738414287567139e-01 1.389287114143371582e-01
-3.221554458141326904e-01 1.025880426168441772e-01 2.019034922122955322e-01
-2.980772256851196289e-01 3.634775876998901367e-01 -1.935823708772659302e-01
-3.208863437175750732e-01 8.828455209732055664e-02 -8.453564345836639404e-02
-3.257477879524230957e-01 1.271245032548904419e-01 -7.516548037528991699e-03
-3.274114727973937988e-01 3.593015372753143311e-01 -5.416188389062881470e-02
-3.278343677520751953e-01 1.839617043733596802e-01 1.963914036750793457e-01
-3.015637397766113281e-01 4.238637089729309082e-01 -2.009668648242950439e-01
-2.972193062305450439e-01 2.259046435356140137e-01 -5.346816778182983398e-02
-3.259742856025695801e-01 1.403626203536987305e-01 -9.131355583667755127e-02
-3.231763839721679688e-01 1.037336736917495728e-01 -6.874257326126098633e-02
-3.251618742942810059e-01 3.959545195102691650e-01 9.742364287376403809e-02
-3.289313316345214844e-01 2.488398849964141846e-01 -1.211577951908111572e-01
-3.045762479305267334e-01 1.075995117425918579e-01 -1.253708451986312866e-01
-2.966046631336212158e-01 2.616716325283050537e-01 -6.646509468555450439e-02
-2.971314489841461182e-01 3.426171541213989258e-01 -1.217547804117202759e-01
-3.279154002666473389e-01 1.921752095222473145e-01 -1.266269981861114502e-01
-3.026472628116607666e-01 2.794242501258850098e-01 3.439438343048095703e-01
-3.011900484561920166e-01 2.468944191932678223e-01 -4.052771329879760742e-01
-2.980014085769653320e-01 2.629452645778656006e-01 -2.783126831054687500e-01
-3.026283383369445801e-01 3.951951563358306885e-01 2.048884481191635132e-01
-3.004870116710662842e-01 4.113847613334655762e-01 -1.919721961021423340e-01
-3.056380152702331543e-01 9.465968608856201172e-02 1.076448149979114532e-02
-3.285789787769317627e-01 1.910901367664337158e-01 -4.875283688306808472e-02
-3.230966329574584961e-01 1.419138014316558838e-01 3.175315558910369873e-01
-3.010502457618713379e-01 2.882004380226135254e-01 2.911595702171325684e-01
-2.994684875011444092e-01 2.456106394529342651e-01 2.168641388416290283e-01
-3.253035247325897217e-01 1.910676658153533936e-01 -2.721944153308868408e-01
-3.051863312721252441e-01 1.629718095064163208e-01 -3.773398101329803467e-01
-3.042413592338562012e-01 3.904398381710052490e-01 2.667126655578613281e-01
-3.060822188854217529e-01 4.566435515880584717e-01 -2.168460190296173096e-01
-3.169843852519989014e-01 2.768859565258026123e-01 -5.106269717216491699e-01
-3.293773531913757324e-01 2.666619122028350830e-01 1.351152211427688599e-01
-3.278578221797943115e-01 1.704853475093841553e-01 -5.131843686103820801e-02
-3.251860141754150391e-01 1.191736459732055664e-01 8.736141026020050049e-02
-3.207350373268127441e-01 4.339346587657928467e-01 -1.960133612155914307e-01
-3.030857145786285400e-01 3.478411436080932617e-01 -4.446172118186950684e-01
-3.024860918521881104e-01 2.204827219247817993e-01 -4.142445921897888184e-01
-2.967247366905212402e-01 3.188501596450805664e-01 -1.259670257568359375e-01
-2.972309291362762451e-01 3.276163041591644287e-01 3.141523897647857666e-02
-3.212880790233612061e-01 4.378501176834106445e-01 -1.302121728658676147e-01
-2.982673048973083496e-01 3.788568973541259766e-01 -7.800066471099853516e-02
-3.015484809875488281e-01 1.439155936241149902e-01 -1.690505295991897583e-01
-3.242212235927581787e-01 1.997276693582534790e-01 -3.237136006355285645e-01
-2.970285117626190186e-01 2.386510670185089111e-01 -1.533995755016803741e-02
-3.008670508861541748e-01 3.075197935104370117e-01 -4.125391542911529541e-01
-2.967945933341979980e-01 3.245204389095306396e-01 -4.627334326505661011e-02
-2.995001673698425293e-01 2.643443346023559570e-01 2.273366302251815796e-01
-3.131605088710784912e-01 3.935643136501312256e-01 -4.582348465919494629e-01
-3.293002247810363770e-01 2.510589063167572021e-01 -7.913865894079208374e-02
-3.215932846069335938e-01 1.314288526773452759e-01 -2.652083337306976318e-01
-2.965178191661834717e-01 3.004579842090606689e-01 -6.202574819326400757e-02
-3.272456228733062744e-01 2.662655413150787354e-01 2.970423102378845215e-01
-3.013865351676940918e-01 4.281853139400482178e-01 -1.292164325714111328e-01
-3.019898235797882080e-01 4.173989892005920410e-01 9.776198863983154297e-02
-3.019739687442779541e-01 2.748944759368896484e-01 3.242592811584472656e-01
-3.225153684616088867e-01 4.068230390548706055e-01 -2.377334386110305786e-01
-3.007250726222991943e-01 1.933002769947052002e-01 -3.095161914825439453e-01
-3.022660613059997559e-01 3.166567981243133545e-01 -4.469767808914184570e-01
-3.294515609741210938e-01 2.358434200286865234e-01 -3.958969190716743469e-02
-2.984244823455810547e-01 2.060455530881881714e-01 -1.972166299819946289e-01
-2.971700727939605713e-01 2.825262546539306641e-01 7.130581140518188477e-02
-3.178049921989440918e-01 4.646008014678955078e-01 -2.319677360355854034e-02
-3.045658469200134277e-01 4.441049396991729736e-01 8.422387391328811646e-02
-3.288884758949279785e-01 1.948630213737487793e-01 9.522783011198043823e-02
-3.020862936973571777e-01 2.573441267013549805e-01 -4.371311664581298828e-01
-3.263749182224273682e-01 3.710231184959411621e-01 -1.265310645103454590e-01
-3.293566405773162842e-01 2.954593896865844727e-01 -1.387501880526542664e-02
-3.217791020870208740e-01 8.767375349998474121e-02 7.238785922527313232e-02
-2.976856231689453125e-01 2.208106815814971924e-01 -1.663909703493118286e-01
-2.972925603389739990e-01 3.259785175323486328e-01 -2.097246497869491577e-01
-2.999507784843444824e-01 1.607098728418350220e-01 2.023966051638126373e-02
-2.992997765541076660e-01 1.973231136798858643e-01 1.327979713678359985e-01
-3.268518447875976562e-01 3.729092478752136230e-01 -3.409972786903381348e-02
-3.067219257354736328e-01 1.717911958694458008e-01 -4.213848412036895752e-01
-3.288479149341583252e-01 1.908982694149017334e-01 2.041962929069995880e-02
-3.226111233234405518e-01 1.774007976055145264e-01 3.929826915264129639e-01
-3.292956650257110596e-01 2.272583544254302979e-01 1.323873251676559448e-01
-3.062753379344940186e-01 3.322480916976928711e-01 3.961111605167388916e-01
-2.988010644912719727e-01 1.802828758955001831e-01 -7.160396873950958252e-02
-3.220094442367553711e-01 3.252413868904113770e-01 4.058046638965606689e-01
-3.244706690311431885e-01 4.032912552356719971e-01 -1.248849853873252869e-01
-3.150951564311981201e-01 3.462325930595397949e-01 -5.027931928634643555e-01
-3.215788602828979492e-01 4.403844475746154785e-01 2.001075074076652527e-03
-3.150100708007812500e-01 7.496596872806549072e-02 1.792758256196975708e-01
-2.973037660121917725e-01 3.063658773899078369e-01 7.351391017436981201e-02
-3.278618752956390381e-01 2.254155427217483521e-01 2.595708966255187988e-01
-3.255286514759063721e-01 1.361239701509475708e-01 1.928084194660186768e-01
-3.096914589405059814e-01 2.326944321393966675e-01 4.682750105857849121e-01
-3.032512068748474121e-01 4.453099370002746582e-01 -1.456788629293441772e-01
-3.078420162200927734e-01 1.384361386299133301e-01 3.313432335853576660e-01
-3.030343651771545410e-01 3.823762536048889160e-01 2.493308186531066895e-01
-3.229373097419738770e-01 1.883666813373565674e-01 -3.471190631389617920e-01
-2.965310215950012207e-01 2.899949848651885986e-01 -1.222605481743812561e-01
-3.209743201732635498e-01 2.364418655633926392e-01 4.604130387306213379e-01
-3.133240342140197754e-01 4.654645621776580811e-01 -2.277895510196685791e-01
-3.007556498050689697e-01 4.032855629920959473e-01 -2.571265399456024170e-01
-3.274150192737579346e-01 2.016328573226928711e-01 -1.833513826131820679e-01
-3.277063369750976562e-01 1.870206743478775024e-01 2.146426439285278320e-01
-3.238053619861602783e-01 1.074649244546890259e-01 -4.665268585085868835e-02
-3.012164533138275146e-01 3.362545967102050781e-01 -4.075595438480377197e-01
-3.262573778629302979e-01 3.847779631614685059e-01 -4.559630528092384338e-03
-3.013772964477539062e-01 4.258674979209899902e-01 -1.156463474035263062e-02
-2.990418672561645508e-01 3.832991719245910645e-01 -2.119677662849426270e-01
-2.988430559635162354e-01 2.377471923828125000e-01 1.747326552867889404e-01
-3.232873082160949707e-01 1.343054175376892090e-01 -2.180332541465759277e-01
-3.207299709320068359e-01 8.410079777240753174e-02 -4.888375103473663330e-02
-3.169607520103454590e-01 3.471703827381134033e-01 -4.826375246047973633e-01
-2.996350228786468506e-01 4.028027653694152832e-01 -1.519786268472671509e-01
-3.047488331794738770e-01 2.691932022571563721e-01 -4.942347407341003418e-01
-3.279614746570587158e-01 3.024412989616394043e-01 2.243731617927551270e-01
-3.295331597328186035e-01 2.783629894256591797e-01 -2.135500498116016388e-02
-3.217239081859588623e-01 4.193761050701141357e-01 -2.228540778160095215e-01
-3.173393905162811279e-01 3.358029723167419434e-01 4.503585398197174072e-01
-2.992970347404479980e-01 1.907548606395721436e-01 1.125465333461761475e-01
-3.217473626136779785e-01 2.830939590930938721e-01 4.434449374675750732e-01
-3.019863069057464600e-01 3.456177115440368652e-01 -4.207511842250823975e-01
-3.135018050670623779e-01 1.701798439025878906e-01 4.477581977844238281e-01
-3.006535768508911133e-01 2.599133551120758057e-01 2.764768898487091064e-01
-3.133772611618041992e-01 2.543205022811889648e-01 4.969983398914337158e-01
-3.008432686328887939e-01 4.147399365901947021e-01 2.872713468968868256e-02
-3.045173287391662598e-01 4.528412520885467529e-01 6.462553516030311584e-03
-3.227247297763824463e-01 4.223797619342803955e-01 1.121215373277664185e-01
-3.090357780456542969e-01 2.787943482398986816e-01 -5.364956259727478027e-01
-3.037026822566986084e-01 3.296572566032409668e-01 3.449804782867431641e-01
-2.999697327613830566e-01 3.517017960548400879e-01 -3.466971516609191895e-01
-3.034417629241943359e-01 3.845304846763610840e-01 -4.034569859504699707e-01
-3.269729316234588623e-01 1.454252153635025024e-01 8.462499082088470459e-02
-3.251372575759887695e-01 3.536866903305053711e-01 -2.631129622459411621e-01
-3.120756149291992188e-01 8.880378305912017822e-02 -2.254445999860763550e-01
-3.183094561100006104e-01 4.614336490631103516e-01 -8.222223818302154541e-02
-3.240959346294403076e-01 2.190500497817993164e-01 -3.482521772384643555e-01
-2.970983982086181641e-01 2.320296913385391235e-01 -9.594026952981948853e-02
-3.277703821659088135e-01 3.346508443355560303e-01 -1.300493627786636353e-01
-3.290396928787231445e-01 3.010126650333404541e-01 1.207168400287628174e-01
-2.971997559070587158e-01 2.867143154144287109e-01 -2.277658730745315552e-01
-3.013718128204345703e-01 2.338913232088088989e-01 2.910920977592468262e-01
-3.274978399276733398e-01 2.424150854349136353e-01 2.869688868522644043e-01
-3.241117298603057861e-01 2.465815544128417969e-01 4.047494530677795410e-01
-3.080892860889434814e-01 1.493999958038330078e-01 3.593623936176300049e-01
-3.282751441001892090e-01 2.382442504167556763e-01 2.406465411186218262e-01
-3.229919373989105225e-01 2.532025873661041260e-01 -3.994335234165191650e-01
-3.003326058387756348e-01 3.827428221702575684e-01 1.358819901943206787e-01
-3.271556496620178223e-01 3.400324583053588867e-01 -1.700971871614456177e-01
-3.014407157897949219e-01 4.276928901672363281e-01 -1.486030519008636475e-01
-2.996173501014709473e-01 3.114576637744903564e-01 -3.675210773944854736e-01
-3.291749656200408936e-01 2.462049424648284912e-01 1.660225987434387207e-01
-3.280061781406402588e-01 3.475562334060668945e-01 4.574800282716751099e-02
-2.981206774711608887e-01 3.178038001060485840e-01 1.301388144493103027e-01
-3.177935183048248291e-01 8.781959116458892822e-02 -1.838519871234893799e-01
-3.256527185440063477e-01 2.127332091331481934e-01 3.484309017658233643e-01
-3.043363094329833984e-01 3.550454378128051758e-01 3.312731087207794189e-01
-2.975838780403137207e-01 3.537147939205169678e-01 -9.409562684595584869e-03
-3.069897294044494629e-01 2.857104837894439697e-01 -5.236700177192687988e-01
-3.250848054885864258e-01 1.201020926237106323e-01 1.195858567953109741e-01
-2.965684235095977783e-01 2.680248022079467773e-01 -4.929487407207489014e-02
-3.101002275943756104e-01 1.448423415422439575e-01 -3.998567163944244385e-01
-2.988846898078918457e-01 3.219934999942779541e-01 1.740025579929351807e-01
-3.280094861984252930e-01 2.200007587671279907e-01 -1.713413149118423462e-01
-3.187732398509979248e-01 1.249769181013107300e-01 3.561204075813293457e-01
-3.232033550739288330e-01 4.103647470474243164e-01 1.600304841995239258e-01
-3.235325813293457031e-01 3.872721791267395020e-01 -2.562429606914520264e-01
-3.247236907482147217e-01 3.102438151836395264e-01 3.577664196491241455e-01
-3.262087404727935791e-01 1.687020957469940186e-01 2.637248635292053223e-01
-3.074738681316375732e-01 1.220370680093765259e-01 2.788769900798797607e-01
-3.001034855842590332e-01 4.119589924812316895e-01 -1.220105960965156555e-01
-2.978853285312652588e-01 3.200634717941284180e-01 1.097189784049987793e-01
-3.088713884353637695e-01 1.665009260177612305e-01 4.009849429130554199e-01
-2.982500195503234863e-01 3.431392312049865723e-01 9.931312501430511475e-02
-3.037721514701843262e-01 4.023608565330505371e-01 2.239826172590255737e-01
-3.212798833847045898e-01 1.600894033908843994e-01 -3.418081998825073242e-01
-2.974718511104583740e-01 2.813281118869781494e-01 -2.507064044475555420e-01
-3.207440972328186035e-01 4.131196439266204834e-01 2.457350492477416992e-01
-3.230801820755004883e-01 2.249368280172348022e-01 4.223980605602264404e-01
-3.263916075229644775e-01 1.564392149448394775e-01 -1.321970969438552856e-01
-3.284176886081695557e-01 2.615187168121337891e-01 -1.688356101512908936e-01
-3.158662319183349609e-01 4.354350566864013672e-01 -3.323702514171600342e-01
-3.028629422187805176e-01 1.863015592098236084e-01 2.894796729087829590e-01
-2.970437407493591309e-01 2.730266153812408447e-01 -2.044234871864318848e-01
-2.981234788894653320e-01 2.030788362026214600e-01 -1.444818675518035889e-01
-2.991785407066345215e-01 3.927093148231506348e-01 -1.714744269847869873e-01
-3.294297158718109131e-01 2.170777618885040283e-01 4.903481155633926392e-02
-2.973705828189849854e-01 3.386438488960266113e-01 -1.904591768980026245e-01
-3.129025101661682129e-01 4.711258411407470703e-01 -1.876171082258224487e-01
-3.050706684589385986e-01 4.178183078765869141e-01 -3.632752299308776855e-01
-3.026498556137084961e-01 4.046491980552673340e-01 -3.366972506046295166e-01
-3.246932327747344971e-01 2.236777096986770630e-01 -3.327817320823669434e-01
-3.296278119087219238e-01 2.354275584220886230e-01 6.419137865304946899e-02
-3.263967931270599365e-01 1.380071789026260376e-01 1.159889847040176392e-01
-3.264024257659912109e-01 1.349233835935592651e-01 4.864526540040969849e-02
-3.012259900569915771e-01 4.236959815025329590e-01 -1.674138307571411133e-01
-3.019473254680633545e-01 1.435639411211013794e-01 -1.976202577352523804e-01
-2.980215549468994141e-01 2.085411250591278076e-01 -1.590130925178527832e-01
-3.265363574028015137e-01 1.952267587184906006e-01 2.962191700935363770e-01
-3.218394517898559570e-01 2.149484157562255859e-01 4.399451911449432373e-01
-3.293941617012023926e-01 2.198228836059570312e-01 -7.292721420526504517e-03
-3.054826557636260986e-01 9.553658962249755859e-02 -6.458769552409648895e-03
-2.976562380790710449e-01 2.105516493320465088e-01 -8.576288074254989624e-02
-3.260281383991241455e-01 1.730861514806747437e-01 2.820212841033935547e-01
-3.120996057987213135e-01 6.658384203910827637e-02 1.692701689898967743e-02
-3.086726367473602295e-01 2.726633548736572266e-01 4.612576067447662354e-01
-3.195502758026123047e-01 1.519078314304351807e-01 -3.608322143554687500e-01
-3.205657601356506348e-01 2.616317868232727051e-01 4.664104580879211426e-01
-3.279889225959777832e-01 3.095905184745788574e-01 -1.667201668024063110e-01
-3.275253474712371826e-01 3.063135147094726562e-01 2.462956309318542480e-01
-2.985209822654724121e-01 2.778974473476409912e-01 1.765499860048294067e-01
-2.991531789302825928e-01 3.123087882995605469e-01 1.977311223745346069e-01
-3.242354094982147217e-01 3.400549888610839844e-01 -3.239980041980743408e-01
-3.267877697944641113e-01 3.145239949226379395e-01 -2.401156723499298096e-01
-3.185750246047973633e-01 2.499272823333740234e-01 -4.849447011947631836e-01
-3.233696222305297852e-01 4.225760996341705322e-01 -6.150381267070770264e-02
-3.206750750541687012e-01 3.054057359695434570e-01 4.456935822963714600e-01
-3.271805942058563232e-01 1.659026741981506348e-01 -1.054166629910469055e-01
-2.969207465648651123e-01 3.343113362789154053e-01 -9.954974055290222168e-02
-3.118225038051605225e-01 1.540236324071884155e-01 4.152745008468627930e-01
-3.032508492469787598e-01 4.434022009372711182e-01 -1.715603023767471313e-01
-3.264893889427185059e-01 3.774380683898925781e-01 7.571276277303695679e-02
-3.058741092681884766e-01 4.469199180603027344e-01 1.196789890527725220e-01
-3.183813095092773438e-01 3.145575821399688721e-01 -4.855359494686126709e-01
-3.238994777202606201e-01 1.288480460643768311e-01 -1.714621186256408691e-01
-3.232262134552001953e-01 4.225528240203857422e-01 -8.780062943696975708e-02
-3.293058872222900391e-01 2.580419480800628662e-01 1.500286310911178589e-01
-3.163473606109619141e-01 7.930208742618560791e-02 2.031908929347991943e-01
-2.993902862071990967e-01 2.948926687240600586e-01 2.199596017599105835e-01
-3.279752731323242188e-01 2.667487561702728271e-01 2.582622766494750977e-01
-3.165101706981658936e-01 7.918664813041687012e-02 -1.537616252899169922e-01
-3.140814006328582764e-01 1.888935565948486328e-01 4.694504439830780029e-01
-3.085338473320007324e-01 4.276043772697448730e-01 -3.832606375217437744e-01
-2.995086908340454102e-01 1.672052741050720215e-01 -9.414626657962799072e-02
-3.288767039775848389e-01 2.370252758264541626e-01 1.927516609430313110e-01
-3.051649034023284912e-01 4.185305237770080566e-01 2.164514660835266113e-01
-3.054127395153045654e-01 4.519787728786468506e-01 6.917829811573028564e-02
-2.971900701522827148e-01 2.320045381784439087e-01 -1.278411448001861572e-01
-3.027859032154083252e-01 4.173921346664428711e-01 1.381946206092834473e-01
-3.265999853610992432e-01 2.827506661415100098e-01 3.166811466217041016e-01
-3.002720177173614502e-01 3.149176836013793945e-01 2.475133836269378662e-01
-3.211191296577453613e-01 2.895066738128662109e-01 -4.452408850193023682e-01
-3.287217915058135986e-01 3.039189577102661133e-01 -1.054446548223495483e-01
-3.062859773635864258e-01 3.568998873233795166e-01 3.685882389545440674e-01
-3.268322944641113281e-01 1.437747329473495483e-01 -4.501849412918090820e-03
-3.242278099060058594e-01 4.086308479309082031e-01 -1.081650853157043457e-01
-3.026864826679229736e-01 2.393141984939575195e-01 3.379926383495330811e-01
-3.221361637115478516e-01 1.150810420513153076e-01 -1.900093555450439453e-01
-2.975757718086242676e-01 3.366025388240814209e-01 5.139715224504470825e-02
-3.241127431392669678e-01 1.087128072977066040e-01 1.113416552543640137e-01
-3.189442455768585205e-01 1.026048064231872559e-01 -2.304275780916213989e-01
-3.133780360221862793e-01 6.594516336917877197e-02 6.510668247938156128e-02
-3.050626218318939209e-01 3.462464213371276855e-01 3.584792017936706543e-01
-2.970345616340637207e-01 2.440808713436126709e-01 -1.484910249710083008e-01
-3.015305101871490479e-01 4.259096384048461914e-01 7.204340770840644836e-03
-3.297002315521240234e-01 2.645554244518280029e-01 1.857638545334339142e-02
-3.059651851654052734e-01 1.041170805692672729e-01 -1.807097792625427246e-01
-3.244061470031738281e-01 2.799333035945892334e-01 3.901455402374267578e-01
-3.105733692646026611e-01 2.570512890815734863e-01 4.812608659267425537e-01
-3.197653591632843018e-01 2.379485666751861572e-01 -4.612034559249877930e-01
-3.246404528617858887e-01 2.382594794034957886e-01 -3.444807827472686768e-01
-2.991863191127777100e-01 3.014754056930541992e-01 2.067346274852752686e-01
-3.195387721061706543e-01 4.020002484321594238e-01 -3.532359898090362549e-01
-3.271611332893371582e-01 2.164345979690551758e-01 -2.199703305959701538e-01
-3.296445906162261963e-01 2.585503160953521729e-01 -1.412167586386203766e-02
-3.225325942039489746e-01 3.299468755722045898e-01 -3.900062441825866699e-01
-2.988552153110504150e-01 2.514803111553192139e-01 -3.176475465297698975e-01
-3.263018727302551270e-01 2.265149205923080444e-01 3.336825966835021973e-01
-3.187352418899536133e-01 4.522718787193298340e-01 -1.700612902641296387e-01
-3.283082246780395508e-01 2.007373571395874023e-01 1.959603279829025269e-01
-3.007479608058929443e-01 3.387054800987243652e-01 -3.906777799129486084e-01
-3.082354664802551270e-01 9.195312857627868652e-02 1.701768934726715088e-01
-3.245052397251129150e-01 4.018523097038269043e-01 1.194464862346649170e-01
-3.035864233970642090e-01 1.171640455722808838e-01 8.261118829250335693e-02
-2.984062433242797852e-01 3.800488114356994629e-01 -3.886202722787857056e-02
-3.277572989463806152e-01 3.046987652778625488e-01 -1.910633891820907593e-01
-3.178875446319580078e-01 4.529328942298889160e-01 1.283757239580154419e-01
-3.007003664970397949e-01 3.281938135623931885e-01 2.526890039443969727e-01
-3.053059875965118408e-01 1.177344322204589844e-01 -2.324759364128112793e-01
-3.245912790298461914e-01 4.080051779747009277e-01 -5.763760954141616821e-02
-3.182455599308013916e-01 4.625417590141296387e-01 -4.790180921554565430e-02
-3.031724691390991211e-01 2.494458407163619995e-01 3.559919893741607666e-01
-3.038068115711212158e-01 1.490679085254669189e-01 -3.048380315303802490e-01
-3.214278817176818848e-01 3.117045760154724121e-01 4.294603765010833740e-01
-3.278753459453582764e-01 2.874307930469512939e-01 2.492676079273223877e-01
-3.283211588859558105e-01 3.116433620452880859e-01 -1.332978904247283936e-01
-3.296252191066741943e-01 2.774785459041595459e-01 4.553927481174468994e-02
-3.041608929634094238e-01 1.622927635908126831e-01 2.882184088230133057e-01
-3.090909421443939209e-01 4.680178463459014893e-01 -2.043738663196563721e-01
-2.999054193496704102e-01 3.499744832515716553e-01 1.885956823825836182e-01
-2.995282411575317383e-01 2.349388748407363892e-01 -3.311288356781005859e-01
-3.258768022060394287e-01 1.854591071605682373e-01 -2.377162426710128784e-01
-3.049645125865936279e-01 1.504199206829071045e-01 -3.411387205123901367e-01
-2.974514365196228027e-01 3.559492230415344238e-01 -1.047860980033874512e-01
-3.088761270046234131e-01 2.472277283668518066e-01 4.630870223045349121e-01
-3.006320297718048096e-01 1.483346521854400635e-01 -8.791060000658035278e-02
-3.256850540637969971e-01 2.598287165164947510e-01 -3.146254420280456543e-01
-3.249983191490173340e-01 2.182719409465789795e-01 3.726522922515869141e-01
-3.182913362979888916e-01 1.029224097728729248e-01 2.954939603805541992e-01
-3.283319771289825439e-01 2.428368628025054932e-01 -1.694652736186981201e-01
-3.063766062259674072e-01 9.907713532447814941e-02 -1.632876843214035034e-01
-2.986142337322235107e-01 3.034405708312988281e-01 -3.243921399116516113e-01
-3.051588833332061768e-01 4.579285085201263428e-01 -6.949462927877902985e-03
-2.981427013874053955e-01 2.837144434452056885e-01 1.522105038166046143e-01
-3.263054490089416504e-01 2.417816221714019775e-01 3.385336697101593018e-01
-3.294535577297210693e-01 2.924714088439941406e-01 1.736081205308437347e-02
-3.005937337875366211e-01 3.735546469688415527e-01 1.741018891334533691e-01
-3.277440667152404785e-01 2.205255776643753052e-01 -1.899819225072860718e-01
-3.034605681896209717e-01 3.635600507259368896e-01 -4.353967607021331787e-01
-2.998160421848297119e-01 2.534995675086975098e-01 2.383974492549896240e-01
-3.102955818176269531e-01 1.047229468822479248e-01 2.795821428298950195e-01
-3.291831314563751221e-01 3.044178485870361328e-01 7.502726465463638306e-02
-3.035704195499420166e-01 1.360099166631698608e-01 1.894197463989257812e-01
-3.190507292747497559e-01 3.983930945396423340e-01 -3.729276657104492188e-01
-3.022665679454803467e-01 4.362717270851135254e-01 -2.229248173534870148e-02
-3.004012703895568848e-01 4.038156270980834961e-01 5.712271481752395630e-02
-3.240724503993988037e-01 2.070928514003753662e-01 -3.371766805648803711e-01
-2.997865974903106689e-01 2.054079771041870117e-01 1.839190572500228882e-01
-3.184579908847808838e-01 1.089951843023300171e-01 -2.644633352756500244e-01
-3.022516965866088867e-01 1.290550529956817627e-01 -1.137579977512359619e-01
-2.988286912441253662e-01 3.896120488643646240e-01 -1.329942494630813599e-01
-3.218637108802795410e-01 2.314300388097763062e-01 -4.165518283843994141e-01
-3.054989874362945557e-01 3.670046627521514893e-01 -4.657427966594696045e-01
-2.974263429641723633e-01 2.592833042144775391e-01 8.685680478811264038e-02
-2.984650731086730957e-01 3.191475570201873779e-01 1.518514454364776611e-01
-3.243743181228637695e-01 1.876750588417053223e-01 3.634383678436279297e-01
-3.292162418365478516e-01 2.902210056781768799e-01 -6.408901512622833252e-02
-3.131086826324462891e-01 1.045293956995010376e-01 -2.951808273792266846e-01
-3.055742084980010986e-01 1.096565276384353638e-01 1.630351543426513672e-01
-3.205465376377105713e-01 2.835249900817871094e-01 4.603434503078460693e-01
-3.057749867439270020e-01 1.840024292469024658e-01 -4.287750720977783203e-01
-3.004470169544219971e-01 2.178506553173065186e-01 2.375513315200805664e-01
-3.010835051536560059e-01 3.259257376194000244e-01 2.694751620292663574e-01
-3.069469332695007324e-01 9.045526385307312012e-02 -1.150551885366439819e-01
-3.271642327308654785e-01 3.203850388526916504e-01 2.434079647064208984e-01
-2.970316410064697266e-01 2.815301418304443359e-01 5.550071597099304199e-02
-2.983182668685913086e-01 3.459544181823730469e-01 -2.654855847358703613e-01
-3.209415078163146973e-01 4.377162754535675049e-01 -1.578325182199478149e-01
-3.044438958168029785e-01 1.072767674922943115e-01 -1.093035563826560974e-01
-3.267858326435089111e-01 3.743140995502471924e-01 4.470559954643249512e-02
-3.052422404289245605e-01 4.232856631278991699e-01 2.028071582317352295e-01
-3.264083266258239746e-01 1.439936757087707520e-01 -7.048703730106353760e-02
-2.976424694061279297e-01 3.436601758003234863e-01 -2.102424204349517822e-01
-3.225054740905761719e-01 2.854835689067840576e-01 4.292233884334564209e-01
-3.295406103134155273e-01 2.834576964378356934e-01 6.314734369516372681e-02
-3.065926432609558105e-01 4.050003886222839355e-01 2.861172854900360107e-01
-2.966652214527130127e-01 2.997189462184906006e-01 -9.013631381094455719e-03
-3.012369871139526367e-01 1.436362564563751221e-01 -1.347851008176803589e-01
-3.122235536575317383e-01 4.593335092067718506e-01 -2.727578282356262207e-01
-3.055146634578704834e-01 1.663495302200317383e-01 -3.911604881286621094e-01
-2.969198226928710938e-01 2.665111422538757324e-01 3.291232883930206299e-02
-2.965139150619506836e-01 3.001166284084320068e-01 -9.905296564102172852e-02
-3.229913413524627686e-01 1.143017560243606567e-01 -1.496271938085556030e-01
-3.235012590885162354e-01 3.654165267944335938e-01 -3.102801144123077393e-01
-3.255970776081085205e-01 1.922613233327865601e-01 3.301831185817718506e-01
-2.971523106098175049e-01 3.082009553909301758e-01 5.517454445362091064e-02
-3.146084547042846680e-01 4.496392607688903809e-01 -2.965170443058013916e-01
-3.038640916347503662e-01 2.338202148675918579e-01 3.676724433898925781e-01
-3.009752929210662842e-01 1.990247964859008789e-01 -3.325027525424957275e-01
-3.181352615356445312e-01 4.043715596199035645e-01 3.230549395084381104e-01
-3.034377694129943848e-01 2.020921111106872559e-01 3.297377228736877441e-01
-3.218641281127929688e-01 4.343391656875610352e-01 7.139291614294052124e-02
-3.003030121326446533e-01 3.884714841842651367e-01 -2.842577397823333740e-01
-3.228556811809539795e-01 4.190509319305419922e-01 -1.568549722433090210e-01
-3.042314052581787109e-01 2.966902554035186768e-01 3.794313073158264160e-01
-3.014032542705535889e-01 3.780659735202789307e-01 1.998800188302993774e-01
-3.281396031379699707e-01 2.007932364940643311e-01 2.103517055511474609e-01
-3.295387327671051025e-01 2.425841093063354492e-01 1.083208322525024414e-01
-3.038265407085418701e-01 2.049528360366821289e-01 3.440555930137634277e-01
-3.282030820846557617e-01 3.408525884151458740e-01 -3.180864825844764709e-02
-3.242595195770263672e-01 3.255490660667419434e-01 3.528295159339904785e-01
-2.998531162738800049e-01 4.082332849502563477e-01 -5.736405402421951294e-02
-3.087128102779388428e-01 3.387118875980377197e-01 4.246077835559844971e-01
-3.277227282524108887e-01 3.181808292865753174e-01 2.118734270334243774e-01
-3.042620420455932617e-01 3.140969872474670410e-01 3.706735670566558838e-01
-3.212146759033203125e-01 2.728426158428192139e-01 -4.444057941436767578e-01
-3.234964013099670410e-01 2.410221993923187256e-01 -3.808849155902862549e-01
-2.987089157104492188e-01 1.891495734453201294e-01 -1.489083170890808105e-01
-2.967107295989990234e-01 2.844856977462768555e-01 8.634567260742187500e-03
-3.269785642623901367e-01 1.632899492979049683e-01 2.002938389778137207e-01
-2.974370718002319336e-01 2.179817855358123779e-01 -4.112391173839569092e-02
-3.021487593650817871e-01 1.934005767107009888e-01 2.747527360916137695e-01
-3.212243616580963135e-01 4.431461691856384277e-01 -5.377808958292007446e-02
-2.996683120727539062e-01 1.982468962669372559e-01 -2.677245438098907471e-01
-3.293346762657165527e-01 2.195929139852523804e-01 -2.270409464836120605e-02
-3.037227392196655273e-01 3.753644824028015137e-01 2.833903729915618896e-01
-3.208262920379638672e-01 4.437009692192077637e-01 -1.067199036478996277e-01
-2.984491884708404541e-01 2.620635330677032471e-01 -3.052138984203338623e-01
-3.044302761554718018e-01 4.271889030933380127e-01 1.634228378534317017e-01
-3.022189736366271973e-01 3.294852972030639648e-01 -4.393250048160552979e-01
-3.032204210758209229e-01 2.621294856071472168e-01 -4.649712145328521729e-01
-2.997221350669860840e-01 1.784391105175018311e-01 -2.033188790082931519e-01
-3.273859322071075439e-01 3.492505550384521484e-01 -1.182811409235000610e-01
-3.178223669528961182e-01 3.834817707538604736e-01 -4.248404502868652344e-01
-3.042969703674316406e-01 1.694845855236053467e-01 3.068153560161590576e-01
-3.255510032176971436e-01 2.117563039064407349e-01 -2.899413108825683594e-01
-3.175660073757171631e-01 4.354440569877624512e-01 -2.991632819175720215e-01
-3.247255086898803711e-01 3.817778229713439941e-01 -2.106547951698303223e-01
-3.004181385040283203e-01 4.155813753604888916e-01 -3.881706297397613525e-02
-3.277466893196105957e-01 2.389519065618515015e-01 2.729648053646087646e-01
-3.048031628131866455e-01 1.805793046951293945e-01 3.396059572696685791e-01
-3.012303411960601807e-01 1.424675881862640381e-01 4.592963308095932007e-02
-3.036445081233978271e-01 4.310737848281860352e-01 -2.765662074089050293e-01
-2.996194064617156982e-01 3.729124963283538818e-01 -2.895025908946990967e-01
-3.261459469795227051e-01 3.817768096923828125e-01 -8.498310297727584839e-02
-3.234349489212036133e-01 1.243834793567657471e-01 2.526151835918426514e-01
-3.268465399742126465e-01 2.716951072216033936e-01 -2.638869583606719971e-01
-3.083277344703674316e-01 1.084956526756286621e-01 2.531982660293579102e-01
-2.975903153419494629e-01 2.138563394546508789e-01 -2.266385033726692200e-02
-2.973791956901550293e-01 2.280814647674560547e-01 -1.482900679111480713e-01
-3.093124330043792725e-01 9.335803985595703125e-02 2.109127789735794067e-01
-3.132129907608032227e-01 4.774464964866638184e-01 -3.914333879947662354e-02
-3.038338124752044678e-01 1.091739535331726074e-01 -2.714028581976890564e-02
-3.294207453727722168e-01 2.789227366447448730e-01 1.110085695981979370e-01
-2.989144921302795410e-01 3.923875689506530762e-01 -1.111620143055915833e-01
-3.067571222782135010e-01 2.009310424327850342e-01 4.068141579627990723e-01
-2.991320788860321045e-01 2.764713168144226074e-01 -3.478103280067443848e-01
-2.999876737594604492e-01 2.182053923606872559e-01 2.155608981847763062e-01
-3.143272697925567627e-01 1.816701442003250122e-01 -4.660182595252990723e-01
-3.062099814414978027e-01 3.124148845672607422e-01 4.105008542537689209e-01
-3.266810774803161621e-01 3.769026994705200195e-01 -1.845013909041881561e-02
-2.992624342441558838e-01 2.798680067062377930e-01 2.171398699283599854e-01
-3.228161633014678955e-01 9.650763869285583496e-02 1.023421064019203186e-01
-3.034255206584930420e-01 3.084810376167297363e-01 3.541155457496643066e-01
-3.239934444427490234e-01 2.546870410442352295e-01 -3.716865181922912598e-01
-3.272142708301544189e-01 1.521921157836914062e-01 -2.044324018061161041e-02
-3.023251295089721680e-01 2.710795104503631592e-01 -4.492328166961669922e-01
-3.270993828773498535e-01 3.126431405544281006e-01 -2.242956608533859253e-01
-2.971640527248382568e-01 2.546420693397521973e-01 5.191492289304733276e-02
-3.189421594142913818e-01 7.619842886924743652e-02 1.232438981533050537e-01
-3.246932327747344971e-01 1.320600211620330811e-01 2.257604002952575684e-01
-3.014832735061645508e-01 2.660591304302215576e-01 3.079727590084075928e-01
-3.233872056007385254e-01 3.059641122817993164e-01 -3.829846084117889404e-01
-3.237738311290740967e-01 1.818232387304306030e-01 -3.123953640460968018e-01
-3.254114985466003418e-01 3.051608800888061523e-01 -3.137478828430175781e-01
-3.269554972648620605e-01 2.977957129478454590e-01 2.875898778438568115e-01
-3.226958513259887695e-01 4.258711934089660645e-01 -1.154488921165466309e-01
-3.053341209888458252e-01 3.339546620845794678e-01 3.771266937255859375e-01
-2.978154718875885010e-01 3.647910356521606445e-01 -1.395024210214614868e-01
-2.968241274356842041e-01 3.111340701580047607e-01 -1.691662073135375977e-01
-3.204942345619201660e-01 3.974209427833557129e-01 -3.391852676868438721e-01
-2.976671159267425537e-01 2.976438999176025391e-01 1.128127574920654297e-01
-2.975315153598785400e-01 2.519167363643646240e-01 -2.288813740015029907e-01
-3.287548124790191650e-01 2.764296233654022217e-01 1.962564289569854736e-01
-3.197586536407470703e-01 8.777295053005218506e-02 -1.308729648590087891e-01
-3.235768973827362061e-01 1.307251155376434326e-01 2.699722945690155029e-01
-3.275590837001800537e-01 2.726184427738189697e-01 -2.252864390611648560e-01
-3.210757076740264893e-01 1.211367398500442505e-01 -2.471647411584854126e-01
-2.977467179298400879e-01 3.381555974483489990e-01 -2.336618006229400635e-01
-3.236242234706878662e-01 3.443909585475921631e-01 -3.401648700237274170e-01
-3.285976052284240723e-01 3.307019174098968506e-01 4.025488346815109253e-02
-2.966948747634887695e-01 3.196903467178344727e-01 -6.210476160049438477e-02
-2.965015769004821777e-01 2.828741073608398438e-01 -5.047713592648506165e-02
-3.289997577667236328e-01 2.114285230636596680e-01 -5.905234068632125854e-02
-3.260034322738647461e-01 2.603817880153656006e-01 3.490287065505981445e-01
-3.063476085662841797e-01 1.965834647417068481e-01 -4.560661017894744873e-01
-3.282611072063446045e-01 3.074618875980377197e-01 1.925402581691741943e-01
-3.025670349597930908e-01 2.284685969352722168e-01 3.277777433395385742e-01
-3.200841546058654785e-01 3.189414143562316895e-01 4.419627487659454346e-01
-3.247562348842620850e-01 1.511706709861755371e-01 -2.084028869867324829e-01
-3.010869920253753662e-01 2.524043917655944824e-01 2.906187176704406738e-01
-3.276497423648834229e-01 1.611040383577346802e-01 1.116769313812255859e-01
-3.274745345115661621e-01 1.589533239603042603e-01 -3.322952240705490112e-02
-3.276392519474029541e-01 3.470516502857208252e-01 1.249184459447860718e-01
-3.021303117275238037e-01 2.509102821350097656e-01 3.258109986782073975e-01
-3.109337687492370605e-01 3.589468002319335938e-01 4.212228059768676758e-01
-3.294088840484619141e-01 2.484660446643829346e-01 -6.153102219104766846e-02
-3.028081059455871582e-01 1.545125842094421387e-01 2.169177681207656860e-01
-3.281457722187042236e-01 2.459977865219116211e-01 -1.846235245466232300e-01
-3.174994289875030518e-01 1.174673885107040405e-01 -3.072727322578430176e-01
-2.988839149475097656e-01 3.815521895885467529e-01 2.833560295403003693e-02
-3.275077641010284424e-01 2.894968688488006592e-01 2.683094143867492676e-01
-3.034523129463195801e-01 3.364286422729492188e-01 3.319223225116729736e-01
-3.204405903816223145e-01 4.104340374469757080e-01 -3.054189085960388184e-01
-3.297020196914672852e-01 2.510549128055572510e-01 6.240968406200408936e-02
-3.194512724876403809e-01 4.502836465835571289e-01 8.361170440912246704e-02
-3.194708228111267090e-01 2.207001298666000366e-01 -4.546904861927032471e-01
-3.199957609176635742e-01 3.873160481452941895e-01 3.371548950672149658e-01
-3.196944892406463623e-01 4.397668838500976562e-01 -2.113664001226425171e-01
-3.212457895278930664e-01 3.113139867782592773e-01 -4.349315166473388672e-01
-3.249984681606292725e-01 3.854631781578063965e-01 1.752866953611373901e-01
-3.283197581768035889e-01 1.978629976511001587e-01 -1.040746718645095825e-01
-3.236482143402099609e-01 3.906570374965667725e-01 -2.400141507387161255e-01
-3.265788257122039795e-01 3.388713598251342773e-01 -2.135268747806549072e-01
-2.966507673263549805e-01 2.633764445781707764e-01 -1.200867071747779846e-01
-3.269401490688323975e-01 3.674039542675018311e-01 9.123920649290084839e-02
-3.170205354690551758e-01 3.740591406822204590e-01 -4.512291252613067627e-01
-3.041859269142150879e-01 2.114843130111694336e-01 3.600398898124694824e-01
-3.061362206935882568e-01 4.614753723144531250e-01 -1.736915558576583862e-01
-3.058888912200927734e-01 3.760899603366851807e-01 3.321276307106018066e-01
-2.985407114028930664e-01 2.098000347614288330e-01 1.030477136373519897e-01
-3.266244232654571533e-01 3.764290213584899902e-01 5.863734334707260132e-02
-3.287282288074493408e-01 1.868031322956085205e-01 7.148117572069168091e-02
-3.244509696960449219e-01 1.686508953571319580e-01 3.334020972251892090e-01
-3.290970921516418457e-01 2.236863374710083008e-01 1.551888734102249146e-01
-3.282702565193176270e-01 3.362949490547180176e-01 -5.289713293313980103e-02
-3.041326403617858887e-01 4.012668132781982422e-01 -3.851994574069976807e-01
-2.972520291805267334e-01 2.691446244716644287e-01 7.621581852436065674e-02
-2.981021702289581299e-01 3.705545663833618164e-01 -1.917804405093193054e-02
-3.275873363018035889e-01 1.943940073251724243e-01 -1.575551182031631470e-01
-3.013371527194976807e-01 4.186461865901947021e-01 -2.184178978204727173e-01
-2.981454730033874512e-01 2.454064488410949707e-01 1.351184695959091187e-01
-3.020088374614715576e-01 1.422641873359680176e-01 1.233712285757064819e-01
-3.285987973213195801e-01 2.063176333904266357e-01 1.798818707466125488e-01
-3.278559148311614990e-01 2.337217330932617188e-01 -1.959773153066635132e-01
-3.225151002407073975e-01 4.186121225357055664e-01 -1.830955296754837036e-01
-2.984268367290496826e-01 3.013179004192352295e-01 1.642762869596481323e-01
-2.968876659870147705e-01 2.984054982662200928e-01 -1.909267455339431763e-01
-3.044603765010833740e-01 1.487895995378494263e-01 -3.234851658344268799e-01
-3.238056004047393799e-01 3.742813467979431152e-01 2.715500295162200928e-01
-2.994993627071380615e-01 3.673233389854431152e-01 1.295353174209594727e-01
-3.207649290561676025e-01 4.193028211593627930e-01 2.208807468414306641e-01
-3.223018050193786621e-01 3.323361873626708984e-01 3.915180563926696777e-01
-3.290058672428131104e-01 2.741894125938415527e-01 -1.120167225599288940e-01
-3.078198730945587158e-01 1.588569283485412598e-01 3.717056512832641602e-01
-2.996526360511779785e-01 1.631875634193420410e-01 -5.466220527887344360e-02
-2.981925308704376221e-01 1.952598690986633301e-01 -2.839220687747001648e-02
-3.022765815258026123e-01 3.030732870101928711e-01 -4.510269463062286377e-01
-3.014856874942779541e-01 2.894811630249023438e-01 3.059171140193939209e-01
-3.274369835853576660e-01 1.755621582269668579e-01 -1.183945238590240479e-01
-3.034070134162902832e-01 1.624722927808761597e-01 2.624278068542480469e-01
-3.071495294570922852e-01 3.975052833557128906e-01 3.132599592208862305e-01
-3.291540145874023438e-01 2.420004755258560181e-01 -9.220428019762039185e-02
-3.197700381278991699e-01 4.525815248489379883e-01 2.533462829887866974e-02
-3.060102760791778564e-01 2.918017804622650146e-01 4.172551333904266357e-01
-3.290758430957794189e-01 3.072456121444702148e-01 -3.739216923713684082e-02
-3.273025751113891602e-01 2.342906147241592407e-01 -2.293163388967514038e-01
-3.079126477241516113e-01 8.234263956546783447e-02 -7.201114296913146973e-02
-3.010700643062591553e-01 1.731226742267608643e-01 1.822377145290374756e-01
-2.976332604885101318e-01 2.340938895940780640e-01 7.075941562652587891e-02
-2.995355129241943359e-01 2.626546323299407959e-01 -3.582859635353088379e-01
-3.020082712173461914e-01 3.918031752109527588e-01 1.901865601539611816e-01
-3.295830786228179932e-01 2.307424694299697876e-01 1.461472548544406891e-02
-3.218683898448944092e-01 1.403880417346954346e-01 3.440663516521453857e-01
-3.046467006206512451e-01 1.048627942800521851e-01 5.877281725406646729e-02
-3.172771036624908447e-01 1.625218093395233154e-01 -4.133693277835845947e-01
-3.203181326389312744e-01 9.543418884277343750e-02 -1.592574119567871094e-01
-3.279313445091247559e-01 3.434947729110717773e-01 -7.208959013223648071e-02
-3.188367187976837158e-01 2.927556037902832031e-01 -4.856667220592498779e-01
-3.016192913055419922e-01 2.438766658306121826e-01 3.059673905372619629e-01
-3.293686807155609131e-01 2.904013097286224365e-01 9.101490676403045654e-02
-3.296327888965606689e-01 2.613927721977233887e-01 8.776513487100601196e-02
-2.974003255367279053e-01 3.058291077613830566e-01 -2.425281703472137451e-01
-3.013568818569183350e-01 1.375545412302017212e-01 2.876408398151397705e-04
-2.978119552135467529e-01 3.337917029857635498e-01 8.132075518369674683e-02
-3.270747065544128418e-01 2.014337927103042603e-01 -2.036853432655334473e-01
-3.222585320472717285e-01 3.500313758850097656e-01 -3.755892217159271240e-01
-2.981388866901397705e-01 3.229539990425109863e-01 -2.852524220943450928e-01
-3.255949318408966064e-01 3.860042095184326172e-01 1.247977316379547119e-01
-3.023183643817901611e-01 3.555407524108886719e-01 2.751599550247192383e-01
-3.281535804271697998e-01 3.442422747611999512e-01 1.226207241415977478e-03
-3.222068250179290771e-01 4.275599718093872070e-01 -1.452784836292266846e-01
-3.213982880115509033e-01 4.404072165489196777e-01 3.895211964845657349e-02
-3.293645381927490234e-01 2.655854225158691406e-01 -7.017458230257034302e-02
-3.210573792457580566e-01 1.905998736619949341e-01 4.338541924953460693e-01
-2.969663143157958984e-01 2.873715460300445557e-01 -2.025220096111297607e-01
-3.274358808994293213e-01 2.154938578605651855e-01 2.753628194332122803e-01
-3.003963828086853027e-01 1.615958809852600098e-01 8.784077316522598267e-02
-3.130515515804290771e-01 1.280636191368103027e-01 3.744651973247528076e-01
-2.984018623828887939e-01 2.518119513988494873e-01 1.592339277267456055e-01
-3.278182744979858398e-01 3.369069695472717285e-01 1.498748958110809326e-01
-3.254145681858062744e-01 1.476851403713226318e-01 -1.631741821765899658e-01
-3.119228184223175049e-01 7.012338936328887939e-02 -8.099231868982315063e-02
-2.984476089477539062e-01 3.320958912372589111e-01 1.338349282741546631e-01
-3.034228682518005371e-01 2.485225945711135864e-01 -4.613359272480010986e-01
-3.045385479927062988e-01 3.765867352485656738e-01 3.020328879356384277e-01
-3.074510991573333740e-01 9.910884499549865723e-02 -2.039325237274169922e-01
-2.999944686889648438e-01 2.008148729801177979e-01 -2.921894192695617676e-01
