-4.340359568595886230e-02 -1.142792403697967529e-02 -9.493113309144973755e-02
-1.371446549892425537e-01 2.632126808166503906e-01 5.796083807945251465e-02
4.073565825819969177e-02 -2.842139899730682373e-01 5.649891495704650879e-02
1.792441308498382568e-01 8.800084143877029419e-02 -9.201861172914505005e-02
4.859059751033782959e-01 1.732824295759201050e-01 4.974621534347534180e-02
-2.520591318607330322e-01 1.606771498918533325e-01 -7.774779200553894043e-02
-5.655439496040344238e-01 -1.678417921066284180e-01 -4.107324406504631042e-02
2.518615722656250000e-01 -2.380814217031002045e-02 8.546373248100280762e-02
6.835260391235351562e-01 1.334007829427719116e-01 -3.779929876327514648e-02
1.636919677257537842e-01 3.304177820682525635e-01 1.719905249774456024e-02
-1.755523979663848877e-01 -4.666956514120101929e-02 -9.036719053983688354e-02
-2.080674767494201660e-01 9.938319772481918335e-02 8.619599044322967529e-02
-1.975875347852706909e-01 2.995761036872863770e-01 4.142082110047340393e-02
-1.688569188117980957e-01 -4.049062263220548630e-04 -9.164718538522720337e-02
-3.603907227516174316e-01 1.157319694757461548e-01 -7.611437141895294189e-02
2.179379016160964966e-02 -8.891453593969345093e-02 8.986207097768783569e-02
-3.303577303886413574e-01 1.190792545676231384e-01 -7.794977724552154541e-02
-5.312249064445495605e-01 2.410206645727157593e-01 2.829203754663467407e-02
1.584946066141128540e-01 1.450430788099765778e-02 8.897993713617324829e-02
3.548115193843841553e-01 -1.367986900731921196e-03 -8.931892365217208862e-02
3.981761634349822998e-02 -2.823577821254730225e-01 -5.827277898788452148e-02
2.821415066719055176e-01 1.568793952465057373e-01 -8.158723264932632446e-02
2.026102393865585327e-01 3.040328919887542725e-01 3.341721370816230774e-02
-6.443466544151306152e-01 -9.731984883546829224e-02 -4.040193930268287659e-02
3.686283230781555176e-01 2.074245065450668335e-01 -6.684070080518722534e-02
-3.872009217739105225e-01 -4.790919274091720581e-02 -7.804449647665023804e-02
4.183362722396850586e-01 -8.337237685918807983e-02 -8.287321776151657104e-02
-2.036429047584533691e-01 -1.364931911230087280e-01 -8.208975940942764282e-02
6.351462602615356445e-01 5.599038302898406982e-02 4.629905521869659424e-02
-4.292520582675933838e-01 -1.506031155586242676e-01 -6.372449547052383423e-02
-9.164355695247650146e-02 2.976758480072021484e-01 -5.027671903371810913e-02
6.082990765571594238e-01 -8.891138434410095215e-02 5.053166672587394714e-02
2.252184450626373291e-01 6.443364918231964111e-02 -9.241226315498352051e-02
3.933350145816802979e-01 1.759809553623199463e-01 5.954241007566452026e-02
5.974959135055541992e-01 8.664667606353759766e-02 4.917769879102706909e-02
2.623337209224700928e-01 -5.804590880870819092e-02 -9.169871360063552856e-02
8.617302775382995605e-02 7.330925017595291138e-02 -9.399229288101196289e-02
3.215317130088806152e-01 -2.251383662223815918e-01 6.044218316674232483e-02
-3.445972502231597900e-01 1.345527023077011108e-01 7.707203179597854614e-02
4.621439874172210693e-01 -1.744620501995086670e-01 -6.807185709476470947e-02
5.553737282752990723e-02 -5.279094725847244263e-02 -9.480813145637512207e-02
-1.138992607593536377e-01 3.398655056953430176e-01 1.585417054593563080e-02
3.182492256164550781e-01 2.296869754791259766e-01 5.326190590858459473e-02
-3.647254109382629395e-01 1.192504093050956726e-01 7.779721915721893311e-02
4.957829415798187256e-01 -1.070944666862487793e-01 6.349889189004898071e-02
-6.175662875175476074e-01 1.577303558588027954e-01 4.331975057721138000e-02
-5.831539630889892578e-01 1.681061238050460815e-01 -4.118099063634872437e-02
3.521279990673065186e-01 2.786407768726348877e-01 -4.271653667092323303e-02
-4.028800725936889648e-01 3.010661602020263672e-01 -7.604959420859813690e-03
7.755341473966836929e-03 2.252343595027923584e-01 -7.436629384756088257e-02
-1.792782917618751526e-02 1.458967030048370361e-01 8.296731114387512207e-02
5.723032951354980469e-01 -1.923066824674606323e-01 -5.040124431252479553e-02
4.413869976997375488e-01 6.732917577028274536e-02 -8.191252499818801880e-02
3.236177265644073486e-01 9.331358969211578369e-02 7.677556574344635010e-02
2.921282052993774414e-01 3.019109368324279785e-01 2.436470985412597656e-02
2.407443374395370483e-01 -1.292088925838470459e-01 -8.688044548034667969e-02
-3.051638901233673096e-01 1.653398275375366211e-01 -7.381724566221237183e-02
-5.948703885078430176e-01 -2.124522179365158081e-01 -1.368035655468702316e-02
1.326441168785095215e-01 3.401756752282381058e-03 -9.566230326890945435e-02
-3.796434104442596436e-01 -1.554861813783645630e-01 7.312030345201492310e-02
1.648498326539993286e-01 1.571346968412399292e-01 7.737418264150619507e-02
-4.402608275413513184e-01 5.889687687158584595e-02 7.801403105258941650e-02
8.545229583978652954e-02 2.314075827598571777e-01 -7.284321635961532593e-02
-3.842676579952239990e-01 1.380580365657806396e-01 7.421651482582092285e-02
-3.040171787142753601e-02 -3.386182785034179688e-01 -2.853656932711601257e-02
5.180995464324951172e-01 -2.257573306560516357e-01 3.760460391640663147e-02
2.183653265237808228e-01 3.280982375144958496e-01 1.135479472577571869e-02
3.723023831844329834e-01 -2.003621459007263184e-01 6.176901236176490784e-02
-2.058704942464828491e-01 3.353573381900787354e-01 -1.403848920017480850e-02
-1.163110584020614624e-01 1.828533038496971130e-02 9.205710142850875854e-02
1.673640459775924683e-01 2.220644801855087280e-01 -7.354576140642166138e-02
-3.391058146953582764e-01 1.203173771500587463e-01 7.909740507602691650e-02
-6.934798359870910645e-01 6.541422009468078613e-02 4.426966607570648193e-02
3.406429588794708252e-01 1.220726594328880310e-01 -8.329080045223236084e-02
5.885245800018310547e-01 -4.566621780395507812e-02 5.610939487814903259e-02
-2.265696674585342407e-01 -1.444415152072906494e-01 -7.995755970478057861e-02
6.241292357444763184e-01 1.201707720756530762e-01 3.906507045030593872e-02
-6.344292312860488892e-02 -2.021333128213882446e-01 7.710489630699157715e-02
-6.196820735931396484e-01 1.343992203474044800e-01 -4.157954826951026917e-02
-5.742353200912475586e-01 -7.284085266292095184e-03 6.707148253917694092e-02
-5.054052472114562988e-01 -2.143840640783309937e-01 -3.759469091892242432e-02
1.312306523323059082e-01 5.873384326696395874e-02 -9.440547972917556763e-02
3.731334209442138672e-01 -1.155140176415443420e-01 -8.278083801269531250e-02
1.997957006096839905e-02 1.842800527811050415e-02 9.192999452352523804e-02
-3.456523418426513672e-01 -1.116528138518333435e-01 8.066461235284805298e-02
-2.315659075975418091e-01 1.103271469473838806e-01 8.453390747308731079e-02
-1.443695873022079468e-01 -3.191682100296020508e-01 3.821849450469017029e-02
3.930506706237792969e-01 -3.053372800350189209e-01 1.819191873073577881e-02
-1.380687505006790161e-01 3.029922246932983398e-01 -4.590122774243354797e-02
7.044062614440917969e-01 -1.186916753649711609e-01 -4.139099642634391785e-02
-7.259390503168106079e-02 2.054119706153869629e-01 -7.728464901447296143e-02
1.604492068290710449e-01 -1.156532019376754761e-01 -8.997981250286102295e-02
-7.189283147454261780e-03 3.431640863418579102e-01 -2.085836417973041534e-02
-5.956943035125732422e-01 1.050998866558074951e-01 5.750540643930435181e-02
1.592077761888504028e-01 1.887908577919006348e-01 -8.041230589151382446e-02
-3.951294720172882080e-01 -6.916324049234390259e-02 8.098063617944717407e-02
-5.576523765921592712e-02 2.646102905273437500e-01 -6.327333301305770874e-02
-5.410916209220886230e-01 -1.758811436593532562e-02 7.073041796684265137e-02
-5.234601497650146484e-01 2.404986321926116943e-01 -2.653029374778270721e-02
-1.867953538894653320e-01 2.360528111457824707e-01 -6.664939224720001221e-02
3.333202302455902100e-01 -3.043416440486907959e-01 2.989533729851245880e-02
5.652995705604553223e-01 -1.644603163003921509e-01 4.636812582612037659e-02
-7.958343625068664551e-02 9.323904663324356079e-02 8.854144066572189331e-02
-5.096307396888732910e-01 1.216223165392875671e-01 -6.091697886586189270e-02
-5.639855265617370605e-01 -1.079270243644714355e-02 6.826233118772506714e-02
3.867528736591339111e-01 -1.784491091966629028e-01 6.460533291101455688e-02
6.034737229347229004e-01 -2.124224901199340820e-01 2.425573579967021942e-02
2.682102024555206299e-01 2.186031788587570190e-01 -7.052578777074813843e-02
-4.668158590793609619e-01 2.688207626342773438e-01 2.567254006862640381e-02
2.257435768842697144e-01 2.112137675285339355e-01 6.456085294485092163e-02
-5.304024815559387207e-01 -2.120449244976043701e-01 -3.345691412687301636e-02
3.602324128150939941e-01 1.146638840436935425e-01 7.197622209787368774e-02
7.009883522987365723e-01 -1.752288937568664551e-01 -1.870797760784626007e-02
8.499109745025634766e-02 -2.146296203136444092e-01 7.368370890617370605e-02
-1.007054448127746582e-01 -9.209783747792243958e-03 -9.371875971555709839e-02
1.362382471561431885e-01 -6.292100995779037476e-02 8.892571926116943359e-02
6.275240778923034668e-01 -2.295084744691848755e-01 -3.121523885056376457e-03
2.084232568740844727e-01 1.492848098278045654e-01 7.666192948818206787e-02
5.986677110195159912e-02 -3.034406006336212158e-01 4.888203740119934082e-02
-9.673833847045898438e-02 1.257272437214851379e-02 9.232114255428314209e-02
4.427311420440673828e-01 -1.370135098695755005e-01 6.562168896198272705e-02
-5.068771243095397949e-01 -1.629257798194885254e-01 5.977023392915725708e-02
1.425307691097259521e-01 1.369563192129135132e-01 -8.814389258623123169e-02
2.312688976526260376e-01 2.090052515268325806e-01 -7.434930652379989624e-02
5.195745229721069336e-01 -1.079852804541587830e-01 -7.252831012010574341e-02
-7.125963568687438965e-01 -6.566222757101058960e-03 -3.292420133948326111e-02
4.934599101543426514e-01 2.225201129913330078e-01 -4.808183014392852783e-02
2.625218331813812256e-01 3.269449174404144287e-01 -2.009243005886673927e-03
2.932837009429931641e-01 1.891859918832778931e-01 6.504209339618682861e-02
1.888529658317565918e-01 3.029487729072570801e-01 -4.494379088282585144e-02
7.537283897399902344e-01 2.625016309320926666e-02 -3.748134523630142212e-02
3.917699158191680908e-01 -2.564610540866851807e-01 4.485247656702995300e-02
-6.588767766952514648e-01 -7.317946292459964752e-03 -4.546443000435829163e-02
3.022451102733612061e-01 -9.676611423492431641e-02 -8.784748613834381104e-02
-4.476142525672912598e-01 3.646580129861831665e-02 7.853365689516067505e-02
2.555997967720031738e-01 -2.515799999237060547e-01 -6.368586421012878418e-02
-2.108353525400161743e-01 2.304543182253837585e-02 9.032461792230606079e-02
-2.091148644685745239e-01 -1.531461253762245178e-03 -9.002739936113357544e-02
-5.190593600273132324e-01 1.032749786972999573e-01 6.729027628898620605e-02
7.672234773635864258e-01 6.541242450475692749e-02 5.363717675209045410e-03
-5.246220827102661133e-01 2.631592452526092529e-01 1.849784515798091888e-03
-4.545264244079589844e-01 -1.850987672805786133e-01 6.106181070208549500e-02
4.492928683757781982e-01 -2.214941084384918213e-01 -5.828723311424255371e-02
3.992020338773727417e-02 1.841502338647842407e-01 7.653968036174774170e-02
8.159990608692169189e-02 -3.601372241973876953e-02 -9.541482478380203247e-02
2.611459493637084961e-01 -1.362600624561309814e-01 -8.545223623514175415e-02
6.287648677825927734e-01 5.904127657413482666e-02 -6.261087954044342041e-02
7.393879294395446777e-01 -3.160711377859115601e-02 2.647802047431468964e-02
-1.576798707246780396e-01 -3.052458763122558594e-01 4.504868760704994202e-02
4.556701481342315674e-01 1.995010972023010254e-01 4.699920117855072021e-02
6.727585196495056152e-01 3.603915125131607056e-02 4.089499264955520630e-02
6.194053292274475098e-01 1.004608720541000366e-01 4.351107403635978699e-02
-7.559236288070678711e-01 8.134262263774871826e-02 1.656138524413108826e-02
-6.381402015686035156e-01 5.525122582912445068e-02 5.616353079676628113e-02
-5.678845643997192383e-01 8.471900224685668945e-02 -5.718812346458435059e-02
-2.313050925731658936e-01 -2.326151728630065918e-01 6.656691431999206543e-02
-3.069351017475128174e-01 -1.382875144481658936e-01 7.981544733047485352e-02
2.165975421667098999e-01 1.102808564901351929e-01 -8.935857564210891724e-02
-2.812607586383819580e-02 3.490796685218811035e-01 6.638797931373119354e-04
3.384657204151153564e-01 1.128148809075355530e-01 -8.440614491701126099e-02
-7.181321382522583008e-01 -2.461056225001811981e-02 4.089022800326347351e-02
-6.780139803886413574e-01 -1.541302949190139771e-01 -1.323366910219192505e-02
-3.757914006710052490e-01 -2.266030758619308472e-01 5.836679413914680481e-02
-1.369123160839080811e-01 -4.006545990705490112e-02 -9.197942912578582764e-02
-6.619362235069274902e-01 1.905842870473861694e-01 1.990158576518297195e-03
1.085724681615829468e-01 4.009012877941131592e-02 -9.528970718383789062e-02
3.305078670382499695e-02 -2.451557368040084839e-01 6.789319962263107300e-02
4.667029678821563721e-01 -2.121529877185821533e-01 4.927090182900428772e-02
3.888946175575256348e-01 1.129999011754989624e-01 -8.149191737174987793e-02
7.072385400533676147e-02 2.409930340945720673e-02 9.102183580398559570e-02
5.645877122879028320e-02 -1.996809393167495728e-01 7.694707810878753662e-02
2.784105539321899414e-01 -1.939846128225326538e-01 -7.617132365703582764e-02
3.726033866405487061e-01 4.757663607597351074e-02 -8.733952790498733521e-02
-4.113843142986297607e-01 -9.233001619577407837e-02 7.824521511793136597e-02
-3.656968474388122559e-01 1.943190991878509521e-01 6.562513113021850586e-02
3.969066739082336426e-01 -8.568543940782546997e-02 -8.403626829385757446e-02
-7.418696284294128418e-01 -3.057964518666267395e-02 3.276703134179115295e-02
-2.250759005546569824e-01 4.065051674842834473e-02 8.940684050321578979e-02
2.298134267330169678e-01 3.171457946300506592e-01 -3.199330717325210571e-02
6.690269708633422852e-02 -2.123908698558807373e-01 7.446826994419097900e-02
5.852895975112915039e-01 1.770832240581512451e-01 -4.788189008831977844e-02
1.528214216232299805e-01 -3.066701292991638184e-01 -4.737989231944084167e-02
-1.563304811716079712e-01 2.752252817153930664e-01 -5.644932761788368225e-02
1.745124906301498413e-01 2.554156184196472168e-01 -6.455391645431518555e-02
-4.431434273719787598e-01 -2.775411307811737061e-01 -1.610268093645572662e-02
-6.005784869194030762e-01 1.802563965320587158e-01 4.000601917505264282e-02
-6.093642488121986389e-02 -1.679904460906982422e-01 8.247324824333190918e-02
-1.776969730854034424e-01 -2.610285952687263489e-02 -9.094958007335662842e-02
4.351982176303863525e-01 -1.042635552585124969e-02 7.342729717493057251e-02
3.770859837532043457e-01 1.619678288698196411e-01 -7.554091513156890869e-02
-6.665419340133666992e-01 -2.800823003053665161e-02 -4.312146827578544617e-02
-3.176924586296081543e-01 -8.192221075296401978e-02 8.450842648744583130e-02
-2.255875617265701294e-01 2.419396638870239258e-01 -6.303146481513977051e-02
-2.346519976854324341e-01 2.055313587188720703e-01 7.014662027359008789e-02
-6.405162811279296875e-01 1.137579008936882019e-01 4.858538508415222168e-02
1.173723340034484863e-01 1.048837155103683472e-01 8.515983819961547852e-02
1.453039646148681641e-01 3.142311871051788330e-01 -4.090623930096626282e-02
6.351042538881301880e-02 3.408640921115875244e-01 1.451357826590538025e-02
-2.784182131290435791e-01 6.690002232789993286e-02 8.639178425073623657e-02
8.300749212503433228e-02 -3.482543230056762695e-01 1.888507418334484100e-02
3.284295797348022461e-01 -2.782707512378692627e-01 -5.002046003937721252e-02
7.519336342811584473e-01 9.212983399629592896e-02 -2.281576022505760193e-02
2.638899683952331543e-01 -3.017660677433013916e-01 3.915376588702201843e-02
5.292580723762512207e-01 5.982338450849056244e-03 -7.697802037000656128e-02
5.872417688369750977e-01 6.535117328166961670e-02 5.308734253048896790e-02
-1.174308359622955322e-01 3.241861760616302490e-01 -3.470560163259506226e-02
6.366118192672729492e-01 1.066355034708976746e-01 3.918823599815368652e-02
4.367314875125885010e-01 6.712440401315689087e-02 7.025589793920516968e-02
3.283921480178833008e-01 1.120854243636131287e-01 -8.498720824718475342e-02
8.876747637987136841e-02 -1.256801038980484009e-01 8.598818629980087280e-02
3.855527937412261963e-01 4.904610663652420044e-02 7.567613571882247925e-02
-2.551862597465515137e-01 -1.917143762111663818e-01 -7.076952606439590454e-02
1.895647794008255005e-01 2.292523235082626343e-01 6.216201558709144592e-02
4.276150465011596680e-01 6.760322302579879761e-02 7.102990895509719849e-02
4.458367228507995605e-01 -1.772169023752212524e-01 5.925079807639122009e-02
1.682982742786407471e-01 -4.522532224655151367e-02 8.850305527448654175e-02
6.613714098930358887e-01 -1.357656568288803101e-01 3.394035995006561279e-02
3.277088999748229980e-01 7.751856744289398193e-02 7.785418629646301270e-02
-2.159419804811477661e-01 -8.738072216510772705e-02 -8.630286902189254761e-02
-2.896715402603149414e-01 -9.778659790754318237e-02 -8.148016780614852905e-02
1.079872474074363708e-01 1.538853794336318970e-01 7.972998917102813721e-02
6.557517051696777344e-01 -1.785725802183151245e-01 2.322317846119403839e-02
-1.281552165746688843e-01 -2.643167674541473389e-01 6.166452541947364807e-02
4.793483912944793701e-01 -2.191197872161865234e-01 4.569344222545623779e-02
5.454461574554443359e-01 -2.114162892103195190e-01 -4.883273318409919739e-02
-3.962976932525634766e-01 1.372434496879577637e-01 7.352156192064285278e-02
-6.450539231300354004e-01 1.654197722673416138e-01 -2.700181491672992706e-02
-5.217598006129264832e-02 -2.629840970039367676e-01 -6.296247988939285278e-02
5.870113968849182129e-01 7.715790718793869019e-02 5.191372707486152649e-02
7.725647091865539551e-01 -7.913047075271606445e-02 6.526384502649307251e-03
3.313618004322052002e-01 -9.784093499183654785e-02 7.812424749135971069e-02
6.956306099891662598e-01 -1.444591134786605835e-01 2.229942381381988525e-02
1.827295273542404175e-01 -2.244173586368560791e-01 -7.301003485918045044e-02
6.901431828737258911e-02 1.718757152557373047e-01 -8.422698825597763062e-02
-7.024676352739334106e-02 8.795307949185371399e-03 -9.449444711208343506e-02
1.563995182514190674e-01 -3.405984938144683838e-01 2.233077958226203918e-02
-9.451273083686828613e-02 6.653816998004913330e-02 9.032458811998367310e-02
-7.866330444812774658e-02 -3.363105654716491699e-01 2.962250076234340668e-02
-1.436430364847183228e-01 3.284234106540679932e-01 2.592969313263893127e-02
7.731388509273529053e-02 2.778119742870330811e-01 5.209126323461532593e-02
3.051295280456542969e-01 3.081276714801788330e-01 1.685817167162895203e-02
1.903465576469898224e-02 1.585387736558914185e-01 8.088974654674530029e-02
8.657537400722503662e-02 -1.765987277030944824e-02 9.115880727767944336e-02
-5.179017186164855957e-01 -2.600070834159851074e-01 4.376522265374660492e-03
2.634786814451217651e-02 -2.402781248092651367e-01 6.913452595472335815e-02
4.283204972743988037e-01 -9.744911640882492065e-02 -8.107939362525939941e-02
-7.474462985992431641e-01 1.057756543159484863e-01 8.133494295179843903e-03
5.678109526634216309e-01 -2.038149684667587280e-01 3.583269566297531128e-02
-7.221990227699279785e-01 -8.414985239505767822e-02 3.168972581624984741e-02
7.608862519264221191e-01 1.918218098580837250e-02 -3.539767116308212280e-02
-4.924143552780151367e-01 -2.283947765827178955e-01 -3.449848294258117676e-02
-3.428464829921722412e-01 -2.016678005456924438e-01 6.724931299686431885e-02
-3.816616833209991455e-01 2.523026168346405029e-01 -4.627055302262306213e-02
-1.302953064441680908e-01 -3.293710350990295410e-01 3.223869204521179199e-02
4.002429842948913574e-01 6.479820609092712402e-02 7.353553175926208496e-02
7.558625340461730957e-01 -3.429776430130004883e-02 -3.774810954928398132e-02
-3.938718736171722412e-01 -1.259456854313611984e-02 8.290422707796096802e-02
1.665561646223068237e-01 -2.260921001434326172e-01 -7.297903299331665039e-02
-2.924675643444061279e-01 2.255236506462097168e-01 -6.284563988447189331e-02
1.203922703862190247e-01 -2.574510872364044189e-02 -9.549010545015335083e-02
-4.158091247081756592e-01 -1.137477084994316101e-01 7.589155435562133789e-02
7.832349538803100586e-01 -1.515772379934787750e-02 -2.604281716048717499e-02
-5.586287379264831543e-01 -1.025738269090652466e-01 6.303930282592773438e-02
-4.648661017417907715e-01 -7.166779786348342896e-02 7.566444575786590576e-02
-4.977229982614517212e-02 9.414097666740417480e-02 8.850591629743576050e-02
-3.053574562072753906e-01 2.357713878154754639e-01 5.925710126757621765e-02
7.031281590461730957e-01 -4.692095518112182617e-02 3.552696853876113892e-02
2.304584681987762451e-01 2.435429841279983521e-01 5.587412789463996887e-02
2.981292605400085449e-01 -7.318335585296154022e-03 8.308167755603790283e-02
1.965850591659545898e-01 3.192570805549621582e-01 2.371969074010848999e-02
1.963247358798980713e-01 -1.098480448126792908e-01 -8.989093452692031860e-02
-2.266317754983901978e-01 -5.709031224250793457e-02 8.926872164011001587e-02
-5.446771979331970215e-01 -2.464001029729843140e-01 -3.789227223023772240e-03
3.356495201587677002e-01 4.010416567325592041e-02 7.963491976261138916e-02
1.965552270412445068e-01 1.811751872301101685e-01 -8.080827444791793823e-02
-2.884739041328430176e-01 -3.018881082534790039e-01 -3.088845312595367432e-02
-1.175478100776672363e-01 4.751330614089965820e-02 9.111211448907852173e-02
-1.337295919656753540e-01 -8.864284306764602661e-02 8.962483704090118408e-02
-5.366195440292358398e-01 -1.698401719331741333e-01 5.419118329882621765e-02
-3.450532555580139160e-01 -2.948715686798095703e-01 -2.633735910058021545e-02
1.657416969537734985e-01 3.388894498348236084e-01 3.140583401545882225e-03
6.337696909904479980e-01 -1.175309047102928162e-01 -5.667200312018394470e-02
-5.071358680725097656e-01 -2.058761119842529297e-01 -4.030126333236694336e-02
-5.288404226303100586e-01 1.935388147830963135e-01 -4.417215660214424133e-02
9.250293672084808350e-02 3.264263737946748734e-03 9.096553921699523926e-02
2.901290655136108398e-01 2.820354998111724854e-01 3.638961911201477051e-02
7.078813314437866211e-01 -1.003618091344833374e-01 2.876362390816211700e-02
-2.882027626037597656e-01 2.656100392341613770e-01 -5.110368505120277405e-02
8.347187191247940063e-02 3.466854989528656006e-01 -5.550181493163108826e-03
4.684666395187377930e-01 -1.969295442104339600e-01 5.274499580264091492e-02
4.446371197700500488e-01 1.347028166055679321e-01 -7.469247281551361084e-02
1.740851998329162598e-01 -1.699131131172180176e-01 7.846443355083465576e-02
7.595803141593933105e-01 -7.643178571015596390e-03 -3.706286102533340454e-02
-2.085779011249542236e-01 -1.692613214254379272e-01 -7.731469720602035522e-02
3.407222926616668701e-01 -2.920970916748046875e-01 -4.247284680604934692e-02
5.152809992432594299e-02 3.482026457786560059e-01 -4.211945459246635437e-03
1.342714279890060425e-01 -1.513196229934692383e-01 -8.635257929563522339e-02
-1.513841450214385986e-01 1.182103902101516724e-02 -9.225610643625259399e-02
-2.673195898532867432e-01 3.080244064331054688e-01 -3.256713971495628357e-02
7.307690978050231934e-01 -9.485701471567153931e-02 -3.851445764303207397e-02
-2.856567203998565674e-01 -1.550253629684448242e-01 7.867480069398880005e-02
-2.895063459873199463e-01 -8.007887750864028931e-02 -8.291376382112503052e-02
-9.538179636001586914e-02 3.202492594718933105e-01 3.374937921762466431e-02
1.097552552819252014e-01 -1.924584060907363892e-01 -8.038789033889770508e-02
6.989938020706176758e-01 1.675767824053764343e-02 3.645254671573638916e-02
4.940546751022338867e-01 -2.590416073799133301e-01 -3.766001388430595398e-02
2.772223651409149170e-01 -2.808931171894073486e-01 4.710777103900909424e-02
1.365489512681961060e-01 -2.061650902032852173e-01 -7.761653512716293335e-02
-4.364067912101745605e-01 2.016293257474899292e-01 5.798872932791709900e-02
-5.436504483222961426e-01 9.940420091152191162e-02 6.501955538988113403e-02
-5.869860649108886719e-01 1.799534447491168976e-02 -5.778582766652107239e-02
-1.493910849094390869e-01 -3.458012640476226807e-01 1.077036466449499130e-02
-4.807963371276855469e-01 -6.531202793121337891e-02 7.469802349805831909e-02
2.214035093784332275e-01 3.328500092029571533e-01 9.819958359003067017e-05
-1.297995299100875854e-01 6.353918462991714478e-02 9.018531441688537598e-02
1.407280564308166504e-01 -1.683257967233657837e-01 -8.395086228847503662e-02
-5.931468605995178223e-01 4.754908382892608643e-02 -5.601225048303604126e-02
3.258365690708160400e-01 1.836534887552261353e-01 -7.488847523927688599e-02
-7.705955505371093750e-01 -2.535524964332580566e-02 1.774901896715164185e-02
6.155448406934738159e-02 -2.616463005542755127e-01 -6.491119414567947388e-02
6.049784421920776367e-01 -9.404209256172180176e-02 -6.408943980932235718e-02
-3.995286524295806885e-01 -2.605940699577331543e-01 4.347070679068565369e-02
-1.166115775704383850e-01 1.647130846977233887e-01 8.015427738428115845e-02
4.386040568351745605e-01 1.217646077275276184e-01 6.434510648250579834e-02
1.856489330530166626e-01 -1.438149660825729370e-01 -8.652503043413162231e-02
-3.225474953651428223e-01 6.851731240749359131e-02 8.444370329380035400e-02
-3.399859070777893066e-01 -8.862003684043884277e-02 8.292503654956817627e-02
6.251361370086669922e-01 8.709865063428878784e-02 4.447143524885177612e-02
6.486558914184570312e-02 -3.210537731647491455e-01 -4.157567769289016724e-02
1.701151486486196518e-03 -1.269659399986267090e-01 8.709186315536499023e-02
-7.117359638214111328e-01 -8.303725719451904297e-02 3.568866103887557983e-02
6.777608394622802734e-01 1.259740442037582397e-02 -5.716940388083457947e-02
4.952273666858673096e-01 3.137372434139251709e-02 -7.947979867458343506e-02
-5.503486990928649902e-01 -2.268428951501846313e-01 3.005095385015010834e-02
-9.963247925043106079e-02 1.937729418277740479e-01 7.545296102762222290e-02
-2.140335366129875183e-02 -1.784972101449966431e-01 8.102370798587799072e-02
7.580291628837585449e-01 -3.087021782994270325e-02 2.015452459454536438e-02
-2.002650201320648193e-01 1.028561741113662720e-01 -8.659847825765609741e-02
1.264398097991943359e-01 -1.969374716281890869e-01 7.585674524307250977e-02
-4.929562211036682129e-01 -8.123189955949783325e-02 -6.567946821451187134e-02
2.076009958982467651e-01 -2.648688554763793945e-01 -6.158462539315223694e-02
3.979452252388000488e-01 -1.502006798982620239e-01 -7.704575359821319580e-02
-1.352153867483139038e-01 2.746306359767913818e-01 -5.759410932660102844e-02
3.886597231030464172e-02 -3.564661145210266113e-01 3.636759473010897636e-03
1.027507856488227844e-01 -2.939994633197784424e-01 -5.382007732987403870e-02
-7.077849507331848145e-01 -9.803960472345352173e-02 -2.270082943141460419e-02
4.074520170688629150e-01 -2.845311164855957031e-01 3.027485497295856476e-02
-5.689224600791931152e-01 2.222660481929779053e-01 -2.405901625752449036e-02
-3.098429143428802490e-01 9.631509333848953247e-02 8.292850852012634277e-02
3.646298348903656006e-01 -2.730843424797058105e-01 4.166365787386894226e-02
-1.093036010861396790e-01 8.463132381439208984e-02 -9.105384349822998047e-02
5.668194890022277832e-01 2.726648002862930298e-02 -7.257916778326034546e-02
-1.230092495679855347e-01 -3.252289593219757080e-01 3.556551784276962280e-02
1.608094871044158936e-01 -2.025917321443557739e-01 7.376432418823242188e-02
-1.551135480403900146e-01 2.953840196132659912e-01 -4.855124279856681824e-02
-6.466929912567138672e-01 -1.910230070352554321e-01 1.072401925921440125e-02
-1.742748022079467773e-01 -5.561285465955734253e-02 -9.002282470464706421e-02
7.687101960182189941e-01 4.460096359252929688e-02 1.044720783829689026e-02
-4.397581815719604492e-01 -9.897627681493759155e-02 7.552631199359893799e-02
-3.104977309703826904e-01 -3.140135407447814941e-01 2.248722128570079803e-02
1.965818554162979126e-02 3.117860853672027588e-01 -4.541785269975662231e-02
3.917551040649414062e-01 -1.928156614303588867e-01 -7.012979686260223389e-02
-2.967991828918457031e-01 -1.521256864070892334e-01 7.853787392377853394e-02
-4.928179979324340820e-01 7.762595266103744507e-02 7.237432152032852173e-02
-1.408328264951705933e-01 2.355446815490722656e-01 -6.874896585941314697e-02
7.295740842819213867e-01 -6.105162948369979858e-02 -4.376334697008132935e-02
-5.794878602027893066e-01 1.817584633827209473e-01 4.383802041411399841e-02
-2.058968693017959595e-01 -1.083092540502548218e-01 -8.499988913536071777e-02
-7.149430513381958008e-01 -8.574005216360092163e-03 4.236762598156929016e-02
-4.377641081809997559e-01 8.533619344234466553e-02 -7.224141806364059448e-02
-7.950856536626815796e-02 -2.426473051309585571e-01 6.846705824136734009e-02
5.690950751304626465e-01 -2.491887658834457397e-01 1.249877642840147018e-02
-3.820631206035614014e-01 -3.360519558191299438e-02 8.327538520097732544e-02
-5.607156157493591309e-01 1.100490614771842957e-01 -5.551604554057121277e-02
9.006689488887786865e-02 -5.074086040258407593e-02 -9.488721191883087158e-02
-2.310294955968856812e-01 2.299346029758453369e-01 -6.581313163042068481e-02
-2.035114169120788574e-01 1.232747808098793030e-01 8.395986258983612061e-02
1.189078465104103088e-01 -2.482060901820659637e-02 9.034334123134613037e-02
-5.090339481830596924e-02 3.429711461067199707e-01 -2.016680687665939331e-02
4.735029339790344238e-01 -5.633007735013961792e-02 6.913237273693084717e-02
-5.860785022377967834e-02 -1.713628917932510376e-01 -8.242630213499069214e-02
-6.810277700424194336e-01 3.013352490961551666e-02 4.973933100700378418e-02
6.388568133115768433e-02 -2.755851447582244873e-01 -6.062260270118713379e-02
-4.386244714260101318e-01 2.360937893390655518e-01 4.721717908978462219e-02
-2.242324799299240112e-01 2.220876067876815796e-01 6.679737567901611328e-02
-6.480074673891067505e-02 2.469671964645385742e-01 6.362432986497879028e-02
3.578418791294097900e-01 9.117765724658966064e-02 -8.539812266826629639e-02
-3.129892349243164062e-01 1.672460287809371948e-01 7.392027229070663452e-02
4.576485157012939453e-01 -6.791729480028152466e-02 7.012209296226501465e-02
2.882290482521057129e-01 -2.418965995311737061e-01 -6.484089791774749756e-02
3.571489155292510986e-01 -2.432724684476852417e-01 5.269139260053634644e-02
-5.537233352661132812e-01 1.100812554359436035e-01 6.249853596091270447e-02
-5.210961699485778809e-01 2.168042212724685669e-02 7.263245433568954468e-02
4.725023508071899414e-01 1.200939416885375977e-01 -7.428807765245437622e-02
6.239387989044189453e-01 -3.129241615533828735e-02 -6.572404503822326660e-02
-1.327248513698577881e-01 -1.258016526699066162e-01 -8.615799993276596069e-02
1.944456547498703003e-01 -1.510639041662216187e-01 8.011905103921890259e-02
-2.313182055950164795e-01 2.909338772296905518e-01 4.369463771581649780e-02
-1.459556519985198975e-01 -1.179542616009712219e-01 8.718850463628768921e-02
-1.327124834060668945e-01 1.714119166135787964e-01 -8.138526231050491333e-02
-1.211341023445129395e-01 -1.687056869268417358e-01 -8.106566965579986572e-02
1.802278012037277222e-01 -2.942970991134643555e-01 -5.195072665810585022e-02
4.363443851470947266e-01 2.107860445976257324e-01 -5.966690182685852051e-02
-1.836270689964294434e-01 -3.560736775398254395e-02 -9.045108407735824585e-02
-4.748666286468505859e-01 2.379845678806304932e-01 -3.815995529294013977e-02
-5.056146979331970215e-01 -2.629900574684143066e-01 1.310157869011163712e-02
-5.149264819920063019e-03 7.176659256219863892e-02 8.991765975952148438e-02
-6.643053144216537476e-02 -3.540610671043395996e-01 2.582175889983773232e-03
6.118854880332946777e-01 -2.081149518489837646e-01 -3.635612502694129944e-02
1.576435267925262451e-01 -2.464693505316972733e-03 -9.536428749561309814e-02
7.303019762039184570e-01 -7.285204529762268066e-02 2.613317966461181641e-02
4.159105420112609863e-01 8.337979763746261597e-02 -8.251966536045074463e-02
-3.043729662895202637e-01 -1.994208395481109619e-01 7.020341604948043823e-02
6.051500439643859863e-01 2.064394652843475342e-01 -2.857555449008941650e-02
-4.330167919397354126e-02 1.327707022428512573e-01 -8.842626959085464478e-02
8.037465810775756836e-02 3.838947415351867676e-02 -9.546150267124176025e-02
-5.485375523567199707e-01 2.354817092418670654e-01 2.694851532578468323e-02
3.422390222549438477e-01 -3.271971642971038818e-01 -7.251294329762458801e-03
-4.374558106064796448e-02 -3.257643282413482666e-01 3.798861801624298096e-02
-1.043467670679092407e-01 -3.445538878440856934e-01 -1.753818430006504059e-02
2.956455945968627930e-01 -3.359273374080657959e-01 -3.340663854032754898e-03
-3.255884349346160889e-01 -5.976969841867685318e-03 -8.370680361986160278e-02
-5.908398628234863281e-01 -2.226741015911102295e-01 1.488787308335304260e-02
6.083667874336242676e-01 1.034988611936569214e-01 4.497689008712768555e-02
-1.492743045091629028e-01 2.788711488246917725e-01 -5.547254532575607300e-02
-4.523492753505706787e-01 1.634279191493988037e-01 -6.127564609050750732e-02
5.880355238914489746e-01 -1.177832782268524170e-01 5.050212889909744263e-02
2.347598820924758911e-01 -3.436722159385681152e-01 -8.679836057126522064e-03
4.998979270458221436e-01 -1.427209228277206421e-01 5.886030197143554688e-02
4.374064207077026367e-01 1.803735941648483276e-01 -6.718287616968154907e-02
-3.557469844818115234e-01 -1.741553097963333130e-01 -6.658203899860382080e-02
1.772807091474533081e-01 2.724319994449615479e-01 4.960373416543006897e-02
-1.041586920619010925e-01 -3.481299579143524170e-01 1.425502635538578033e-02
-4.482151567935943604e-01 8.682006597518920898e-02 -7.113343477249145508e-02
3.831852599978446960e-02 -8.513217419385910034e-02 -9.296583384275436401e-02
-2.136685103178024292e-01 -2.507987618446350098e-01 6.253115087747573853e-02
5.525049567222595215e-01 2.152863144874572754e-01 2.394819818437099457e-02
7.250848412513732910e-01 1.282352395355701447e-02 -4.694321006536483765e-02
-2.956065163016319275e-02 2.702478468418121338e-01 5.658733472228050232e-02
4.414290189743041992e-01 -2.188568264245986938e-01 5.059124529361724854e-02
-2.403941303491592407e-01 -9.003446251153945923e-02 -8.489964157342910767e-02
3.969553709030151367e-01 -1.215751171112060547e-01 -8.073404431343078613e-02
9.128255397081375122e-02 -1.248423904180526733e-01 -8.967479318380355835e-02
-2.934853732585906982e-01 1.097984984517097473e-01 8.236947655677795410e-02
6.125655770301818848e-01 -1.989346593618392944e-01 2.753218822181224823e-02
-4.320522546768188477e-01 -2.792765200138092041e-01 -1.803909428417682648e-02
1.850226521492004395e-01 5.985777080059051514e-02 -9.355413168668746948e-02
3.699762225151062012e-01 1.428629755973815918e-01 6.743790209293365479e-02
5.159944295883178711e-01 -2.483561262488365173e-02 6.552601605653762817e-02
-1.432516705244779587e-02 2.565076649188995361e-01 -6.630828976631164551e-02
1.503523290157318115e-01 3.020029366016387939e-01 -4.746198654174804688e-02
4.391539096832275391e-01 1.287946701049804688e-01 -7.596841454505920410e-02
-1.444639414548873901e-01 1.270813792943954468e-01 8.471158146858215332e-02
3.276999890804290771e-01 -3.054094314575195312e-01 -3.625905141234397888e-02
5.260507017374038696e-02 1.315214633941650391e-01 8.386481553316116333e-02
-1.179564297199249268e-01 -1.563923656940460205e-01 8.347846567630767822e-02
-4.207150638103485107e-01 -2.614258229732513428e-01 -3.260955587029457092e-02
3.112564086914062500e-01 -2.357888668775558472e-01 -6.524047255516052246e-02
-6.186819076538085938e-01 -3.288912773132324219e-02 -5.185313150286674500e-02
3.583389222621917725e-01 -1.204489767551422119e-01 7.439614832401275635e-02
3.593524098396301270e-01 3.658685088157653809e-02 7.819578051567077637e-02
5.505253002047538757e-02 1.119672581553459167e-01 -9.127143025398254395e-02
-1.813227981328964233e-01 -2.173342108726501465e-01 -6.966661661863327026e-02
1.412876695394515991e-01 -2.437780946493148804e-01 6.577575951814651489e-02
6.778828501701354980e-01 1.189372465014457703e-01 2.676567807793617249e-02
-2.102714478969573975e-01 1.498377621173858643e-01 8.051160722970962524e-02
-5.203730463981628418e-01 -4.955735057592391968e-02 -6.486683338880538940e-02
8.094035089015960693e-02 -2.246086448431015015e-01 -7.423495501279830933e-02
-5.895056724548339844e-01 -1.287447512149810791e-01 5.465033650398254395e-02
-4.273702502250671387e-01 -1.297884732484817505e-01 -6.708157807588577271e-02
-3.115749731659889221e-02 -3.198747038841247559e-01 -4.096571728587150574e-02
1.059157103300094604e-01 -3.551120162010192871e-01 -2.014969009906053543e-03
-1.016235053539276123e-01 -2.899796515703201294e-02 9.230758249759674072e-02
-6.153799891471862793e-01 -1.273440122604370117e-01 -4.090260714292526245e-02
1.847420930862426758e-01 -2.806976735591888428e-01 5.319101735949516296e-02
8.561974391341209412e-04 -3.418938815593719482e-02 -9.509868919849395752e-02
-6.224824786186218262e-01 -2.015973776578903198e-01 -8.184066973626613617e-03
4.040149152278900146e-01 -2.164151519536972046e-02 -8.648565411567687988e-02
-4.465554952621459961e-01 -3.463569283485412598e-02 7.889673858880996704e-02
-6.190474629402160645e-01 -6.558459252119064331e-03 6.107464060187339783e-02
-7.253143787384033203e-01 -4.238010942935943604e-02 -2.669248171150684357e-02
7.553876638412475586e-01 -7.089553773403167725e-02 1.745813339948654175e-02
4.105966389179229736e-01 1.710080206394195557e-01 -7.142787426710128784e-02
-1.611103713512420654e-01 1.463776528835296631e-01 -8.377645164728164673e-02
5.671424269676208496e-01 -1.867239177227020264e-01 4.092517122626304626e-02
-3.821554481983184814e-01 -2.002784013748168945e-01 6.452959775924682617e-02
1.405053585767745972e-01 -3.084987103939056396e-01 -4.685680568218231201e-02
-1.852931231260299683e-01 -2.815554141998291016e-01 -5.075015500187873840e-02
4.810455739498138428e-01 1.807976961135864258e-01 -6.254760175943374634e-02
1.860331743955612183e-02 7.577298581600189209e-02 -9.374226629734039307e-02
-1.287517417222261429e-02 -6.524600833654403687e-02 -9.368611872196197510e-02
-6.733568906784057617e-01 1.997390761971473694e-03 5.190721899271011353e-02
2.393053323030471802e-01 4.518397897481918335e-02 8.476074039936065674e-02
-5.032683610916137695e-01 -2.532423436641693115e-01 2.605497837066650391e-02
7.138043642044067383e-02 -2.614104151725769043e-01 6.305181235074996948e-02
-4.774399399757385254e-01 1.548985093832015991e-01 -5.987469851970672607e-02
6.875503063201904297e-01 -3.488794341683387756e-02 3.949558734893798828e-02
-1.587747782468795776e-01 2.674812376499176025e-01 -5.896399915218353271e-02
7.747411727905273438e-01 5.507446080446243286e-02 3.241677535697817802e-03
2.756099104881286621e-01 1.241852566599845886e-01 7.645020633935928345e-02
-2.123828232288360596e-02 3.052418529987335205e-01 4.258088394999504089e-02
-6.621413677930831909e-02 -2.002798393368721008e-02 9.258880466222763062e-02
1.001185998320579529e-01 -1.411415636539459229e-01 8.419088274240493774e-02
-6.570033729076385498e-03 -3.191432952880859375e-01 -4.198441281914710999e-02
3.117097318172454834e-01 2.964575588703155518e-01 -3.721027821302413940e-02
4.342594742774963379e-01 2.474060356616973877e-01 -4.678855463862419128e-02
-5.374415516853332520e-01 1.385910063982009888e-01 -5.478639900684356689e-02
7.182545661926269531e-01 1.350832134485244751e-01 -2.004137448966503143e-02
-5.835023522377014160e-01 -2.116097062826156616e-01 2.878562174737453461e-02
-1.710972636938095093e-01 1.062810570001602173e-01 8.639042824506759644e-02
-6.243722438812255859e-01 -1.001309826970100403e-01 -4.405651241540908813e-02
3.953864797949790955e-04 -1.667200177907943726e-01 8.258619904518127441e-02
-4.548126161098480225e-01 -1.248441543430089951e-02 7.868136465549468994e-02
-2.241596132516860962e-01 6.241328269243240356e-02 -8.808314800262451172e-02
2.377716004848480225e-01 -1.499700397253036499e-01 -8.448972553014755249e-02
-3.611629009246826172e-01 -1.247281506657600403e-01 -7.364310324192047119e-02
-4.628853499889373779e-01 1.336975246667861938e-01 -6.473298370838165283e-02
7.243645191192626953e-01 6.852050125598907471e-02 -4.151818528771400452e-02
-6.128728985786437988e-01 -6.004174798727035522e-02 -5.095252767205238342e-02
5.307307243347167969e-01 1.167571023106575012e-01 -6.886686384677886963e-02
6.902582198381423950e-02 -3.113059401512145996e-01 4.519017040729522705e-02
-7.726984620094299316e-01 3.194826096296310425e-02 1.643838547170162201e-02
2.506738901138305664e-01 -1.699332147836685181e-01 7.509256899356842041e-02
4.192872047424316406e-01 -1.198766902089118958e-01 6.966120004653930664e-02
5.433129072189331055e-01 2.091946080327033997e-02 6.177250668406486511e-02
2.408788949251174927e-01 -2.638013660907745361e-01 5.556630715727806091e-02
-6.381814479827880859e-01 1.371126025915145874e-01 4.424927383661270142e-02
-2.567250132560729980e-01 -7.614395581185817719e-03 -8.770921081304550171e-02
5.509759187698364258e-01 4.519817978143692017e-02 -7.350829988718032837e-02
-3.646888136863708496e-01 2.694044113159179688e-01 -4.139925912022590637e-02
-2.886229455471038818e-01 -3.240736722946166992e-01 1.426314376294612885e-02
-1.683263629674911499e-01 2.684251368045806885e-01 -5.819609388709068298e-02
4.660589247941970825e-02 3.311201333999633789e-01 2.532632835209369659e-02
-5.446972250938415527e-01 -5.574040114879608154e-02 6.889544427394866943e-02
2.700932621955871582e-01 -2.909029126167297363e-01 -4.895531758666038513e-02
3.294352591037750244e-01 2.835638355463743210e-03 8.112388849258422852e-02
-3.532537221908569336e-01 -2.641439735889434814e-01 4.771670699119567871e-02
-7.037749290466308594e-01 6.510206311941146851e-02 -3.250360861420631409e-02
-4.901943728327751160e-02 1.523717939853668213e-01 8.222958445549011230e-02
-2.618288993835449219e-02 -1.630643010139465332e-02 -9.514112770557403564e-02
3.344795107841491699e-02 -3.091843724250793457e-01 -4.750534147024154663e-02
-5.084490403532981873e-02 2.887691259384155273e-01 4.987948015332221985e-02
3.448868691921234131e-01 2.653889954090118408e-01 3.776951879262924194e-02
5.260095596313476562e-01 -2.380864918231964111e-01 -4.191062971949577332e-02
1.046328693628311157e-01 -1.481445580720901489e-01 8.330836147069931030e-02
-2.473216354846954346e-01 -2.107203006744384766e-01 -6.735313683748245239e-02
-1.546431332826614380e-01 -1.933025121688842773e-01 7.731869816780090332e-02
3.959344327449798584e-02 2.086705267429351807e-01 7.190402597188949585e-02
7.229288220405578613e-01 -2.575494349002838135e-03 -4.790535941720008850e-02
-1.194132566452026367e-01 3.141684532165527344e-01 3.680866584181785583e-02
2.633143588900566101e-02 3.229806721210479736e-01 3.192932158708572388e-02
1.285958588123321533e-01 1.890733689069747925e-01 -8.091661334037780762e-02
5.158027410507202148e-01 -1.879619657993316650e-01 4.865100607275962830e-02
2.429356575012207031e-01 -2.477159053087234497e-01 6.006895005702972412e-02
-7.382339835166931152e-01 -7.800938934087753296e-02 2.615901455283164978e-02
9.296840429306030273e-02 -3.447211980819702148e-01 2.240206301212310791e-02
1.264007538557052612e-01 1.472737044095993042e-01 8.009462058544158936e-02
3.721337616443634033e-01 3.029427528381347656e-01 2.660595113411545753e-03
-5.629982948303222656e-01 1.708437502384185791e-01 -4.426359385251998901e-02
-4.598345458507537842e-01 -2.774975299835205078e-01 1.730016991496086121e-02
-6.841058135032653809e-01 -6.431307643651962280e-02 -3.596118092536926270e-02
-2.061827927827835083e-01 3.239537477493286133e-01 2.502944134175777435e-02
-4.844686016440391541e-02 -1.616532057523727417e-01 8.335629850625991821e-02
3.166562318801879883e-01 -2.208884656429290771e-01 -6.868433207273483276e-02
-3.960988521575927734e-01 2.241989970207214355e-01 5.565605685114860535e-02
-2.002506405115127563e-01 3.384142816066741943e-01 5.217913538217544556e-03
-2.049048095941543579e-01 5.266081541776657104e-02 -8.934382349252700806e-02
6.177198290824890137e-01 -1.304197609424591064e-01 4.378883540630340576e-02
-2.922321259975433350e-01 -2.578290104866027832e-01 -5.085993558168411255e-02
-7.841742597520351410e-03 2.257222980260848999e-01 6.880574673414230347e-02
-4.261421412229537964e-02 -1.752577126026153564e-01 8.150506019592285156e-02
1.594866514205932617e-01 -5.668503046035766602e-02 -9.406128525733947754e-02
6.080553531646728516e-01 -6.392065435647964478e-02 5.242619290947914124e-02
-6.493694782257080078e-01 1.039634272456169128e-01 -4.069819301366806030e-02
-4.723773598670959473e-01 -7.112741470336914062e-02 -6.877871602773666382e-02
4.990325570106506348e-01 4.517748206853866577e-02 6.562434881925582886e-02
-2.717181444168090820e-01 1.973111927509307861e-01 7.034234702587127686e-02
3.291329145431518555e-01 1.565671414136886597e-01 -7.933805882930755615e-02
-1.575566977262496948e-01 -8.000542223453521729e-02 -8.925124257802963257e-02
-4.067715108394622803e-01 9.592732042074203491e-02 7.757604122161865234e-02
-4.455290436744689941e-01 1.690878719091415405e-01 6.438645720481872559e-02
-4.452390074729919434e-01 -2.035185545682907104e-01 5.758047476410865784e-02
-2.140121161937713623e-02 -2.599260509014129639e-01 -6.456109881401062012e-02
-5.544093623757362366e-02 -9.261607378721237183e-02 8.997850865125656128e-02
-5.929777026176452637e-01 2.114839851856231689e-01 -2.247778698801994324e-02
3.874377012252807617e-01 2.198599874973297119e-01 4.933363199234008789e-02
-1.600735187530517578e-01 -2.049080878496170044e-01 7.508701086044311523e-02
4.790632128715515137e-01 -2.895505130290985107e-01 6.533184088766574860e-03
-5.984603166580200195e-01 5.420104414224624634e-02 6.222399696707725525e-02
5.872855782508850098e-01 -6.149061024188995361e-02 -6.911714375019073486e-02
-1.428865045309066772e-01 1.864018887281417847e-01 7.625758647918701172e-02
-3.758127689361572266e-01 2.030700892210006714e-01 -6.116683408617973328e-02
-3.214614838361740112e-02 -8.402347564697265625e-02 9.049881249666213989e-02
-2.062889933586120605e-01 1.082374453544616699e-01 -8.589228242635726929e-02
2.325765043497085571e-01 2.547054290771484375e-01 5.224985629320144653e-02
4.140237271785736084e-01 2.905978560447692871e-01 -1.869617588818073273e-02
4.701594114303588867e-01 1.725992411375045776e-01 -6.559749692678451538e-02
-8.317153155803680420e-02 -1.788264065980911255e-01 -8.065510541200637817e-02
-1.068277657032012939e-01 7.047507166862487793e-02 -9.193464368581771851e-02
4.974327608942985535e-02 1.583396643400192261e-01 8.044239133596420288e-02
7.599812746047973633e-01 -1.152373626828193665e-01 -2.521724672988057137e-04
1.579847186803817749e-01 1.466040313243865967e-01 -8.673518151044845581e-02
9.480740129947662354e-02 1.485865861177444458e-01 -8.727504312992095947e-02
-2.163409814238548279e-02 -2.342743277549743652e-01 -7.123573124408721924e-02
-5.968849658966064453e-01 1.010870859026908875e-01 -5.099730938673019409e-02
-6.450406312942504883e-01 1.167999282479286194e-01 -3.951796144247055054e-02
1.950096189975738525e-01 -8.592724800109863281e-02 -9.181027114391326904e-02
1.457673609256744385e-01 -1.396993994712829590e-01 8.311549574136734009e-02
4.621652364730834961e-01 -2.788110673427581787e-01 2.300105057656764984e-02
-2.132389992475509644e-01 1.775984913110733032e-01 -7.719855010509490967e-02
8.804582804441452026e-02 2.257068157196044922e-01 6.702973693609237671e-02
-7.511490583419799805e-02 -2.709359526634216309e-01 6.072023883461952209e-02
-5.113801360130310059e-01 1.824221163988113403e-01 5.431156978011131287e-02
-7.402027845382690430e-01 5.767167359590530396e-02 -2.116134017705917358e-02
-5.764257311820983887e-01 2.171159088611602783e-01 2.997915260493755341e-02
6.901962757110595703e-01 1.426441073417663574e-01 -3.161571547389030457e-02
-5.635493993759155273e-01 -7.610885053873062134e-02 6.518337130546569824e-02
3.203910291194915771e-01 8.412361890077590942e-02 7.779254764318466187e-02
-8.243941515684127808e-02 -5.310226231813430786e-02 9.183883666992187500e-02
-8.311179466545581818e-03 -2.796489000320434570e-01 5.837867781519889832e-02
2.410436272621154785e-01 2.050647884607315063e-01 6.504862755537033081e-02
-2.883212268352508545e-01 -4.231698811054229736e-02 -8.509409427642822266e-02
3.305408954620361328e-01 2.632318437099456787e-01 -5.239418521523475647e-02
5.098662152886390686e-02 4.686809331178665161e-02 9.056709706783294678e-02
3.790751099586486816e-03 -2.619871869683265686e-02 -9.533005952835083008e-02
-3.037841618061065674e-01 6.928825378417968750e-02 8.522912114858627319e-02
-1.916104182600975037e-02 2.506480216979980469e-01 6.251896917819976807e-02
