2.581758201122283936e-01 2.896497547626495361e-01 -2.294608354568481445e-01
1.367224156856536865e-01 2.017096281051635742e-01 -3.208504617214202881e-01
-6.363583356142044067e-02 1.015421152114868164e-01 2.142224907875061035e-01
6.682495027780532837e-02 4.324939846992492676e-01 -4.587695300579071045e-01
2.623323351144790649e-02 1.293341070413589478e-01 2.576242089271545410e-01
7.007981836795806885e-02 6.082109212875366211e-01 2.342578023672103882e-01
-2.371925264596939087e-01 4.576433897018432617e-01 -3.069168031215667725e-01
1.671854257583618164e-01 2.440877705812454224e-01 2.838457524776458740e-01
3.170454129576683044e-02 5.104376673698425293e-01 -4.382397234439849854e-01
-2.239971049129962921e-02 2.131440788507461548e-01 -3.996549844741821289e-01
2.173075973987579346e-01 3.347452580928802490e-01 -3.365178704261779785e-01
2.134534418582916260e-01 2.833293676376342773e-01 -3.103426694869995117e-01
6.333490461111068726e-02 6.213241219520568848e-01 -3.214705288410186768e-01
-7.411398738622665405e-02 3.804660141468048096e-01 -4.608311355113983154e-01
2.202291339635848999e-01 1.706411987543106079e-01 -6.866197288036346436e-02
-7.420375943183898926e-02 6.786682009696960449e-01 -7.753637433052062988e-02
3.171329572796821594e-02 2.969350516796112061e-01 -4.485518038272857666e-01
-2.611190974712371826e-01 1.571418344974517822e-01 1.128926500678062439e-02
2.502141520380973816e-02 6.765633225440979004e-01 8.141547441482543945e-02
-2.754990756511688232e-01 3.993549942970275879e-01 1.998641341924667358e-01
1.319451630115509033e-01 3.246769607067108154e-01 3.542325794696807861e-01
-2.004065066576004028e-01 4.386236965656280518e-01 -3.669519126415252686e-01
-1.568035036325454712e-02 6.389453411102294922e-01 1.862257719039916992e-01
-2.585856318473815918e-01 2.629927694797515869e-01 -2.653257250785827637e-01
-1.375929117202758789e-01 6.386058926582336426e-01 7.336409389972686768e-02
1.993511021137237549e-01 6.283019185066223145e-01 2.305396646261215210e-02
1.715636402368545532e-01 2.712194919586181641e-01 2.980234324932098389e-01
3.018072843551635742e-01 3.174116313457489014e-01 -7.356779277324676514e-02
-1.078691035509109497e-01 1.837693750858306885e-01 3.157877027988433838e-01
2.452569901943206787e-01 2.411084920167922974e-01 -1.957896351814270020e-01
-4.439770057797431946e-02 7.210373878479003906e-02 1.357576251029968262e-01
-2.617755532264709473e-01 5.420801043510437012e-01 -9.523987770080566406e-02
2.982940971851348877e-01 4.810178875923156738e-01 3.160922601819038391e-02
-1.246502622961997986e-01 3.145725727081298828e-01 -4.291970729827880859e-01
-8.614703267812728882e-02 4.757844209671020508e-01 -4.370898008346557617e-01
-9.395787119865417480e-02 6.643613576889038086e-01 -1.512187123298645020e-01
1.340361684560775757e-01 5.961279273033142090e-01 2.137659788131713867e-01
-3.168891966342926025e-01 3.142935931682586670e-01 8.380949497222900391e-02
2.602613270282745361e-01 2.516984939575195312e-01 1.114366948604583740e-01
-3.680884838104248047e-02 3.179267942905426025e-01 -4.585306644439697266e-01
-1.407835632562637329e-01 7.263666391372680664e-02 -2.835887297987937927e-02
-1.621200889348983765e-01 3.947502672672271729e-01 3.478379249572753906e-01
2.101214975118637085e-01 1.764181107282638550e-01 1.057396531105041504e-01
1.538211852312088013e-01 6.614694595336914062e-01 -1.998075842857360840e-02
1.597598940134048462e-01 2.253745496273040771e-01 2.759162485599517822e-01
7.085699588060379028e-02 3.877190649509429932e-01 -4.601351022720336914e-01
2.237577736377716064e-01 1.718790680170059204e-01 -2.879675105214118958e-02
5.295108258724212646e-02 2.039083093404769897e-01 3.356660604476928711e-01
-2.541921138763427734e-01 5.534314513206481934e-01 -2.450682222843170166e-04
-2.605248391628265381e-01 5.472751259803771973e-01 -2.829674631357192993e-02
-1.638571172952651978e-01 1.938936412334442139e-01 -3.240385055541992188e-01
-1.750657260417938232e-01 4.485450983047485352e-01 -3.892326056957244873e-01
-1.794501394033432007e-01 5.465984940528869629e-01 -3.084389865398406982e-01
-1.566481739282608032e-01 8.179590106010437012e-02 4.918220266699790955e-02
-3.110596239566802979e-01 4.414697587490081787e-01 -9.407141059637069702e-02
2.650855779647827148e-01 2.359040826559066772e-01 4.530600830912590027e-02
1.707094758749008179e-01 5.285117626190185547e-01 -3.575944900512695312e-01
2.142546921968460083e-01 1.766987293958663940e-01 -1.340014189481735229e-01
-1.307371109724044800e-01 6.548912525177001953e-01 -7.993098348379135132e-03
2.047001123428344727e-01 5.453231334686279297e-01 -3.019240796566009521e-01
-7.884108461439609528e-03 5.609318017959594727e-01 3.060707151889801025e-01
-2.719136700034141541e-02 6.424795389175415039e-01 -2.824562191963195801e-01
-2.727453708648681641e-01 1.762991249561309814e-01 4.416001960635185242e-02
1.522327065467834473e-01 1.790657341480255127e-01 -2.710546851158142090e-01
-4.651347920298576355e-02 6.856901645660400391e-01 -7.767562568187713623e-02
-3.249070346355438232e-01 3.291248083114624023e-01 3.645328059792518616e-02
-1.655276566743850708e-01 1.049427092075347900e-01 1.392160654067993164e-01
3.043461963534355164e-02 9.825664758682250977e-02 -2.190684378147125244e-01
2.568083256483078003e-02 2.171508371829986572e-01 -3.984435200691223145e-01
-2.265270054340362549e-01 2.056005448102951050e-01 2.285915166139602661e-01
-2.688809335231781006e-01 5.319932699203491211e-01 9.208593517541885376e-03
-1.868946701288223267e-01 1.550826579332351685e-01 2.182962149381637573e-01
-2.973472326993942261e-02 6.636820435523986816e-01 -2.265346944332122803e-01
1.706556528806686401e-01 6.527366638183593750e-01 -2.267652750015258789e-02
-1.885933429002761841e-01 2.291706800460815430e-01 -3.349518179893493652e-01
2.840044200420379639e-01 4.597738385200500488e-01 -2.090374231338500977e-01
-2.490328848361968994e-01 3.460524976253509521e-01 2.603978216648101807e-01
-1.308062076568603516e-01 1.494825035333633423e-01 -2.925415635108947754e-01
1.625262945890426636e-01 6.582431793212890625e-01 -7.069989293813705444e-02
-1.971821337938308716e-01 1.537902653217315674e-01 2.020961344242095947e-01
-8.238659799098968506e-02 3.886525928974151611e-01 3.911922872066497803e-01
-2.605497241020202637e-01 1.560267955064773560e-01 -2.972506545484066010e-02
1.715876758098602295e-01 4.691501557826995850e-01 -3.898498117923736572e-01
-2.811934053897857666e-01 2.821748852729797363e-01 -2.316219210624694824e-01
-2.925956547260284424e-01 4.636725783348083496e-01 -1.612413674592971802e-01
1.020383983850479126e-01 4.718778133392333984e-01 3.507182598114013672e-01
-2.676852345466613770e-01 4.244155883789062500e-01 -2.693836688995361328e-01
-2.247293740510940552e-01 2.015068233013153076e-01 -2.610894441604614258e-01
1.712642237544059753e-02 6.887695789337158203e-01 -1.290051341056823730e-01
-4.592103138566017151e-02 1.472651660442352295e-01 -3.237785696983337402e-01
-2.901928126811981201e-01 4.961957335472106934e-01 7.482986897230148315e-03
2.392835021018981934e-01 2.211196422576904297e-01 1.234614104032516479e-01
-1.727767437696456909e-01 1.916705965995788574e-01 2.792479693889617920e-01
1.650921851396560669e-01 5.793557763099670410e-01 2.083430141210556030e-01
-4.479083791375160217e-02 1.912707239389419556e-01 3.397698998451232910e-01
2.111082524061203003e-01 1.589475721120834351e-01 -4.058121517300605774e-02
2.324114590883255005e-01 5.692492723464965820e-01 1.129003167152404785e-01
-1.151562780141830444e-01 5.715974569320678711e-01 -3.448474705219268799e-01
-1.604100614786148071e-01 5.142068266868591309e-01 -3.634290397167205811e-01
9.543130546808242798e-02 6.709382534027099609e-01 -1.783239245414733887e-01
-9.890346974134445190e-02 7.133311033248901367e-02 1.029428541660308838e-01
-2.497194707393646240e-01 3.805328905582427979e-01 2.542350888252258301e-01
7.979700714349746704e-02 4.626438021659851074e-01 3.648289144039154053e-01
-1.204925850033760071e-01 5.034258961677551270e-01 -4.036078751087188721e-01
-7.200852781534194946e-02 4.731594920158386230e-01 3.635606467723846436e-01
2.126108556985855103e-01 4.661826193332672119e-01 -3.463912606239318848e-01
-3.051886558532714844e-01 4.406129121780395508e-01 6.866993010044097900e-02
4.973344504833221436e-02 6.876459717750549316e-01 -1.272898763418197632e-01
-3.208445310592651367e-01 4.108354449272155762e-01 4.124015569686889648e-03
-2.084832191467285156e-01 1.154668331146240234e-01 7.335060834884643555e-02
-1.808181554079055786e-01 4.506564736366271973e-01 3.091264367103576660e-01
-2.557131350040435791e-01 4.940927326679229736e-01 -2.364310771226882935e-01
1.789200603961944580e-01 1.320688277482986450e-01 2.977910265326499939e-02
1.332335025072097778e-01 2.375184446573257446e-01 -3.620902299880981445e-01
-3.037945628166198730e-01 2.558768093585968018e-01 -1.317351311445236206e-01
1.399739980697631836e-01 4.622977674007415771e-01 -4.170827865600585938e-01
-4.255839064717292786e-02 6.500583291053771973e-01 -2.577475011348724365e-01
1.178972329944372177e-02 2.709645926952362061e-01 3.872676193714141846e-01
-1.963223516941070557e-02 7.882612943649291992e-02 -1.795535385608673096e-01
-2.349729388952255249e-01 5.007468461990356445e-01 1.937295496463775635e-01
1.860190629959106445e-01 6.212276220321655273e-01 9.107285737991333008e-02
7.141796499490737915e-02 6.592205762863159180e-01 -2.380638420581817627e-01
5.816163122653961182e-02 4.350531697273254395e-01 3.827350735664367676e-01
1.152004897594451904e-01 6.354845762252807617e-01 -2.655653059482574463e-01
-1.815859973430633545e-02 4.552215337753295898e-01 -4.619992971420288086e-01
6.883306056261062622e-02 6.890803575515747070e-01 -4.145209863781929016e-02
-2.827985584735870361e-01 2.019040137529373169e-01 8.094118535518646240e-02
1.689924746751785278e-01 3.035600483417510986e-01 3.166174590587615967e-01
2.230635136365890503e-01 3.303026258945465088e-01 2.597315907478332520e-01
-6.237300485372543335e-02 5.847764015197753906e-01 -3.614428341388702393e-01
1.096962299197912216e-02 5.936408042907714844e-02 4.343372210860252380e-02
2.214282751083374023e-01 2.622571587562561035e-01 -2.777063250541687012e-01
-1.157999262213706970e-01 7.406726479530334473e-02 9.529814124107360840e-02
2.982972264289855957e-01 4.946351647377014160e-01 -8.699363097548484802e-03
-1.103164702653884888e-01 6.349346637725830078e-01 1.316736489534378052e-01
-9.639813750982284546e-02 6.341534256935119629e-01 1.496579498052597046e-01
-4.211654141545295715e-02 3.447168469429016113e-01 4.031784832477569580e-01
-2.996399402618408203e-01 4.803297221660614014e-01 -3.621372953057289124e-02
9.237337857484817505e-02 3.848164677619934082e-01 -4.518898725509643555e-01
1.330775767564773560e-01 2.369469106197357178e-01 3.120739758014678955e-01
-2.776198089122772217e-04 9.597906470298767090e-02 -2.254296094179153442e-01
-3.971422091126441956e-02 6.551575660705566406e-02 -1.266381442546844482e-01
7.783643156290054321e-02 1.234618723392486572e-01 2.152824550867080688e-01
2.975808084011077881e-01 4.618785083293914795e-01 6.511273980140686035e-02
-1.899356693029403687e-01 3.823419213294982910e-01 -3.900574445724487305e-01
8.874518424272537231e-02 5.269242525100708008e-01 3.205835223197937012e-01
-9.831114113330841064e-02 6.136551499366760254e-02 2.885947749018669128e-02
4.658883437514305115e-02 6.408005952835083008e-02 -1.314607448875904083e-02
2.601612806320190430e-01 5.389363169670104980e-01 -1.934451907873153687e-01
-2.684637904167175293e-01 2.214891016483306885e-01 -2.006606161594390869e-01
-4.341334477066993713e-02 5.898764133453369141e-01 -3.626716434955596924e-01
-1.655645072460174561e-01 6.322735548019409180e-01 1.806591823697090149e-02
-2.734641134738922119e-01 1.730036437511444092e-01 -3.830014169216156006e-02
1.612561643123626709e-01 1.644262969493865967e-01 -2.309258431196212769e-01
7.668933272361755371e-02 1.421180963516235352e-01 2.499361783266067505e-01
2.314794063568115234e-01 2.050372064113616943e-01 -1.598753780126571655e-01
-3.276886045932769775e-02 1.150063872337341309e-01 2.445793598890304565e-01
9.562242776155471802e-04 3.947039246559143066e-01 4.017038345336914062e-01
2.701773047447204590e-01 5.538049340248107910e-01 -1.466907560825347900e-04
-3.113947808742523193e-01 2.496029734611511230e-01 2.468390017747879028e-02
-2.250615358352661133e-01 4.839657545089721680e-01 2.295560985803604126e-01
2.550966441631317139e-01 2.120747715234756470e-01 -1.441957056522369385e-02
-2.294903621077537537e-02 6.899932026863098145e-01 -4.652026295661926270e-02
-4.079531505703926086e-02 4.702586233615875244e-01 3.729770481586456299e-01
3.421274013817310333e-04 1.796872168779373169e-01 -3.652463853359222412e-01
2.221487015485763550e-01 2.155293524265289307e-01 1.612325757741928101e-01
-2.650864720344543457e-01 3.061786293983459473e-01 -2.784374356269836426e-01
3.022474423050880432e-02 6.925742030143737793e-01 -7.760605216026306152e-02
-2.230906635522842407e-01 1.191062629222869873e-01 -2.367493137717247009e-02
1.704907566308975220e-01 1.238019913434982300e-01 5.059532821178436279e-03
1.732327044010162354e-01 4.375642240047454834e-01 -3.968988656997680664e-01
-9.089520573616027832e-02 5.722492337226867676e-01 2.663064002990722656e-01
1.452130675315856934e-01 6.412209272384643555e-01 1.050212383270263672e-01
1.257897615432739258e-01 9.880092740058898926e-02 -7.898634672164916992e-02
2.237015217542648315e-01 3.151727020740509033e-01 2.529376149177551270e-01
2.046280801296234131e-01 1.744235605001449585e-01 -1.597677767276763916e-01
-2.331902682781219482e-01 4.402886033058166504e-01 2.524917125701904297e-01
-1.999436765909194946e-01 5.722024440765380859e-01 1.413077563047409058e-01
2.879854738712310791e-01 2.777389883995056152e-01 1.786256209015846252e-02
3.007836937904357910e-01 3.162472546100616455e-01 1.626350730657577515e-02
1.068257763981819153e-01 5.421961545944213867e-01 2.982147336006164551e-01
1.773200929164886475e-01 3.867380321025848389e-01 -3.954227864742279053e-01
-9.508469700813293457e-02 6.668472290039062500e-01 2.325109764933586121e-02
-2.273779511451721191e-01 2.545648217201232910e-01 -3.090133965015411377e-01
1.818645894527435303e-01 3.007217347621917725e-01 3.019018173217773438e-01
2.846983671188354492e-01 2.758005857467651367e-01 -1.014687120914459229e-01
3.109567463397979736e-01 4.453891515731811523e-01 -5.287392437458038330e-02
1.560976803302764893e-01 5.624927282333374023e-01 2.401886433362960815e-01
-2.002185285091400146e-01 6.048053503036499023e-01 3.076797351241111755e-02
1.926786750555038452e-01 6.324572563171386719e-01 -1.394948959350585938e-01
4.362088441848754883e-02 6.297763586044311523e-01 -3.122824430465698242e-01
-2.171877305954694748e-03 5.861106514930725098e-02 -7.098858058452606201e-02
-7.745938003063201904e-02 5.857118964195251465e-02 -5.606204271316528320e-02
-2.754344344139099121e-01 4.495227932929992676e-01 -2.343590259552001953e-01
3.110049962997436523e-01 3.814387321472167969e-01 1.721835881471633911e-02
-2.644456923007965088e-01 4.646305441856384277e-01 1.744294166564941406e-01
2.368805259466171265e-01 5.860037803649902344e-01 -1.614042371511459351e-01
2.174524068832397461e-01 3.654712140560150146e-01 -3.467430174350738525e-01
-2.578257024288177490e-01 1.652244329452514648e-01 8.259542286396026611e-02
2.216730415821075439e-01 4.177838265895843506e-01 -3.454627394676208496e-01
-2.808543145656585693e-01 4.323498010635375977e-01 -2.336884289979934692e-01
-1.348903626203536987e-01 6.471281051635742188e-01 3.790448233485221863e-02
1.121757104992866516e-01 5.543763637542724609e-01 2.830118238925933838e-01
2.789753973484039307e-01 4.821897447109222412e-01 1.165737211704254150e-01
1.229285448789596558e-01 5.996665954589843750e-01 -3.223991990089416504e-01
2.359314262866973877e-02 1.197365522384643555e-01 -2.707061171531677246e-01
3.211718425154685974e-02 6.317417621612548828e-01 2.030587494373321533e-01
9.266462922096252441e-02 4.095407724380493164e-01 3.769432902336120605e-01
1.154445856809616089e-01 2.267322540283203125e-01 3.183718919754028320e-01
-8.243946731090545654e-02 6.442207098007202148e-01 -2.423580437898635864e-01
-9.290886111557483673e-03 6.867083311080932617e-01 1.941444724798202515e-02
-2.698752582073211670e-01 1.968903541564941406e-01 -1.534928381443023682e-01
3.140621781349182129e-01 4.025353193283081055e-01 -5.298430100083351135e-02
2.344142347574234009e-01 6.001232862472534180e-01 2.328094094991683960e-03
8.419643342494964600e-02 6.799138784408569336e-01 -1.451821476221084595e-01
-1.981873065233230591e-01 2.040690630674362183e-01 -3.001828193664550781e-01
-2.801596820354461670e-01 2.244786173105239868e-01 -1.719921380281448364e-01
-1.372436285018920898e-01 5.659644007682800293e-01 -3.323674798011779785e-01
-3.089525699615478516e-01 2.955783903598785400e-01 1.096676737070083618e-01
2.826526165008544922e-01 3.686689734458923340e-01 -2.217650562524795532e-01
2.849290072917938232e-01 5.282863974571228027e-01 -1.056254096329212189e-02
-2.033331990242004395e-01 5.573432445526123047e-01 -2.546460628509521484e-01
-2.312844991683959961e-02 6.038352847099304199e-02 7.826648652553558350e-02
6.648562848567962646e-04 1.173206865787506104e-01 -2.725580334663391113e-01
-1.456957906484603882e-01 4.049704968929290771e-01 3.567328453063964844e-01
2.264743000268936157e-01 2.536554634571075439e-01 2.036934942007064819e-01
-3.244808018207550049e-01 3.968824148178100586e-01 -3.313352167606353760e-02
-1.694309562444686890e-01 5.786477327346801758e-01 1.812326610088348389e-01
-6.969727575778961182e-02 5.315939784049987793e-01 3.212746083736419678e-01
-1.888334006071090698e-01 1.327252089977264404e-01 1.740639954805374146e-01
1.657534986734390259e-01 5.456104874610900879e-01 -3.479682803153991699e-01
-1.884823441505432129e-01 6.204739212989807129e-01 -6.616906821727752686e-02
-1.297916322946548462e-01 4.517680108547210693e-01 3.481938540935516357e-01
-2.493559271097183228e-01 2.048385292291641235e-01 1.870174407958984375e-01
2.228991091251373291e-01 5.760033130645751953e-01 -2.260841429233551025e-01
-7.741943001747131348e-02 4.386065006256103516e-01 3.785225749015808105e-01
-2.149785161018371582e-01 5.820393562316894531e-01 7.427413761615753174e-02
3.112353086471557617e-01 3.740185499191284180e-01 -8.444011211395263672e-02
1.011578142642974854e-01 3.045208752155303955e-01 -4.275043010711669922e-01
5.091287940740585327e-02 4.013518095016479492e-01 -4.657659232616424561e-01
8.386049419641494751e-02 3.375173211097717285e-01 3.837344646453857422e-01
-1.450125128030776978e-01 1.293259859085083008e-01 -2.461535781621932983e-01
-1.136093065142631531e-01 6.213663816452026367e-01 1.628793329000473022e-01
9.909184277057647705e-02 1.677631735801696777e-01 -3.080495297908782959e-01
-1.135709211230278015e-01 6.466165184974670410e-02 -4.028804227709770203e-02
-1.868239939212799072e-01 5.197489261627197266e-01 2.448645383119583130e-01
-3.269417956471443176e-02 1.311400830745697021e-01 2.712023854255676270e-01
1.069733053445816040e-01 3.429272770881652832e-01 3.729368746280670166e-01
-4.943200945854187012e-02 6.489624977111816406e-01 1.486241668462753296e-01
2.483180761337280273e-01 5.788788199424743652e-01 -1.356421411037445068e-01
1.037555709481239319e-01 5.660762190818786621e-01 2.750542759895324707e-01
-2.050863653421401978e-01 6.065278053283691406e-01 -2.162224799394607544e-02
-7.506031543016433716e-02 6.873002648353576660e-02 1.107683628797531128e-01
1.080351471900939941e-01 9.972989559173583984e-02 1.086900383234024048e-01
-2.703620493412017822e-01 5.181579589843750000e-01 6.020614132285118103e-02
1.021592542529106140e-01 9.067028760910034180e-02 -1.035501062870025635e-01
4.695145785808563232e-02 6.143839359283447266e-01 2.314308136701583862e-01
2.212266251444816589e-02 1.606478095054626465e-01 3.027608096599578857e-01
-1.642159372568130493e-01 2.382090687751770020e-01 3.227018713951110840e-01
-8.498365990817546844e-03 5.808225274085998535e-02 5.316540971398353577e-02
-5.177557095885276794e-02 4.352389872074127197e-01 3.866451680660247803e-01
-6.064729765057563782e-02 4.037198722362518311e-01 3.941549062728881836e-01
-2.795136868953704834e-01 2.527608275413513184e-01 1.700577437877655029e-01
2.936176955699920654e-01 4.448948204517364502e-01 9.782364964485168457e-02
-1.821152567863464355e-01 1.068822145462036133e-01 1.135934740304946899e-01
-2.281174361705780029e-01 2.225559651851654053e-01 -2.799595296382904053e-01
-3.009516894817352295e-01 4.327667057514190674e-01 1.004413515329360962e-01
9.207914769649505615e-02 5.527915954589843750e-01 2.953442037105560303e-01
3.779810667037963867e-02 6.498654484748840332e-01 1.626560389995574951e-01
-2.514109909534454346e-01 2.635856866836547852e-01 2.356467992067337036e-01
-3.016111254692077637e-01 2.544037997722625732e-01 9.933246672153472900e-02
-3.041589260101318359e-02 5.608909130096435547e-01 3.030481934547424316e-01
-1.671145856380462646e-01 1.196384429931640625e-01 -1.996374726295471191e-01
-3.267421126365661621e-01 3.156605660915374756e-01 -4.635752737522125244e-02
2.519566714763641357e-01 5.792115926742553711e-01 5.484286695718765259e-03
-5.766468122601509094e-02 6.442776918411254883e-01 -2.626512050628662109e-01
-3.284442126750946045e-01 3.510912060737609863e-01 -3.860420733690261841e-02
-3.837061673402786255e-02 6.640479564666748047e-01 1.097856909036636353e-01
-1.830103248357772827e-01 2.463008761405944824e-01 -3.537477850914001465e-01
-1.675821654498577118e-02 6.907266378402709961e-01 -7.054686546325683594e-02
1.806688606739044189e-01 6.105135083198547363e-01 1.299672275781631470e-01
-2.610549330711364746e-01 1.635179370641708374e-01 -8.623011410236358643e-02
1.936512738466262817e-01 4.919321835041046143e-01 -3.574288785457611084e-01
1.891795396804809570e-01 1.894374489784240723e-01 -2.314079701900482178e-01
2.818914651870727539e-01 5.091046690940856934e-01 -1.634868830442428589e-01
6.011598557233810425e-02 6.775949597358703613e-01 6.461367011070251465e-02
-2.032797038555145264e-01 1.323427110910415649e-01 1.471043080091476440e-01
-3.206226229667663574e-01 3.262912034988403320e-01 6.756840646266937256e-02
-1.802829653024673462e-01 5.290247797966003418e-01 -3.277136981487274170e-01
-2.923458218574523926e-01 2.023459374904632568e-01 -1.195110380649566650e-03
5.987557582557201385e-03 6.962800025939941406e-02 1.148406416177749634e-01
3.031045496463775635e-01 4.797113239765167236e-01 -1.376054994761943817e-02
-1.830922663211822510e-01 5.149610042572021484e-01 -3.381749391555786133e-01
1.372850835323333740e-01 1.130310297012329102e-01 -1.261698454618453979e-01
-4.962014034390449524e-02 1.160006225109100342e-01 2.451836615800857544e-01
7.229769229888916016e-02 6.887722015380859375e-01 -5.679839104413986206e-02
2.481916546821594238e-01 2.818715572357177734e-01 1.853320151567459106e-01
-2.166502550244331360e-02 4.041507840156555176e-01 3.996905982494354248e-01
-7.572820782661437988e-02 5.461708307266235352e-01 3.045506179332733154e-01
1.932581216096878052e-01 1.820189654827117920e-01 1.652604341506958008e-01
-1.450623869895935059e-01 9.753558039665222168e-02 -1.672971099615097046e-01
1.615654379129409790e-01 2.110281735658645630e-01 -3.055351674556732178e-01
2.583177089691162109e-01 2.439877539873123169e-01 -1.576899439096450806e-01
-2.712715566158294678e-01 3.744257986545562744e-01 2.177111059427261353e-01
-2.416749298572540283e-01 5.659201145172119141e-01 -1.092064678668975830e-01
2.193336188793182373e-01 5.786074995994567871e-01 1.245460510253906250e-01
2.905094921588897705e-01 3.139243423938751221e-01 -1.492915004491806030e-01
-2.776965796947479248e-01 3.006570935249328613e-01 -2.504437267780303955e-01
-2.710707485675811768e-01 4.396369457244873047e-01 1.832790672779083252e-01
-2.057904899120330811e-01 3.249259591102600098e-01 -3.683841526508331299e-01
2.636568248271942139e-01 4.113160073757171631e-01 -2.748846709728240967e-01
-1.763435751199722290e-01 1.571878492832183838e-01 -2.628286182880401611e-01
-1.737707108259201050e-01 9.592494368553161621e-02 -1.061801314353942871e-01
2.141251116991043091e-01 5.945552587509155273e-01 1.001033037900924683e-01
1.758407652378082275e-01 1.440144777297973633e-01 -1.445057988166809082e-01
2.742084860801696777e-02 6.693925857543945312e-01 -2.213459610939025879e-01
2.784528136253356934e-01 4.646036326885223389e-01 -2.228925377130508423e-01
1.951879262924194336e-01 2.314075678586959839e-01 2.348598390817642212e-01
-2.286294549703598022e-01 4.930213689804077148e-01 -2.931086719036102295e-01
-1.129322275519371033e-01 1.083127558231353760e-01 2.054734528064727783e-01
6.911559030413627625e-04 6.903588771820068359e-01 -1.074309349060058594e-01
-8.302091807126998901e-02 6.047159433364868164e-02 5.136134847998619080e-02
-2.237780988216400146e-01 1.658940464258193970e-01 1.785500943660736084e-01
-2.086685597896575928e-01 5.707648396492004395e-01 1.252781003713607788e-01
-2.464468330144882202e-01 4.388333559036254883e-01 -3.023926615715026855e-01
1.092502176761627197e-01 2.447535097599029541e-01 3.357477784156799316e-01
2.030864953994750977e-01 4.211961328983306885e-01 -3.685407936573028564e-01
1.862401068210601807e-01 1.500828415155410767e-01 9.693281352519989014e-02
4.354333132505416870e-02 6.714367866516113281e-02 -7.779306918382644653e-02
1.514245569705963135e-01 6.079018115997314453e-01 -2.833260297775268555e-01
2.054194509983062744e-01 3.322740793228149414e-01 2.848821282386779785e-01
2.548341751098632812e-01 5.238932371139526367e-01 -2.311218827962875366e-01
-1.266355961561203003e-01 4.699528217315673828e-01 3.399386703968048096e-01
-2.432904094457626343e-01 2.854799032211303711e-01 2.588943243026733398e-01
3.537777811288833618e-02 7.706913352012634277e-02 1.237703114748001099e-01
-1.842457354068756104e-01 4.117647111415863037e-01 -3.917234838008880615e-01
2.754293084144592285e-01 2.486729025840759277e-01 -6.611759960651397705e-02
-2.081324905157089233e-01 1.786096841096878052e-01 -2.547665536403656006e-01
-5.093744397163391113e-02 4.029590785503387451e-01 -4.663399457931518555e-01
6.907031685113906860e-02 1.171628832817077637e-01 -2.391126602888107300e-01
-2.694234624505043030e-02 8.775356411933898926e-02 -2.074940502643585205e-01
-1.488237977027893066e-01 2.323058545589447021e-01 3.302963078022003174e-01
-2.654790580272674561e-01 5.063929557800292969e-01 1.095758676528930664e-01
1.062585040926933289e-01 6.775995492935180664e-01 -1.208136379718780518e-01
1.711947023868560791e-01 2.885035872459411621e-01 3.078214824199676514e-01
-1.843808777630329132e-02 5.147944688796997070e-01 3.473139107227325439e-01
-3.273568749427795410e-01 3.178843855857849121e-01 -2.573521435260772705e-02
1.986512914299964905e-02 5.371642708778381348e-01 3.293090164661407471e-01
-8.454833924770355225e-02 5.841068625450134277e-01 -3.505590260028839111e-01
-2.141436487436294556e-01 5.762108564376831055e-01 -1.881703138351440430e-01
1.042989343404769897e-01 4.323072433471679688e-01 3.656027019023895264e-01
2.301433980464935303e-01 2.067844420671463013e-01 1.211901307106018066e-01
-1.958120614290237427e-03 6.767565011978149414e-01 7.814708352088928223e-02
-2.443993836641311646e-02 6.723498106002807617e-01 -1.992513984441757202e-01
-1.681643426418304443e-01 4.640861749649047852e-01 -3.887101709842681885e-01
2.213916331529617310e-01 4.652595520019531250e-01 2.477602213621139526e-01
-2.466173917055130005e-01 5.241183638572692871e-01 1.311651319265365601e-01
-1.450200527906417847e-01 5.423235893249511719e-01 2.632934749126434326e-01
1.366465985774993896e-01 1.854799091815948486e-01 2.574227154254913330e-01
-3.182108998298645020e-01 2.670664787292480469e-01 -5.880491808056831360e-03
-1.175080239772796631e-01 3.853130340576171875e-01 -4.429042935371398926e-01
3.027474284172058105e-01 4.300931692123413086e-01 6.624151766300201416e-02
1.917487531900405884e-01 4.519857466220855713e-01 -3.754824101924896240e-01
1.190761029720306396e-01 9.354707598686218262e-02 3.478487953543663025e-02
1.154132466763257980e-02 6.928645372390747070e-01 -5.156228691339492798e-02
-2.884145975112915039e-01 4.933217763900756836e-01 -1.139304935932159424e-01
1.603436768054962158e-01 6.565857529640197754e-01 -1.125242561101913452e-01
2.648978531360626221e-01 3.050229549407958984e-01 -2.278050035238265991e-01
-7.076119631528854370e-02 2.627363502979278564e-01 3.801492750644683838e-01
1.493292767554521561e-02 4.904936850070953369e-01 -4.497153460979461670e-01
2.868672311305999756e-01 4.670795202255249023e-01 1.049778759479522705e-01
8.169119246304035187e-03 5.696877837181091309e-02 -2.907641045749187469e-02
-2.539310157299041748e-01 4.887254238128662109e-01 1.697557270526885986e-01
-3.013804852962493896e-01 4.739679098129272461e-01 -3.237800672650337219e-03
7.887295447289943695e-03 6.370204687118530273e-02 8.212085068225860596e-02
-1.625010818243026733e-01 6.226608753204345703e-01 7.832221686840057373e-02
-1.611511707305908203e-01 6.293367147445678711e-01 -1.544053703546524048e-01
-1.586406379938125610e-01 5.534732937812805176e-01 -3.254836201667785645e-01
2.598478496074676514e-01 5.735307335853576660e-01 -5.726311728358268738e-02
9.829674661159515381e-02 1.587175428867340088e-01 2.580956816673278809e-01
-1.549257189035415649e-01 6.431859135627746582e-01 -3.397557139396667480e-02
-3.411107510328292847e-02 6.686332821846008301e-01 9.593696892261505127e-02
-7.707538455724716187e-02 1.839556545019149780e-01 3.272134661674499512e-01
2.172186598181724548e-02 4.730154275894165039e-01 3.737255036830902100e-01
-6.262970715761184692e-02 5.093606710433959961e-01 3.424334824085235596e-01
3.253372758626937866e-02 8.114305138587951660e-02 1.418757140636444092e-01
1.639494746923446655e-01 1.442278027534484863e-01 1.396558135747909546e-01
3.023480772972106934e-01 3.175711929798126221e-01 -1.247167587280273438e-03
-2.659785747528076172e-02 4.773959517478942871e-01 3.711388409137725830e-01
2.301172465085983276e-01 5.154264569282531738e-01 1.958112418651580811e-01
1.209497898817062378e-01 6.590068340301513672e-01 -1.937532424926757812e-01
-1.125258877873420715e-01 6.621036529541015625e-01 4.997521638870239258e-03
-1.377036273479461670e-01 4.765427708625793457e-01 3.284907042980194092e-01
1.741747930645942688e-02 6.857567429542541504e-01 3.512732312083244324e-02
-1.203905716538429260e-01 4.102497398853302002e-01 -4.393388330936431885e-01
3.369632735848426819e-02 1.074869036674499512e-01 2.131683379411697388e-01
6.674728542566299438e-02 9.026762843132019043e-02 -1.646950542926788330e-01
-2.710359543561935425e-02 6.015090942382812500e-01 -3.524231612682342529e-01
-1.972553431987762451e-01 1.440673172473907471e-01 -2.103437632322311401e-01
3.565710037946701050e-02 1.623560190200805664e-01 -3.357394337654113770e-01
1.974184066057205200e-02 9.347423911094665527e-02 1.871993839740753174e-01
2.420367673039436340e-02 2.748564779758453369e-01 -4.391251802444458008e-01
-8.761931210756301880e-02 8.973348140716552734e-02 -1.972807645797729492e-01
1.931406557559967041e-01 1.603156328201293945e-01 -1.499227136373519897e-01
-2.524960935115814209e-01 5.399925112724304199e-01 7.318258285522460938e-02
1.264282464981079102e-01 9.554731845855712891e-02 3.319479525089263916e-03
-2.527956292033195496e-02 2.156096249818801880e-01 3.597736060619354248e-01
1.072009205818176270e-01 6.275178194046020508e-01 -2.881235778331756592e-01
-6.366288661956787109e-02 1.346997469663619995e-01 2.728730738162994385e-01
-8.789057284593582153e-02 6.636529564857482910e-01 -1.668897271156311035e-01
9.374432265758514404e-02 6.233910322189331055e-01 1.964679956436157227e-01
7.272704690694808960e-02 6.810333728790283203e-01 3.590882942080497742e-02
1.161599308252334595e-01 6.665970087051391602e-01 -1.693397015333175659e-01
-1.515918970108032227e-01 1.445174366235733032e-01 2.401090711355209351e-01
1.681414842605590820e-01 4.455731213092803955e-01 3.171299695968627930e-01
4.679499939084053040e-02 1.296745538711547852e-01 -2.793394327163696289e-01
-1.617159843444824219e-01 1.327102333307266235e-01 -2.355010658502578735e-01
-2.988975048065185547e-01 2.702143192291259766e-01 1.278950423002243042e-01
-3.182620406150817871e-01 3.919112980365753174e-01 6.046159192919731140e-02
1.305057704448699951e-01 3.969008922576904297e-01 3.582374453544616699e-01
-1.652938872575759888e-01 5.953731536865234375e-01 1.528180539608001709e-01
8.735677599906921387e-02 9.781858325004577637e-02 1.379812806844711304e-01
-1.649937331676483154e-01 1.436735093593597412e-01 2.256269007921218872e-01
-1.360345073044300079e-02 4.502615332603454590e-01 3.854719698429107666e-01
-2.860643863677978516e-01 4.361779093742370605e-01 1.478071361780166626e-01
2.489616274833679199e-01 5.505332350730895996e-01 1.058538109064102173e-01
2.315301448106765747e-01 1.843215376138687134e-01 -7.579600065946578979e-02
-2.847188115119934082e-01 3.279489576816558838e-01 1.928828507661819458e-01
-2.001266181468963623e-01 1.583236306905746460e-01 -2.335735410451889038e-01
6.673405878245830536e-03 1.372703164815902710e-01 2.759458422660827637e-01
-1.488148868083953857e-01 5.554243922233581543e-01 2.430683225393295288e-01
1.834734082221984863e-01 6.428004503250122070e-01 -1.134465932846069336e-01
5.701152980327606201e-02 6.680486202239990234e-01 -2.181411087512969971e-01
2.004283666610717773e-01 2.278877347707748413e-01 -2.725445628166198730e-01
-1.749195605516433716e-01 4.686350524425506592e-01 3.034005463123321533e-01
-8.163698017597198486e-02 2.000099867582321167e-01 3.397893905639648438e-01
1.627457886934280396e-01 1.794754415750503540e-01 -2.572325468063354492e-01
-2.737570703029632568e-01 5.182142853736877441e-01 -1.222142875194549561e-01
-2.457170337438583374e-01 1.402029544115066528e-01 1.277866587042808533e-02
-2.521073818206787109e-01 4.104290902614593506e-01 2.392908185720443726e-01
2.167037129402160645e-01 2.769336700439453125e-01 2.417889982461929321e-01
1.156272068619728088e-01 9.380161762237548828e-02 5.381339415907859802e-02
-5.632700026035308838e-02 5.148443579673767090e-01 -4.270589649677276611e-01
3.004333078861236572e-01 4.909445345401763916e-01 -6.647069752216339111e-02
8.824410289525985718e-02 3.441990613937377930e-01 -4.473466575145721436e-01
2.716698050498962402e-01 5.350787043571472168e-01 5.777997896075248718e-02
1.109951362013816833e-01 2.016327679157257080e-01 -3.430564403533935547e-01
1.705926209688186646e-01 3.989175856113433838e-01 3.267086744308471680e-01
-8.303935825824737549e-02 1.570447534322738647e-01 -3.283883035182952881e-01
-2.891622781753540039e-01 3.617404103279113770e-01 1.809286773204803467e-01
2.147813439369201660e-01 4.094137549400329590e-01 2.765872776508331299e-01
-2.633056640625000000e-01 5.268011689186096191e-01 -1.501158028841018677e-01
-1.906248182058334351e-01 5.908061265945434570e-01 1.151919960975646973e-01
2.610152363777160645e-01 2.329679280519485474e-01 6.124943867325782776e-02
-1.079143732786178589e-01 2.713712751865386963e-01 -4.195744693279266357e-01
-1.741068661212921143e-01 3.084814250469207764e-01 -3.936804234981536865e-01
-2.158648967742919922e-01 5.256437063217163086e-01 -2.790369093418121338e-01
-8.728852123022079468e-02 2.578447461128234863e-01 3.735029697418212891e-01
2.000390589237213135e-01 1.478855460882186890e-01 -1.113833114504814148e-02
-2.801799774169921875e-01 4.690155982971191406e-01 1.262008398771286011e-01
-5.924127995967864990e-02 1.255959421396255493e-01 -2.869832515716552734e-01
-1.346222870051860809e-02 4.885564446449279785e-01 3.657417595386505127e-01
-1.852858662605285645e-01 6.221222877502441406e-01 -8.208902180194854736e-02
2.963562011718750000e-01 4.162680506706237793e-01 1.011593043804168701e-01
-2.409133315086364746e-01 1.701028645038604736e-01 1.495454758405685425e-01
-3.156942427158355713e-01 3.610702157020568848e-01 -1.493395864963531494e-01
-1.523299813270568848e-01 1.289758384227752686e-01 2.131222933530807495e-01
1.449763625860214233e-01 1.060499846935272217e-01 -7.727360352873802185e-03
-3.021260797977447510e-01 2.421582788228988647e-01 7.622914016246795654e-02
-1.480437964200973511e-01 1.160919070243835449e-01 -2.146831452846527100e-01
-9.064610302448272705e-02 4.637608230113983154e-01 3.618857562541961670e-01
2.523011267185211182e-01 5.815830826759338379e-01 -9.070702642202377319e-02
9.050779789686203003e-02 1.199715733528137207e-01 1.954492926597595215e-01
-8.744017034769058228e-02 4.259408712387084961e-01 3.797779083251953125e-01
4.577965661883354187e-02 4.963498115539550781e-01 -4.435162544250488281e-01
-3.267533183097839355e-01 3.798471987247467041e-01 -3.356902301311492920e-02
-2.269271165132522583e-01 2.516581118106842041e-01 2.656432092189788818e-01
-2.600008547306060791e-01 2.179475426673889160e-01 -2.161274701356887817e-01
-9.953389316797256470e-02 6.556719541549682617e-02 6.820203363895416260e-02
2.005510479211807251e-01 1.815808415412902832e-01 1.472794264554977417e-01
-2.925430536270141602e-01 2.089200764894485474e-01 4.316843673586845398e-02
1.685844659805297852e-01 2.367382943630218506e-01 -3.266460895538330078e-01
6.831124424934387207e-02 7.042744755744934082e-02 -1.972702145576477051e-02
3.029335290193557739e-02 6.144138574600219727e-01 -3.390662074089050293e-01
-2.692667022347450256e-02 1.045677959918975830e-01 2.244030982255935669e-01
1.149226725101470947e-01 2.666498422622680664e-01 -3.983823657035827637e-01
-2.272050529718399048e-01 5.416139960289001465e-01 -2.320260554552078247e-01
1.553900986909866333e-01 1.892558038234710693e-01 -2.830711305141448975e-01
3.065315186977386475e-01 4.683673977851867676e-01 -2.746574021875858307e-02
2.473203539848327637e-01 2.278082966804504395e-01 -1.615683585405349731e-01
6.775806099176406860e-02 2.068866491317749023e-01 -3.747632205486297607e-01
-2.137426435947418213e-01 1.442726552486419678e-01 1.547383069992065430e-01
-2.293396294116973877e-01 5.726536512374877930e-01 5.432822182774543762e-02
-2.837343886494636536e-02 2.351619005203247070e-01 3.721664547920227051e-01
1.710782758891582489e-03 4.903901517391204834e-01 3.650135397911071777e-01
1.380489915609359741e-01 6.698564291000366211e-01 -6.839060038328170776e-02
2.868976816534996033e-02 1.037704646587371826e-01 -2.338430881500244141e-01
-6.965946406126022339e-02 1.324030011892318726e-01 -2.959332168102264404e-01
1.737281531095504761e-01 6.405951976776123047e-01 -1.624314635992050171e-01
-9.261716902256011963e-02 9.658542275428771973e-02 1.913501471281051636e-01
1.299531906843185425e-01 2.079963088035583496e-01 2.896075546741485596e-01
-2.723306417465209961e-03 6.233907341957092285e-01 2.192049473524093628e-01
2.107930928468704224e-01 2.346851825714111328e-01 -2.637265622615814209e-01
-8.999548852443695068e-02 5.930826067924499512e-02 -3.713870048522949219e-02
-3.134002387523651123e-01 3.408295512199401855e-01 1.062242686748504639e-01
2.692164480686187744e-01 5.577822923660278320e-01 -8.520641922950744629e-02
-1.299192458391189575e-01 3.207115828990936279e-01 3.729328513145446777e-01
-2.180327922105789185e-01 4.533291757106781006e-01 2.651816308498382568e-01
-2.383870258927345276e-02 6.943687796592712402e-02 1.250324994325637817e-01
-2.584327161312103271e-01 5.372683405876159668e-01 5.516262724995613098e-02
-2.481229230761528015e-02 6.889421343803405762e-01 -9.008169174194335938e-02
-3.118255436420440674e-01 3.817095458507537842e-01 1.015657335519790649e-01
-1.891549676656723022e-02 4.313087761402130127e-01 -4.676083922386169434e-01
5.600267648696899414e-02 2.309927940368652344e-01 3.548441231250762939e-01
2.794519364833831787e-01 3.448459506034851074e-01 1.488820165395736694e-01
3.062376677989959717e-01 4.654581248760223389e-01 -7.695307955145835876e-03
4.827805981040000916e-02 8.535519242286682129e-02 1.426230370998382568e-01
1.276623755693435669e-01 6.228832006454467773e-01 1.713798642158508301e-01
-2.142446488142013550e-01 1.282223612070083618e-01 1.084897369146347046e-01
-1.941302269697189331e-01 1.742252111434936523e-01 -2.673891186714172363e-01
-2.592265009880065918e-01 2.915967404842376709e-01 -2.823665738105773926e-01
-4.340385273098945618e-02 5.244020819664001465e-01 -4.243842363357543945e-01
2.950606867671012878e-02 6.813292503356933594e-01 5.909043923020362854e-02
1.121797114610671997e-01 1.096680760383605957e-01 -1.674874424934387207e-01
1.693121939897537231e-01 3.048964440822601318e-01 -3.778868615627288818e-01
-1.136669740080833435e-01 6.637718677520751953e-01 -2.187156304717063904e-02
-6.112443655729293823e-02 5.465351939201354980e-01 3.098715543746948242e-01
-2.319191843271255493e-01 2.689470648765563965e-01 2.681606113910675049e-01
5.627463757991790771e-02 3.953059613704681396e-01 3.927246630191802979e-01
-2.033216506242752075e-02 7.364466786384582520e-02 -1.611274480819702148e-01
-2.163399904966354370e-01 3.254409134387969971e-01 3.031744658946990967e-01
2.960228323936462402e-01 3.043372035026550293e-01 3.069708868861198425e-02
-1.108562201261520386e-01 6.377822160720825195e-02 2.060554176568984985e-02
-8.965235203504562378e-02 2.301500886678695679e-01 -4.007160365581512451e-01
-2.401268631219863892e-01 1.345375627279281616e-01 -3.399772569537162781e-02
8.101608604192733765e-02 2.721119523048400879e-01 3.667361438274383545e-01
2.301346659660339355e-01 2.126364111900329590e-01 -1.827924251556396484e-01
1.783100813627243042e-01 2.344922274351119995e-01 2.619808316230773926e-01
-5.294669046998023987e-02 7.811957597732543945e-02 -1.754166930913925171e-01
1.600208431482315063e-01 3.144901990890502930e-01 3.289410471916198730e-01
2.387087792158126831e-01 4.577524960041046143e-01 -3.114542067050933838e-01
-1.728531867265701294e-01 3.540447354316711426e-01 3.456098735332489014e-01
2.618940770626068115e-01 2.417084574699401855e-01 -1.365347504615783691e-01
1.127885729074478149e-01 3.630433380603790283e-01 3.709819614887237549e-01
3.218192234635353088e-02 4.646941125392913818e-01 -4.582938253879547119e-01
-2.997563779354095459e-01 3.538838624954223633e-01 -2.088684439659118652e-01
1.401019841432571411e-01 3.767465353012084961e-01 -4.245957732200622559e-01
-2.257805764675140381e-01 1.238305270671844482e-01 3.754491731524467468e-02
4.378771036863327026e-02 1.380873471498489380e-01 -2.957366704940795898e-01
2.377330362796783447e-01 3.335986733436584473e-01 -3.045709133148193359e-01
-3.017220497131347656e-01 2.896911501884460449e-01 -1.786222606897354126e-01
2.131298184394836426e-01 5.601291656494140625e-01 -2.707500755786895752e-01
3.389457613229751587e-02 4.329588413238525391e-01 -4.658484756946563721e-01
-2.627433240413665771e-01 2.132693529129028320e-01 1.681103855371475220e-01
2.053879201412200928e-01 4.873501360416412354e-01 -3.459481298923492432e-01
-1.862710565328598022e-01 9.779113531112670898e-02 -7.447944581508636475e-02
3.714667633175849915e-02 2.417223751544952393e-01 -4.154481589794158936e-01
-1.587251275777816772e-01 2.535669505596160889e-01 -3.791382312774658203e-01
-1.965829432010650635e-01 2.213348448276519775e-01 -3.195063471794128418e-01
-2.003486007452011108e-01 6.088519692420959473e-01 -3.511309623718261719e-04
1.595674455165863037e-01 3.183264136314392090e-01 -3.933576345443725586e-01
-2.470118701457977295e-01 3.573542833328247070e-01 -3.201923668384552002e-01
2.858145534992218018e-01 3.414076864719390869e-01 1.268613636493682861e-01
-2.140121757984161377e-01 3.734424412250518799e-01 3.038094639778137207e-01
1.332683861255645752e-01 2.723152041435241699e-01 -3.893100321292877197e-01
7.085837423801422119e-02 6.839233040809631348e-01 1.850116625428199768e-02
-2.826785445213317871e-01 4.985761344432830811e-01 -1.337636113166809082e-01
-3.030154407024383545e-01 2.285013347864151001e-01 3.024329617619514465e-02
-3.048064112663269043e-01 3.408467769622802734e-01 1.383767575025558472e-01
-2.364232838153839111e-01 5.609610080718994141e-01 6.929530203342437744e-02
-1.350196264684200287e-02 5.642965435981750488e-02 -5.734326690435409546e-02
2.001536041498184204e-01 4.793832898139953613e-01 2.674424350261688232e-01
-8.978592604398727417e-02 6.652884483337402344e-01 4.554888978600502014e-02
2.998265922069549561e-01 3.657563626766204834e-01 8.370387554168701172e-02
-2.394104599952697754e-01 5.260869264602661133e-01 -2.296137511730194092e-01
1.175614297389984131e-01 1.373109966516494751e-01 2.013544291257858276e-01
-2.770113945007324219e-01 2.332692295312881470e-01 1.565907001495361328e-01
1.185054481029510498e-01 4.944515824317932129e-01 3.289857506752014160e-01
-2.782911807298660278e-02 1.793377250432968140e-01 3.297416269779205322e-01
-2.503211200237274170e-01 2.643402814865112305e-01 -2.810329496860504150e-01
2.726495563983917236e-01 2.591477334499359131e-01 7.251721620559692383e-02
-1.552430242300033569e-01 1.540436744689941406e-01 -2.796112596988677979e-01
1.016605272889137268e-01 6.063691973686218262e-01 2.214506417512893677e-01
5.804754048585891724e-02 6.628966331481933594e-01 1.208322495222091675e-01
-2.226381748914718628e-01 1.238567531108856201e-01 -7.960943132638931274e-02
-3.227725625038146973e-01 3.683332800865173340e-01 -1.057765930891036987e-01
1.617942601442337036e-01 4.952099919319152832e-01 -3.870337307453155518e-01
1.545078903436660767e-01 1.192684471607208252e-01 -1.018409132957458496e-01
2.407003790140151978e-01 4.925930202007293701e-01 -2.899836897850036621e-01
-5.021578073501586914e-02 3.680923283100128174e-01 4.015765190124511719e-01
2.710001170635223389e-01 2.774663567543029785e-01 1.147756278514862061e-01
-1.567968279123306274e-01 3.466373383998870850e-01 3.578657507896423340e-01
-3.582305833697319031e-02 4.273990690708160400e-01 -4.662218391895294189e-01
-1.284256726503372192e-01 5.444518327713012695e-01 -3.644088506698608398e-01
2.650801837444305420e-01 2.982100248336791992e-01 1.576959788799285889e-01
-1.800423860549926758e-01 4.814717471599578857e-01 -3.673763573169708252e-01
1.005625650286674500e-01 9.936079382896423340e-02 1.219292581081390381e-01
6.230516731739044189e-02 4.836818575859069824e-01 3.599340021610260010e-01
-3.183668553829193115e-01 4.175734519958496094e-01 1.757600903511047363e-02
6.873229891061782837e-02 1.721748858690261841e-01 -3.342373073101043701e-01
4.327552020549774170e-02 1.084455251693725586e-01 -2.370340228080749512e-01
-2.604134976863861084e-01 4.557518064975738525e-01 1.923719197511672974e-01
3.732670843601226807e-02 7.346114516258239746e-02 1.056307703256607056e-01
3.900111094117164612e-02 1.863427311182022095e-01 -3.642297685146331787e-01
2.098756879568099976e-01 6.268960237503051758e-01 -5.823819339275360107e-02
2.234352678060531616e-01 4.551514089107513428e-01 -3.356604278087615967e-01
1.859057843685150146e-01 6.104408502578735352e-01 -2.292830497026443481e-01
1.557330042123794556e-01 4.555522799491882324e-01 3.236829340457916260e-01
-3.086187541484832764e-01 2.717540264129638672e-01 -1.320395916700363159e-01
2.150342464447021484e-01 6.186417341232299805e-01 2.865575253963470459e-03
1.796285063028335571e-01 2.212858200073242188e-01 2.467732280492782593e-01
-2.195482105016708374e-01 5.913704633712768555e-01 -9.716019034385681152e-02
8.478584699332714081e-03 6.859806180000305176e-01 -1.476334780454635620e-01
1.520513147115707397e-01 5.408521890640258789e-01 -3.645667433738708496e-01
2.739574611186981201e-01 2.689203023910522461e-01 -1.463364362716674805e-01
1.083564311265945435e-01 2.048122435808181763e-01 3.046140372753143311e-01
-2.962252199649810791e-01 4.830404818058013916e-01 -8.739954233169555664e-02
8.752290159463882446e-02 2.056021988391876221e-01 3.196059763431549072e-01
-4.751576483249664307e-02 5.516219139099121094e-02 2.886056900024414062e-02
-1.103025153279304504e-01 7.072195410728454590e-02 -1.023890972137451172e-01
-6.103824079036712646e-02 4.235074520111083984e-01 -4.614767432212829590e-01
1.004442572593688965e-01 6.766400933265686035e-01 -1.406314224004745483e-01
-3.935366123914718628e-02 6.223131418228149414e-01 -3.166339397430419922e-01
-2.029418796300888062e-01 2.404482662677764893e-01 -3.287963569164276123e-01
1.920852214097976685e-01 6.111796498298645020e-01 1.067647784948348999e-01
-8.581348508596420288e-02 3.272694647312164307e-01 -4.497765004634857178e-01
1.366601586341857910e-01 1.364310979843139648e-01 1.719773411750793457e-01
2.122457772493362427e-01 1.699383258819580078e-01 -1.150321364402770996e-01
1.735562235116958618e-01 4.169614911079406738e-01 -3.991939425468444824e-01
-1.357602179050445557e-01 8.056247234344482422e-02 -1.136106550693511963e-01
2.422922402620315552e-01 1.943577080965042114e-01 -9.255200624465942383e-03
