4.013878293335437775e-03 3.532459139823913574e-01 1.380547974258661270e-02
8.019055426120758057e-02 3.793943822383880615e-01 8.127633482217788696e-04
-1.442537605762481689e-01 7.324606776237487793e-01 -3.113013459369540215e-03
1.152456179261207581e-02 -3.974180221557617188e-01 -1.388344913721084595e-02
-2.318339888006448746e-03 4.161640405654907227e-01 1.298651099205017090e-02
-1.226135343313217163e-01 6.719427108764648438e-01 -7.833926938474178314e-03
1.210029944777488708e-01 1.026620343327522278e-01 5.478681065142154694e-03
-8.139450103044509888e-02 6.950314044952392578e-01 8.449057117104530334e-03
-4.289879277348518372e-02 1.121555492281913757e-01 -1.588192209601402283e-02
1.390579938888549805e-01 -1.227771043777465820e-01 7.730423938482999802e-03
-8.130627125501632690e-02 1.015970781445503235e-01 1.475775707513093948e-02
1.199718937277793884e-02 -2.467381656169891357e-01 -1.553097367286682129e-02
1.290163993835449219e-01 -1.590515375137329102e-01 -9.775741957128047943e-03
-7.706232368946075439e-02 1.704016327857971191e-01 -1.474601123481988907e-02
8.187483251094818115e-02 -4.559217691421508789e-01 1.363585982471704483e-02
1.229464486241340637e-01 -2.505593001842498779e-02 8.924947120249271393e-03
1.017007976770401001e-01 -6.102155447006225586e-01 -1.039828918874263763e-02
-1.045031845569610596e-01 -1.523143947124481201e-01 9.446314536035060883e-03
-1.217926852405071259e-02 -2.477932870388031006e-01 1.546071004122495651e-02
-1.239962279796600342e-01 7.165686488151550293e-01 -6.326705217361450195e-03
-1.329334080219268799e-01 -1.190438419580459595e-01 -2.111820736899971962e-03
-2.485719695687294006e-02 1.894770860671997070e-01 1.615164987742900848e-02
-1.154885217547416687e-01 7.063000798225402832e-01 7.376897614449262619e-03
8.902459591627120972e-02 -6.688731312751770020e-01 -9.502426721155643463e-03
-2.765714656561613083e-03 -6.695657968521118164e-01 -4.186570178717374802e-03
-8.751729875802993774e-02 -3.468222916126251221e-01 -5.073963664472103119e-03
-5.462281778454780579e-02 -2.342541217803955078e-01 1.343432441353797913e-02
-1.320342272520065308e-01 4.240256845951080322e-01 -1.065236050635576248e-02
-9.824775904417037964e-02 1.460774540901184082e-01 -1.343847811222076416e-02
-6.392483599483966827e-03 -4.900940656661987305e-01 1.183530408889055252e-02
3.412138670682907104e-03 -1.497249305248260498e-01 -1.603154279291629791e-02
-3.618077933788299561e-02 -1.069674734026193619e-02 1.625505089759826660e-02
-1.726325228810310364e-02 2.744146287441253662e-01 -1.521081849932670593e-02
-5.773753672838211060e-02 7.633124589920043945e-01 3.707748139277100563e-03
8.735104650259017944e-02 -7.083727717399597168e-01 8.967889472842216492e-03
-1.242161914706230164e-01 5.606033205986022949e-01 1.020034588873386383e-02
1.822002232074737549e-02 -3.442287445068359375e-01 -1.471489202231168747e-02
-3.582295775413513184e-02 -4.580354690551757812e-02 -1.573992148041725159e-02
-8.045922033488750458e-03 3.908459246158599854e-01 -1.351381838321685791e-02
1.465935111045837402e-01 -5.462965965270996094e-01 -7.703236769884824753e-03
-3.006551787257194519e-02 4.442672803997993469e-02 -1.611847616732120514e-02
-1.715534250251948833e-03 6.150766015052795410e-01 -6.559361238032579422e-03
-9.815404564142227173e-02 1.693084836006164551e-03 -1.237917970865964890e-02
-2.040175907313823700e-02 6.190441250801086426e-01 8.522585965692996979e-03
3.155219182372093201e-02 -9.225030988454818726e-02 -1.602746918797492981e-02
-1.192717254161834717e-01 4.876354336738586426e-01 1.144750975072383881e-02
-6.452523916959762573e-02 7.524202466011047363e-01 -5.122086498886346817e-03
-1.434109658002853394e-01 1.955733001232147217e-01 -8.783874101936817169e-03
1.028329581022262573e-01 1.368025541305541992e-01 8.590015582740306854e-03
-3.035137057304382324e-02 6.133856773376464844e-01 9.456294588744640350e-03
1.519315540790557861e-01 -4.606410264968872070e-01 7.926604710519313812e-03
3.121723793447017670e-02 -4.124395549297332764e-01 1.457177381962537766e-02
1.492553949356079102e-01 -5.785952210426330566e-01 -6.904406473040580750e-03
-1.479668915271759033e-01 1.007909178733825684e-01 6.796616595238447189e-03
4.497967194765806198e-03 1.593665182590484619e-01 -1.572767831385135651e-02
-6.661006063222885132e-02 3.922022879123687744e-01 -1.412048656493425369e-02
-1.306028664112091064e-01 7.116669416427612305e-01 -5.966427270323038101e-03
-1.017541438341140747e-01 -2.496567666530609131e-01 6.774969864636659622e-03
-1.134168170392513275e-02 -6.704177856445312500e-01 1.589874038472771645e-03
3.858719021081924438e-02 -2.922452799975872040e-02 1.607552170753479004e-02
-1.436456590890884399e-01 1.203219965100288391e-01 -7.717622909694910049e-03
1.390162557363510132e-01 -4.462313950061798096e-01 -9.423260577023029327e-03
-2.032127231359481812e-02 4.489791095256805420e-01 1.313326321542263031e-02
7.052840292453765869e-02 -5.327198505401611328e-01 1.294196676462888718e-02
1.245532855391502380e-01 -1.102055832743644714e-01 1.009896118193864822e-02
-1.743090152740478516e-01 4.356363713741302490e-01 3.172812750563025475e-03
2.705653384327888489e-02 -1.417734324932098389e-01 -1.603981852531433105e-02
9.450691938400268555e-02 2.932635694742202759e-02 1.196527387946844101e-02
4.604129865765571594e-02 -7.015689015388488770e-01 8.446061052381992340e-03
-6.295873224735260010e-02 6.941886544227600098e-01 -7.985253818333148956e-03
-2.242149552330374718e-03 3.416418731212615967e-01 1.424822770059108734e-02
-6.450920552015304565e-02 3.839553296566009521e-01 1.447800453752279282e-02
5.303646624088287354e-02 -8.423142880201339722e-02 1.573948003351688385e-02
1.021927744150161743e-01 -9.563263505697250366e-02 1.261773705482482910e-02
3.691805526614189148e-02 1.654963493347167969e-01 -1.451534405350685120e-02
-9.899498522281646729e-02 4.330707788467407227e-01 -1.279715355485677719e-02
-3.213334828615188599e-02 3.893250226974487305e-01 -1.416890788823366165e-02
-9.371319785714149475e-03 4.961525499820709229e-01 1.160826906561851501e-02
-1.702734827995300293e-02 1.388093829154968262e-01 -1.607720740139484406e-02
2.586370334029197693e-02 -5.534451603889465332e-01 1.201413292437791824e-02
-1.069489642977714539e-01 -2.547640502452850342e-01 4.964050371199846268e-03
-6.837254017591476440e-02 6.108040809631347656e-01 1.080869231373071671e-02
7.328788936138153076e-02 -2.313319444656372070e-01 1.506936829537153244e-02
-5.470468848943710327e-02 -2.834530472755432129e-01 -1.205984037369489670e-02
-2.331648766994476318e-02 6.928701996803283691e-01 -4.784490447491407394e-03
-9.024216979742050171e-02 7.779429554939270020e-01 -4.412361420691013336e-03
5.105406045913696289e-02 -3.638888001441955566e-01 1.507735997438430786e-02
1.260015666484832764e-01 -2.842539548873901367e-01 1.132387854158878326e-02
5.124126374721527100e-02 4.437997639179229736e-01 -6.486419588327407837e-03
2.361787110567092896e-02 -5.005683302879333496e-01 1.304197032004594803e-02
1.187562495470046997e-01 -4.733030498027801514e-02 -9.786257520318031311e-03
-7.825148850679397583e-02 -1.925999224185943604e-01 -1.151677593588829041e-02
1.173911094665527344e-01 -4.976425766944885254e-01 1.149547193199396133e-02
-1.062036305665969849e-02 -5.579885840415954590e-01 9.498727507889270782e-03
8.168175071477890015e-02 1.931696832180023193e-01 -1.025458984076976776e-02
1.323858201503753662e-01 -5.424076318740844727e-01 -9.379001334309577942e-03
4.482382535934448242e-02 -5.050082802772521973e-01 1.339673530310392380e-02
1.260667443275451660e-01 1.130843237042427063e-01 -2.293800469487905502e-03
2.606619894504547119e-02 -4.339047893881797791e-02 -1.609831117093563080e-02
-1.107056960463523865e-01 -2.516540288925170898e-01 -3.008469706401228905e-03
3.044752590358257294e-02 -5.448988676071166992e-01 -1.181963365525007248e-02
1.577816605567932129e-01 -3.845867216587066650e-01 -6.471064873039722443e-03
-1.064868061803281307e-03 5.693041682243347168e-01 -8.585904724895954132e-03
1.492842733860015869e-01 -4.942553043365478516e-01 -7.784880232065916061e-03
1.446790993213653564e-01 -1.937958598136901855e-01 -7.495305500924587250e-03
-7.266539335250854492e-02 3.155995011329650879e-01 1.484468299895524979e-02
7.185309380292892456e-02 4.156674444675445557e-01 -1.263479818589985371e-03
1.017209067940711975e-01 -3.447791934013366699e-01 1.338905096054077148e-02
1.226356700062751770e-01 -4.332415163516998291e-01 -1.113060023635625839e-02
-6.081014126539230347e-02 1.065558344125747681e-01 -1.535653788596391678e-02
2.625042013823986053e-02 -4.252590537071228027e-01 -1.383428741246461868e-02
-7.708840072154998779e-03 1.482941508293151855e-01 -1.598104834556579590e-02
-5.250349268317222595e-02 5.490357875823974609e-01 -1.184482220560312271e-02
-4.476138949394226074e-02 -2.488262951374053955e-01 1.390874199569225311e-02
2.000701054930686951e-02 5.896902084350585938e-01 -3.998252097517251968e-03
1.659010909497737885e-02 -7.205312848091125488e-01 -3.730360651388764381e-03
-1.046299934387207031e-01 3.620665371417999268e-01 1.327592041343450546e-02
1.069316938519477844e-01 -1.621104776859283447e-01 -1.236985437572002411e-02
1.187757328152656555e-01 -7.723119854927062988e-02 -1.022577378898859024e-02
9.871510416269302368e-02 -4.797045290470123291e-01 1.275564171373844147e-02
9.666272997856140137e-02 -3.045335710048675537e-01 -1.341367885470390320e-02
7.639840990304946899e-02 -5.872942805290222168e-01 1.196463312953710556e-02
-1.272810846567153931e-01 7.312590479850769043e-01 -5.473818164318799973e-03
-1.160913929343223572e-01 -6.441113352775573730e-02 9.595735929906368256e-03
-1.401852816343307495e-02 -3.135649263858795166e-01 -1.415132544934749603e-02
-3.049287572503089905e-02 -3.160731196403503418e-01 -1.326646655797958374e-02
1.207766830921173096e-01 -1.446683108806610107e-01 -1.074261497706174850e-02
-1.741826832294464111e-01 4.845276772975921631e-01 -2.634126460179686546e-03
-4.651181399822235107e-02 6.362112760543823242e-01 9.538661688566207886e-03
-9.648824483156204224e-02 6.723647117614746094e-01 -8.903816342353820801e-03
-1.245558336377143860e-01 5.868676304817199707e-01 9.753751568496227264e-03
-6.624555587768554688e-02 2.072734534740447998e-01 -1.514886040240526199e-02
-1.260558366775512695e-01 2.093566358089447021e-01 1.161530148237943649e-02
-8.179220557212829590e-02 3.368960618972778320e-01 -1.415120903402566910e-02
-8.288051933050155640e-02 9.346310049295425415e-02 -1.424474176019430161e-02
1.461908817291259766e-01 -4.281935393810272217e-01 -8.542992174625396729e-03
-5.282941274344921112e-04 -4.269204139709472656e-01 -1.295139826834201813e-02
-5.259278789162635803e-02 -1.140424385666847229e-01 -1.456393860280513763e-02
-2.713545411825180054e-02 -3.208841681480407715e-01 1.389582175761461258e-02
5.719989910721778870e-02 2.009714394807815552e-02 1.501567382365465164e-02
-1.684948056936264038e-01 2.606058418750762939e-01 -3.291767323389649391e-03
4.366389662027359009e-02 -4.690161347389221191e-01 1.393304206430912018e-02
9.374590218067169189e-02 7.836432754993438721e-02 -1.105467788875102997e-02
-1.224969774484634399e-01 7.158442735671997070e-01 6.628027185797691345e-03
-1.540210247039794922e-01 6.711538434028625488e-01 4.390446934849023819e-03
7.140047103166580200e-02 -2.504816055297851562e-01 1.512398477643728256e-02
1.058447435498237610e-01 2.187966108322143555e-01 -4.190441220998764038e-03
-1.531058102846145630e-01 4.632452726364135742e-01 -7.952547632157802582e-03
1.029735878109931946e-01 -2.767604291439056396e-01 1.337703410536050797e-02
6.116785854101181030e-02 3.660752773284912109e-01 8.231588639318943024e-03
-5.134744197130203247e-02 2.033565342426300049e-01 1.585911773145198822e-02
9.877821430563926697e-03 -5.454460382461547852e-01 -1.088591478765010834e-02
-3.399327769875526428e-02 6.540102362632751465e-01 -8.060970343649387360e-03
-7.564055919647216797e-02 -1.813798844814300537e-01 -1.198513153940439224e-02
-5.923753231763839722e-02 2.950713634490966797e-01 1.526888273656368256e-02
1.075696200132369995e-02 -4.923383295536041260e-01 1.272303611040115356e-02
-7.190617173910140991e-02 -4.198319315910339355e-01 5.647676531225442886e-03
-1.242027357220649719e-01 3.193988800048828125e-01 -1.166269928216934204e-02
1.534118950366973877e-01 -7.188486456871032715e-01 -1.529903151094913483e-03
-3.991108760237693787e-02 -1.061447784304618835e-01 1.566267013549804688e-02
-7.900628447532653809e-02 -1.170408651232719421e-01 -1.266977097839117050e-02
3.969677910208702087e-02 -2.879866361618041992e-01 1.572453416883945465e-02
1.097175665199756622e-02 1.558137834072113037e-01 -1.559993810951709747e-02
-2.785096131265163422e-02 3.196259737014770508e-01 1.514984946697950363e-02
-1.661570742726325989e-02 3.512120842933654785e-01 1.456832978874444962e-02
-1.265208870172500610e-01 -7.720638066530227661e-02 7.211324293166399002e-03
1.070049852132797241e-01 -8.858195692300796509e-02 1.205809228122234344e-02
5.559749901294708252e-03 2.773024141788482666e-01 1.482829358428716660e-02
6.274387240409851074e-02 1.210709735751152039e-01 -1.340526994317770004e-02
-1.231878176331520081e-01 5.962526202201843262e-01 -9.459320455789566040e-03
-1.592454910278320312e-01 5.642933249473571777e-01 6.154369097203016281e-03
4.811229556798934937e-02 3.469983637332916260e-01 -1.048764027655124664e-02
-2.544084936380386353e-02 -3.847666084766387939e-01 -1.234110444784164429e-02
-4.893122985959053040e-02 7.242404222488403320e-01 5.814419593662023544e-03
6.531970947980880737e-02 -6.595484018325805664e-01 1.037359051406383514e-02
-5.324651300907135010e-02 2.542454600334167480e-01 -1.531291101127862930e-02
1.432449966669082642e-01 -3.512558341026306152e-02 3.645984921604394913e-03
3.857612609863281250e-02 3.164618313312530518e-01 -1.211308594793081284e-02
-1.198171749711036682e-01 6.001220941543579102e-01 9.819340892136096954e-03
-5.892126634716987610e-02 5.078549385070800781e-01 1.286648493260145187e-02
5.936385691165924072e-02 1.483984589576721191e-01 -1.330196671187877655e-02
1.473942101001739502e-01 -6.025087237358093262e-01 7.245279848575592041e-03
1.834257878363132477e-02 -3.208920359611511230e-01 -1.496260147541761398e-02
7.840977609157562256e-02 -6.301904320716857910e-01 -1.055754162371158600e-02
-1.168337687849998474e-01 1.633901298046112061e-01 1.233128830790519714e-02
-1.521215587854385376e-02 4.989359676837921143e-01 1.186145376414060593e-02
-1.319760829210281372e-02 -3.778420686721801758e-01 -1.320249121636152267e-02
-1.300676017999649048e-01 -1.199156939983367920e-01 4.215494729578495026e-03
-1.609380394220352173e-01 6.767531037330627441e-01 1.917950343340635300e-03
9.793298691511154175e-02 -4.128606021404266357e-01 1.331039238721132278e-02
-1.426456682384014130e-02 9.871643781661987305e-02 1.651926152408123016e-02
5.927021801471710205e-02 -1.954859197139739990e-01 1.563157886266708374e-02
3.349079936742782593e-02 4.701468646526336670e-01 8.420188911259174347e-03
-7.069478183984756470e-02 5.049516558647155762e-01 -1.269595418125391006e-02
-7.423839718103408813e-02 3.642525672912597656e-01 1.446725614368915558e-02
-5.266158655285835266e-02 -1.403110325336456299e-01 1.475732680410146713e-02
1.082149744033813477e-01 2.344461381435394287e-01 6.845312891528010368e-04
2.850865386426448822e-02 4.369853436946868896e-01 1.018214784562587738e-02
-9.939046576619148254e-03 6.275262832641601562e-01 7.071854546666145325e-03
6.972245126962661743e-02 5.553273111581802368e-02 1.388922426849603653e-02
-6.728283315896987915e-02 -2.569692134857177734e-01 1.191413309425115585e-02
-1.106137409806251526e-01 -1.691781282424926758e-01 -7.283195853233337402e-03
-4.313658550381660461e-02 -2.500528097152709961e-01 -1.350069977343082428e-02
-1.645852439105510712e-02 2.978117763996124268e-01 -1.497025322169065475e-02
-4.628700017929077148e-02 -2.114976048469543457e-01 1.432081405073404312e-02
-1.014537289738655090e-01 5.085568428039550781e-01 1.213550195097923279e-02
1.502614468336105347e-01 -1.745195686817169189e-01 6.045807152986526489e-03
5.663354694843292236e-02 -1.055335700511932373e-01 1.565346494317054749e-02
1.106227375566959381e-02 3.739825785160064697e-01 -1.290102582424879074e-02
8.037104457616806030e-02 -5.777477622032165527e-01 1.207302790135145187e-02
-1.811272464692592621e-02 -8.923368155956268311e-02 1.639331132173538208e-02
-1.357643306255340576e-01 6.400926709175109863e-01 7.795184385031461716e-03
-1.474627256393432617e-01 3.014447987079620361e-01 -8.903854526579380035e-03
1.059743389487266541e-01 7.275110483169555664e-02 9.679938666522502899e-03
-8.461380004882812500e-02 1.360520720481872559e-01 1.466919854283332825e-02
5.840374156832695007e-02 -4.121874868869781494e-01 1.456123590469360352e-02
1.015182957053184509e-02 -1.256019771099090576e-01 -1.615929231047630310e-02
8.979932963848114014e-02 -4.746007323265075684e-01 -1.273301802575588226e-02
1.569862663745880127e-02 -1.719332039356231689e-01 1.639424078166484833e-02
7.721327245235443115e-02 -7.215423583984375000e-01 8.567861281335353851e-03
1.329092681407928467e-01 4.146704450249671936e-03 -5.653055384755134583e-03
-4.219793155789375305e-02 7.366197705268859863e-01 -4.051578696817159653e-03
-5.990128219127655029e-02 -3.070718646049499512e-01 -1.106236781924962997e-02
-3.639231249690055847e-02 -3.993630111217498779e-01 -1.115825306624174118e-02
5.133162438869476318e-02 -5.650494694709777832e-01 -1.186503749340772629e-02
-8.477050065994262695e-02 6.594628095626831055e-02 -1.398527808487415314e-02
-1.057807430624961853e-01 2.894309461116790771e-01 1.345017459243535995e-02
4.325847327709197998e-02 2.885947525501251221e-01 -1.228101551532745361e-02
-1.361691802740097046e-01 4.065929651260375977e-01 -1.032319571822881699e-02
1.438143104314804077e-01 -5.163132026791572571e-02 -4.027757328003644943e-03
1.020852848887443542e-01 1.151447370648384094e-01 9.304384700953960419e-03
-5.018339306116104126e-02 5.811082124710083008e-01 1.122838538140058517e-02
2.114428393542766571e-02 -2.213739454746246338e-01 1.617158949375152588e-02
1.005019396543502808e-01 -4.368095844984054565e-02 1.226401887834072113e-02
-1.581853777170181274e-01 2.218438982963562012e-01 -6.076409947127103806e-03
3.180251270532608032e-02 1.337929964065551758e-01 1.531728357076644897e-02
-5.550280585885047913e-02 3.204826414585113525e-01 1.514399796724319458e-02
3.940530121326446533e-02 4.944563210010528564e-01 -6.170201115310192108e-03
-1.230738610029220581e-01 9.254363179206848145e-02 -1.062456239014863968e-02
7.276596128940582275e-02 -5.003218650817871094e-01 1.335953362286090851e-02
-1.022468283772468567e-01 6.332866549491882324e-01 9.922946803271770477e-03
3.966733813285827637e-02 4.451694190502166748e-01 -8.412198163568973541e-03
8.385197073221206665e-02 -1.957546770572662354e-01 1.452044397592544556e-02
-1.172336712479591370e-01 3.405730128288269043e-01 -1.221093814820051193e-02
-2.337717637419700623e-02 -3.262560367584228516e-01 1.401942688971757889e-02
-1.001178547739982605e-01 7.156106829643249512e-01 7.588474545627832413e-03
-3.396677970886230469e-02 5.186333656311035156e-01 -1.204098574817180634e-02
-1.408055275678634644e-01 2.995290458202362061e-01 -9.837214834988117218e-03
-9.019425511360168457e-02 -1.469391882419586182e-01 1.154114585369825363e-02
-9.159176796674728394e-02 4.335535168647766113e-01 1.334789022803306580e-02
8.462519198656082153e-02 2.001375257968902588e-01 -9.674518369138240814e-03
1.483235955238342285e-01 -6.695033311843872070e-01 5.627943202853202820e-03
4.777118936181068420e-02 3.280218839645385742e-01 1.116070430725812912e-02
-2.997661940753459930e-04 6.683316826820373535e-01 -3.640937793534249067e-04
1.540528982877731323e-01 -2.388172149658203125e-01 6.262937095016241074e-03
3.812864422798156738e-02 -2.554863393306732178e-01 1.591797359287738800e-02
-1.304115504026412964e-01 2.857889235019683838e-01 -1.103083230555057526e-02
-1.031320095062255859e-01 -2.434414327144622803e-01 -6.146450992673635483e-03
-1.069490090012550354e-01 6.659059524536132812e-01 -8.781927637755870819e-03
3.288851305842399597e-02 -6.483564376831054688e-01 9.704201482236385345e-03
2.632972784340381622e-02 -3.521057069301605225e-01 1.520292554050683975e-02
-1.205905340611934662e-02 -4.807942807674407959e-01 1.167272310703992844e-02
-4.475161898881196976e-03 2.331976592540740967e-01 1.559708453714847565e-02
1.340380311012268066e-01 -3.914895653724670410e-01 -1.016693282872438431e-02
-4.420182481408119202e-02 -4.201877713203430176e-01 -9.805969893932342529e-03
-6.872836500406265259e-02 -2.631117701530456543e-01 -1.110682543367147446e-02
-6.759958714246749878e-02 3.489410877227783203e-01 -1.446733810007572174e-02
3.739247843623161316e-02 1.507087647914886475e-01 -1.464659720659255981e-02
-6.334009021520614624e-02 4.954433143138885498e-01 -1.287990342825651169e-02
-1.844036858528852463e-03 2.170671895146369934e-02 1.665899530053138733e-02
-8.227989077568054199e-02 4.033992290496826172e-01 1.392487622797489166e-02
-9.224458038806915283e-02 1.613671779632568359e-01 -1.389996148645877838e-02
1.536752283573150635e-01 -1.357843875885009766e-01 -3.284976352006196976e-03
-1.693899370729923248e-02 1.524945199489593506e-01 1.631762459874153137e-02
2.590590156614780426e-02 -2.967219948768615723e-01 -1.525275222957134247e-02
3.701143711805343628e-02 -6.917634606361389160e-01 8.328204043209552765e-03
-5.834372714161872864e-02 5.350908637046813965e-01 -1.218994706869125366e-02
1.214007735252380371e-01 -3.559440374374389648e-01 -1.149755250662565231e-02
3.568966686725616455e-02 3.801530897617340088e-01 1.105540338903665543e-02
-8.749896287918090820e-02 1.627905666828155518e-01 1.455872599035501480e-02
-6.311843544244766235e-02 3.554173111915588379e-01 -1.449943333864212036e-02
1.363832801580429077e-01 -2.596058547496795654e-01 9.893729351460933685e-03
1.609283983707427979e-01 -4.500469863414764404e-01 -5.803027190268039703e-03
-1.988864503800868988e-02 -2.051154971122741699e-01 -1.515868306159973145e-02
4.726448655128479004e-02 -3.222311437129974365e-01 1.543024182319641113e-02
-7.624388486146926880e-02 2.207477092742919922e-01 -1.476256456226110458e-02
-1.358208060264587402e-01 7.194457650184631348e-01 5.294251721352338791e-03
1.602192968130111694e-01 -5.593353509902954102e-01 5.542759783565998077e-03
-1.760382056236267090e-01 4.652373790740966797e-01 -1.631007064133882523e-03
1.080780103802680969e-02 4.467872083187103271e-01 -1.135351601988077164e-02
-1.743482798337936401e-01 5.542452931404113770e-01 -4.056116740684956312e-04
2.623335085809230804e-02 -1.970510557293891907e-02 -1.605480164289474487e-02
-1.663974076509475708e-01 5.499141812324523926e-01 4.796854220330715179e-03
-1.168761104345321655e-01 3.381995856761932373e-02 -1.069006416946649551e-02
5.844826344400644302e-03 2.714597284793853760e-01 -1.466808281838893890e-02
1.117131710052490234e-01 -7.268083095550537109e-01 7.638950366526842117e-03
1.331962198019027710e-01 -1.186377853155136108e-01 8.812365122139453888e-03
5.602911859750747681e-02 -2.866723537445068359e-01 -1.507778652012348175e-02
1.275154799222946167e-01 -5.394215509295463562e-02 8.676654659211635590e-03
1.616786606609821320e-02 4.227257072925567627e-01 -1.153748482465744019e-02
3.117198310792446136e-02 -3.093433566391468048e-02 -1.596755161881446838e-02
8.093829452991485596e-02 -6.464592218399047852e-01 1.069317944347858429e-02
9.381609037518501282e-03 5.956453680992126465e-01 -5.928223952651023865e-03
1.112843230366706848e-01 -8.060067892074584961e-03 -1.023151259869337082e-02
5.215181410312652588e-02 8.614882826805114746e-03 1.535406429320573807e-02
-1.497246921062469482e-01 2.975279092788696289e-01 8.903492242097854614e-03
-9.362845122814178467e-02 -3.317313492298126221e-01 -4.036752972751855850e-03
-4.272847250103950500e-02 5.433033704757690430e-01 -1.176146510988473892e-02
-6.330090016126632690e-02 3.141992986202239990e-01 1.507011335343122482e-02
1.033788919448852539e-01 4.746424406766891479e-02 1.057704538106918335e-02
-6.110946089029312134e-02 2.806033566594123840e-02 1.550868060439825058e-02
1.534146964550018311e-01 -3.202579617500305176e-01 -7.070122286677360535e-03
-2.653388306498527527e-02 5.277355313301086426e-01 1.171052083373069763e-02
-5.257263034582138062e-02 -4.779382944107055664e-01 6.906715687364339828e-03
-1.281691193580627441e-01 4.603354334831237793e-01 1.104399748146533966e-02
4.033533111214637756e-02 1.591307818889617920e-01 -1.440337486565113068e-02
5.564168095588684082e-02 4.329461157321929932e-01 6.216559559106826782e-03
9.377575665712356567e-02 -6.856290698051452637e-01 9.504026733338832855e-03
-5.546710640192031860e-02 6.531519889831542969e-01 9.327745065093040466e-03
1.637241244316101074e-01 -4.443792104721069336e-01 -5.093149840831756592e-03
2.326089702546596527e-02 3.345730602741241455e-01 -1.288490649312734604e-02
-1.049680635333061218e-02 3.795064091682434082e-01 1.397447101771831512e-02
6.961577385663986206e-02 1.494627296924591064e-01 1.263471227139234543e-02
-2.639380469918251038e-02 7.180089950561523438e-01 3.007450839504599571e-03
3.668954968452453613e-02 5.167065858840942383e-01 -5.396870896220207214e-03
-8.936357498168945312e-02 3.562176525592803955e-01 1.404030621051788330e-02
5.614013597369194031e-02 -4.506863355636596680e-01 1.417041104286909103e-02
5.578529089689254761e-02 3.730913996696472168e-01 8.829579688608646393e-03
1.138874515891075134e-01 -2.099877297878265381e-01 1.227383408695459366e-02
-8.618094027042388916e-02 6.977837681770324707e-01 8.366933092474937439e-03
3.060395829379558563e-05 4.956018924713134766e-02 1.659230515360832214e-02
-1.705925315618515015e-01 3.587087094783782959e-01 4.414273891597986221e-03
-1.029790490865707397e-01 -1.033700555562973022e-01 1.075428538024425507e-02
-4.638441372662782669e-03 -3.768346309661865234e-01 -1.362064667046070099e-02
1.544019132852554321e-01 -5.503583550453186035e-01 6.845414172857999802e-03
-4.278808832168579102e-02 -4.344418048858642578e-01 -9.532914496958255768e-03
-1.215228810906410217e-01 4.764968454837799072e-01 1.140586659312248230e-02
-1.347090899944305420e-01 4.651329815387725830e-01 1.042979024350643158e-02
-1.288598962128162384e-02 4.941476508975028992e-03 -1.630154252052307129e-02
-1.221264302730560303e-01 7.003809511661529541e-02 -1.047905534505844116e-02
-5.467086099088191986e-03 -6.883998513221740723e-01 4.861646739300340414e-04
-1.048851385712623596e-01 -2.418848574161529541e-01 6.310974713414907455e-03
-8.050750195980072021e-02 -2.355558872222900391e-01 -1.035191956907510757e-02
8.390458673238754272e-02 -3.089424073696136475e-01 -1.407166663557291031e-02
-3.003485873341560364e-02 -4.643726944923400879e-01 -1.001036446541547775e-02
6.410409510135650635e-02 1.648923456668853760e-01 -1.267741620540618896e-02
-6.523787975311279297e-03 8.502988144755363464e-03 1.667853444814682007e-02
1.232572868466377258e-01 2.302512153983116150e-02 -7.514715660363435745e-03
-6.476086378097534180e-02 -3.825773894786834717e-01 -8.271936327219009399e-03
-1.106549203395843506e-01 2.405075728893280029e-01 1.312078908085823059e-02
-6.566018611192703247e-02 5.837007761001586914e-01 1.142201852053403854e-02
-6.819362938404083252e-02 -4.741852581501007080e-01 1.474248361773788929e-03
1.840811222791671753e-02 4.886156022548675537e-01 9.594199247658252716e-03
4.442327469587326050e-02 3.727262616157531738e-01 1.033265329897403717e-02
-6.114536523818969727e-02 -1.036947444081306458e-01 -1.416511368006467819e-02
-1.638798415660858154e-02 -1.466132402420043945e-01 -1.571881398558616638e-02
-8.957039564847946167e-02 -2.027860879898071289e-01 1.045630965381860733e-02
-1.674130745232105255e-02 -6.484801173210144043e-01 2.920633880421519279e-03
-5.634886771440505981e-02 1.090288907289505005e-01 -1.551631465554237366e-02
-1.477239131927490234e-01 3.371754288673400879e-01 9.329087100923061371e-03
8.687168359756469727e-02 1.101818010210990906e-01 -1.130924839526414871e-02
-8.870264515280723572e-03 -1.057710573077201843e-01 -1.608195155858993530e-02
6.487488280981779099e-03 4.840969741344451904e-01 -1.070516090840101242e-02
-1.105290278792381287e-01 5.294197797775268555e-01 1.145144738256931305e-02
-1.115776449441909790e-01 3.691560924053192139e-01 1.282117515802383423e-02
1.252778917551040649e-01 7.492200285196304321e-02 5.360044538974761963e-03
-1.006701141595840454e-01 -3.222795128822326660e-01 1.368357334285974503e-03
-1.107521429657936096e-01 4.411889612674713135e-01 1.240104530006647110e-02
-8.474661409854888916e-02 -2.299875319004058838e-01 1.046116184443235397e-02
1.501290202140808105e-01 -3.949758112430572510e-01 -7.962550036609172821e-03
-5.039498582482337952e-02 2.699548006057739258e-01 -1.527285482734441757e-02
-4.206923767924308777e-02 -4.645923152565956116e-02 -1.552790962159633636e-02
-1.254423558712005615e-01 4.342091977596282959e-01 -1.116611249744892120e-02
1.139747276902198792e-01 -5.594291090965270996e-01 1.104613207280635834e-02
-7.773555815219879150e-02 4.080883264541625977e-01 1.399963907897472382e-02
-1.364031583070755005e-01 5.591034889221191406e-01 -8.990182541310787201e-03
1.603048145771026611e-01 -6.640649437904357910e-01 -2.286528702825307846e-03
5.742086097598075867e-02 -4.413347244262695312e-01 -1.379809062927961349e-02
3.312847018241882324e-02 -3.786989748477935791e-01 -1.451033540070056915e-02
2.643256075680255890e-02 -2.372532784938812256e-01 1.608322747051715851e-02
1.116998121142387390e-01 -6.268653273582458496e-01 1.011609099805355072e-02
-1.721929758787155151e-02 2.444824874401092529e-01 1.572249829769134521e-02
1.213480457663536072e-01 -2.104045078158378601e-02 -8.901826106011867523e-03
4.992283880710601807e-02 3.017749190330505371e-01 1.156671438366174698e-02
-6.172432005405426025e-02 -1.564197540283203125e-01 -1.352537609636783600e-02
6.146995723247528076e-02 -6.970538198947906494e-02 1.532091759145259857e-02
3.419662266969680786e-02 -6.146025061607360840e-01 -1.022811979055404663e-02
1.570206433534622192e-01 -6.789692044258117676e-01 3.246121574193239212e-03
-8.450897783041000366e-02 6.839751601219177246e-01 8.829474449157714844e-03
-3.857227414846420288e-02 3.614255413413047791e-02 -1.592861488461494446e-02
-9.814203530550003052e-02 1.657206118106842041e-01 1.389360800385475159e-02
4.101993143558502197e-02 -3.621077239513397217e-01 1.515801250934600830e-02
-7.286259531974792480e-02 -3.112120032310485840e-01 9.938482195138931274e-03
-4.154616594314575195e-02 -5.687404870986938477e-01 -2.336158882826566696e-03
-4.765622317790985107e-02 -1.070357635617256165e-01 1.531869266182184219e-02
1.057084873318672180e-01 2.711561694741249084e-02 -1.040709577500820160e-02
-1.606299281120300293e-01 1.217080578207969666e-01 2.506403950974345207e-03
-1.138810068368911743e-01 -1.534928977489471436e-01 7.629321888089179993e-03
-1.027218699455261230e-01 1.925841867923736572e-01 1.363575924187898636e-02
1.058671697974205017e-01 -4.662612080574035645e-01 -1.207009144127368927e-02
7.932246476411819458e-02 -6.403142213821411133e-01 1.085105724632740021e-02
-3.329832106828689575e-02 9.984771162271499634e-02 1.639913581311702728e-02
-7.627160847187042236e-02 1.354970932006835938e-01 1.510514784604310989e-02
-1.055898368358612061e-01 6.784806251525878906e-01 -8.484824560582637787e-03
-5.624701827764511108e-02 -2.261129915714263916e-01 1.343695353716611862e-02
-9.708206355571746826e-02 -2.556609213352203369e-01 -7.054187823086977005e-03
4.779669269919395447e-02 1.868036948144435883e-02 1.549358852207660675e-02
-6.463128328323364258e-02 2.756850719451904297e-01 -1.497470121830701828e-02
-6.732513010501861572e-02 3.567170500755310059e-01 1.467652339488267899e-02
-7.971807569265365601e-02 5.453222393989562988e-01 -1.194961369037628174e-02
2.495768480002880096e-02 4.116933047771453857e-01 -1.109379995614290237e-02
1.712854392826557159e-02 1.435898244380950928e-01 -1.551636494696140289e-02
1.085136085748672485e-01 -3.007170557975769043e-01 -1.261462084949016571e-02
-3.656607493758201599e-02 -2.926445938646793365e-02 1.618352346122264862e-02
-1.670330017805099487e-01 2.168879806995391846e-01 3.100328147411346436e-03
-1.058628037571907043e-01 7.377545237541198730e-01 -6.419293582439422607e-03
-1.077492088079452515e-01 6.744813919067382812e-01 8.690515533089637756e-03
-1.337177157402038574e-01 1.388465762138366699e-01 -9.685146622359752655e-03
-4.141816869378089905e-02 5.608834624290466309e-01 -1.132305432111024857e-02
1.346492916345596313e-01 -5.503901839256286621e-01 -9.064769372344017029e-03
7.143552601337432861e-02 4.199754074215888977e-02 -1.365644484758377075e-02
4.982882365584373474e-02 -4.990766346454620361e-01 1.352634094655513763e-02
-4.856392741203308105e-02 -3.624595105648040771e-01 1.145532075315713882e-02
8.781104534864425659e-02 -3.347756713628768921e-02 -1.309104915708303452e-02
3.616252169013023376e-02 5.004732608795166016e-01 6.574217695742845535e-03
-4.512009397149085999e-02 -2.314218878746032715e-01 1.413061376661062241e-02
1.044750437140464783e-01 -5.556776523590087891e-01 -1.114933285862207413e-02
-1.476764082908630371e-01 5.934131741523742676e-01 7.448550313711166382e-03
-1.599519252777099609e-01 6.813551783561706543e-01 -1.810024492442607880e-03
-1.006626114249229431e-01 -1.412948966026306152e-01 -9.787509217858314514e-03
-1.503989398479461670e-01 5.172789692878723145e-01 8.185067214071750641e-03
-6.603916734457015991e-02 -4.196808859705924988e-02 -1.442258339375257492e-02
-1.009109839797019958e-01 7.351363897323608398e-01 6.798624992370605469e-03
4.999857023358345032e-02 4.144043028354644775e-01 8.165644481778144836e-03
-4.061170294880867004e-02 5.028498172760009766e-02 -1.590166427195072174e-02
1.668244786560535431e-02 3.745026588439941406e-01 -1.255031395703554153e-02
-1.097892671823501587e-01 1.309410929679870605e-01 1.281186938285827637e-02
-7.408489938825368881e-03 -6.668767333030700684e-01 -3.268707543611526489e-03
-1.660034209489822388e-01 5.139502286911010742e-01 -5.112457089126110077e-03
-8.890257030725479126e-02 8.424364030361175537e-02 1.420890353620052338e-02
9.537529200315475464e-02 3.024007081985473633e-01 1.455474994145333767e-03
-9.142953902482986450e-02 -8.809442818164825439e-02 -1.189197506755590439e-02
8.150226622819900513e-02 -6.908757686614990234e-01 -8.990729227662086487e-03
1.506578363478183746e-02 -2.575448155403137207e-01 1.591832563281059265e-02
-4.495760053396224976e-02 -1.210673153400421143e-01 -1.488962024450302124e-02
-1.092769652605056763e-01 -2.737097740173339844e-01 1.801014645025134087e-03
1.154828369617462158e-01 -2.533885240554809570e-01 1.229928527027368546e-02
-1.201440393924713135e-01 2.320336550474166870e-02 1.055718120187520981e-02
8.790145069360733032e-02 2.936125695705413818e-01 -5.632179323583841324e-03
2.998753823339939117e-02 2.712927758693695068e-01 -1.352555956691503525e-02
2.483679540455341339e-02 -2.106272280216217041e-01 -1.581188477575778961e-02
-1.308582276105880737e-01 6.470971107482910156e-01 -7.853575050830841064e-03
-5.971236526966094971e-02 6.377663016319274902e-01 -9.801383130252361298e-03
8.611884713172912598e-02 -7.615233063697814941e-01 7.011551875621080399e-03
1.797207631170749664e-02 -1.449062526226043701e-01 1.647833548486232758e-02
-1.518931388854980469e-01 3.661137223243713379e-01 8.727524429559707642e-03
1.537826657295227051e-01 -1.817119717597961426e-01 -4.854745697230100632e-03
5.737434700131416321e-02 -3.094202578067779541e-01 -1.492854114621877670e-02
6.714833527803421021e-02 -6.206298470497131348e-01 1.134053431451320648e-02
1.064997538924217224e-01 -1.259007602930068970e-01 1.245052181184291840e-02
-1.607184670865535736e-02 6.869867444038391113e-01 4.000302404165267944e-03
1.039301529526710510e-01 -2.690401673316955566e-02 1.168095972388982773e-02
-3.292865678668022156e-02 3.786501884460449219e-01 -1.431475300341844559e-02
-7.384106516838073730e-02 1.568290889263153076e-01 1.523670181632041931e-02
1.979519426822662354e-02 -3.685398399829864502e-01 1.493940409272909164e-02
3.609288018196821213e-03 -7.275031507015228271e-02 1.665075309574604034e-02
-1.060295924544334412e-01 -2.289057970046997070e-01 -6.047948263585567474e-03
-1.126224622130393982e-01 4.151406586170196533e-01 -1.220281701534986496e-02
-1.110133342444896698e-02 2.569609880447387695e-01 -1.526766829192638397e-02
7.630608230829238892e-02 -6.874242424964904785e-01 -9.100344032049179077e-03
-1.142482832074165344e-02 6.297188997268676758e-02 -1.627888903021812439e-02
-1.710692495107650757e-01 3.677410781383514404e-01 4.306732211261987686e-03
3.570054098963737488e-02 -4.530570805072784424e-01 -1.358535513281822205e-02
1.137859970331192017e-01 -6.420968174934387207e-01 -9.209121577441692352e-03
3.048437274992465973e-02 -5.121294260025024414e-01 -1.249004807323217392e-02
-8.145242929458618164e-02 4.157499223947525024e-02 1.446892414242029190e-02
-9.182388335466384888e-02 6.239280700683593750e-01 -1.021770108491182327e-02
5.538773909211158752e-02 1.600306034088134766e-01 -1.343974471092224121e-02
9.436771273612976074e-02 -7.450982332229614258e-01 -7.046442944556474686e-03
7.596474885940551758e-02 -1.220185309648513794e-01 -1.445334404706954956e-02
-6.684952974319458008e-02 6.854875683784484863e-01 8.551868610084056854e-03
5.799173936247825623e-02 3.466223776340484619e-01 9.404420852661132812e-03
1.098129898309707642e-01 3.654031082987785339e-02 9.850751608610153198e-03
2.964513562619686127e-02 -6.741993427276611328e-01 -7.955953478813171387e-03
1.147727221250534058e-01 -5.473989844322204590e-01 1.114825159311294556e-02
-1.594197452068328857e-01 3.099226653575897217e-01 7.156777195632457733e-03
5.534412339329719543e-02 -7.304151654243469238e-01 -7.083897478878498077e-03
1.287829428911209106e-01 -2.066880166530609131e-01 1.054835785180330276e-02
1.269035413861274719e-02 -5.204212665557861328e-01 -1.165310200303792953e-02
1.313739269971847534e-01 -4.638539850711822510e-01 -1.015814021229743958e-02
1.136167421936988831e-01 -6.916951537132263184e-01 -8.054131641983985901e-03
5.014104023575782776e-02 -3.487866371870040894e-02 1.567719690501689911e-02
-5.920762568712234497e-02 -5.073666572570800781e-01 2.260477747768163681e-03
-5.964810028672218323e-02 4.892561733722686768e-01 -1.297780498862266541e-02
5.738748610019683838e-02 1.704890429973602295e-01 -1.314304955303668976e-02
6.198510527610778809e-02 4.272700846195220947e-01 -4.819765686988830566e-03
9.926263242959976196e-02 -6.568412184715270996e-01 -9.532295167446136475e-03
7.181981205940246582e-02 -9.253947436809539795e-02 -1.457361318171024323e-02
7.954387366771697998e-02 -1.912505924701690674e-01 -1.441298890858888626e-02
3.204617276787757874e-02 -3.559378087520599365e-01 1.520488504320383072e-02
-1.868231780827045441e-02 2.070371210575103760e-01 1.601759903132915497e-02
8.468466997146606445e-02 1.268625557422637939e-01 1.146041229367256165e-02
-8.102526515722274780e-02 6.585231423377990723e-02 1.462683081626892090e-02
2.599078975617885590e-02 -1.790470778942108154e-01 -1.594114303588867188e-02
-3.618954867124557495e-02 -5.717986449599266052e-02 -1.567324995994567871e-02
-9.583524614572525024e-02 5.811082124710083008e-01 1.118858158588409424e-02
7.708647102117538452e-02 -7.157611250877380371e-01 -8.201381191611289978e-03
1.315971016883850098e-01 -1.059408709406852722e-01 -8.640219457447528839e-03
3.760145977139472961e-03 -4.598905444145202637e-01 -1.252302434295415878e-02
-1.418663263320922852e-01 3.808251619338989258e-01 -9.755218401551246643e-03
-5.509189888834953308e-02 -2.942660450935363770e-01 -1.181011646986007690e-02
-5.050905421376228333e-02 -4.271708130836486816e-01 -8.791856467723846436e-03
1.229629740118980408e-01 -4.388689994812011719e-01 1.147187780588865280e-02
1.207176297903060913e-01 -6.709001958370208740e-02 1.004425436258316040e-02
-4.494684934616088867e-02 -3.236344754695892334e-01 1.262726262211799622e-02
3.257557377219200134e-02 2.453232109546661377e-01 -1.375594642013311386e-02
-6.052485853433609009e-02 6.060500144958496094e-01 -1.067563798278570175e-02
9.555789828300476074e-02 -4.125286042690277100e-01 -1.301585510373115540e-02
-1.514182686805725098e-01 2.521841228008270264e-01 -7.921766489744186401e-03
-3.117910958826541901e-02 4.786053895950317383e-01 -1.275423448532819748e-02
1.516434550285339355e-02 2.448827922344207764e-01 1.484920457005500793e-02
1.454405188560485840e-01 -1.034209206700325012e-01 -5.374935455620288849e-03
1.037378981709480286e-02 3.240106403827667236e-01 -1.377762760967016220e-02
-6.582263857126235962e-02 -4.519678950309753418e-01 -4.642596002668142319e-03
4.450628906488418579e-02 -7.542992830276489258e-01 5.659115966409444809e-03
5.778079479932785034e-02 -2.186418771743774414e-01 -1.527535263448953629e-02
8.535816520452499390e-02 -4.453690350055694580e-01 1.361747924238443375e-02
-7.561088353395462036e-02 -1.534204781055450439e-01 -1.244357321411371231e-02
-9.142054617404937744e-02 1.540352404117584229e-01 -1.393218245357275009e-02
-1.125281378626823425e-01 1.238107010722160339e-01 1.250755321234464645e-02
1.798374950885772705e-02 -4.163877665996551514e-02 -1.622253470122814178e-02
-8.246371150016784668e-02 -7.091893814504146576e-03 1.405386347323656082e-02
6.556968390941619873e-02 -7.764425277709960938e-01 -5.163368768990039825e-03
9.069105982780456543e-02 -2.765891551971435547e-01 -1.380218006670475006e-02
1.377155333757400513e-01 -7.464852929115295410e-02 6.962992250919342041e-03
1.158084422349929810e-01 -3.458591923117637634e-02 -1.001695543527603149e-02
2.418093383312225342e-02 -2.704535424709320068e-01 -1.544819213449954987e-02
-6.078737601637840271e-02 -4.145686328411102295e-01 8.281204849481582642e-03
1.798404008150100708e-02 -6.468766331672668457e-01 -8.165772072970867157e-03
1.473575085401535034e-02 -4.696509838104248047e-01 -1.279383804649114609e-02
-7.549259811639785767e-02 2.074457406997680664e-01 -1.480883266776800156e-02
-7.405968755483627319e-02 4.800428450107574463e-02 1.494781672954559326e-02
-1.044116094708442688e-01 7.937672734260559082e-01 -2.985103987157344818e-03
1.453064531087875366e-01 -3.012645542621612549e-01 -8.462247438728809357e-03
-1.655489578843116760e-02 -1.031118184328079224e-01 -1.596033759415149689e-02
8.777903765439987183e-02 -6.996305584907531738e-01 -8.678086102008819580e-03
-8.198717236518859863e-02 6.270890831947326660e-01 1.043298281729221344e-02
1.085219308733940125e-01 -4.607797861099243164e-01 -1.196063868701457977e-02
-6.601519137620925903e-02 6.728635430335998535e-01 -8.848785422742366791e-03
7.240427285432815552e-02 -2.716181278228759766e-01 1.504158973693847656e-02
1.770777627825737000e-02 -9.675030410289764404e-02 -1.620242558419704437e-02
7.697124499827623367e-03 6.023096442222595215e-01 5.889652296900749207e-03
1.165018379688262939e-01 -1.359494924545288086e-01 1.145598851144313812e-02
-1.169572547078132629e-01 7.851955294609069824e-01 3.201563842594623566e-03
8.672314137220382690e-02 -8.310990333557128906e-01 8.987454930320382118e-04
-2.313912101089954376e-02 7.130687832832336426e-01 -2.700260141864418983e-03
-8.194969594478607178e-02 5.750044584274291992e-01 1.157179381698369980e-02
1.313396394252777100e-01 -7.244087457656860352e-01 6.210793275386095047e-03
1.587703078985214233e-01 -3.349954187870025635e-01 -5.946123506873846054e-03
5.296269059181213379e-02 -6.997177600860595703e-01 8.822984993457794189e-03
6.247899681329727173e-02 7.310998439788818359e-02 -1.397098228335380554e-02
1.241433247923851013e-01 -6.533381342887878418e-01 -8.294931612908840179e-03
-1.669945865869522095e-01 5.407781600952148438e-01 4.787772428244352341e-03
3.400324657559394836e-02 -1.669551134109497070e-01 -1.589792966842651367e-02
-1.256720125675201416e-01 4.866303801536560059e-01 -1.073722820729017258e-02
8.300747722387313843e-04 6.008528918027877808e-02 -1.623916253447532654e-02
-9.127149730920791626e-02 7.182680368423461914e-01 -7.468233350664377213e-03
1.347816288471221924e-01 -7.968632131814956665e-02 7.759363390505313873e-03
9.149794280529022217e-02 3.246113657951354980e-01 -6.124682258814573288e-04
-1.244188621640205383e-01 -6.463547050952911377e-02 8.054346777498722076e-03
3.498678281903266907e-02 5.468267202377319336e-01 3.437739564105868340e-03
-1.009210944175720215e-02 -3.129955530166625977e-01 1.480447873473167419e-02
5.432742089033126831e-02 3.130817711353302002e-01 -1.067390851676464081e-02
-5.214378237724304199e-02 -3.250386416912078857e-01 1.196775026619434357e-02
1.426117718219757080e-01 -5.369151234626770020e-01 -8.325717411935329437e-03
-8.233771473169326782e-02 1.306159980595111847e-02 -1.379557047039270401e-02
-2.261325158178806305e-02 6.280770897865295410e-01 8.341604843735694885e-03
9.323989599943161011e-02 -5.383796095848083496e-01 -1.184867694973945618e-02
-4.922417923808097839e-02 -4.899533092975616455e-01 -6.346613168716430664e-03
1.161423102021217346e-01 6.162866950035095215e-02 8.144878782331943512e-03
-7.846722006797790527e-02 -1.965644061565399170e-01 1.192795857787132263e-02
-1.378594785928726196e-01 2.523037791252136230e-01 -1.003320515155792236e-02
9.589677304029464722e-02 -4.751149713993072510e-01 -1.248448435217142105e-02
1.681091040372848511e-01 -3.851850628852844238e-01 3.650313476100564003e-03
-8.758506178855895996e-02 3.678700327873229980e-01 -1.375316176563501358e-02
-3.709011524915695190e-02 4.264224469661712646e-01 1.393621880561113358e-02
-7.305797934532165527e-02 6.423707008361816406e-01 1.002351939678192139e-02
-7.117215543985366821e-02 5.241057276725769043e-01 1.258521527051925659e-02
-1.146749779582023621e-01 1.344128847122192383e-01 -1.196041423827409744e-02
-6.449172645807266235e-02 -4.440989494323730469e-01 6.114215124398469925e-03
-9.370356053113937378e-02 -2.969765365123748779e-01 6.627146620303392410e-03
-3.290729224681854248e-02 -1.934501528739929199e-01 -1.475978735834360123e-02
5.596055835485458374e-02 -2.470554113388061523e-01 -1.524485461413860321e-02
6.733657419681549072e-02 -5.220406651496887207e-01 1.313599199056625366e-02
2.954739890992641449e-02 5.708689689636230469e-01 -2.655623480677604675e-03
-1.487338244915008545e-01 1.695859730243682861e-01 -7.468119729310274124e-03
1.441893279552459717e-01 -6.857308149337768555e-01 5.823894403874874115e-03
-1.226144134998321533e-01 5.203050374984741211e-01 1.085698977112770081e-02
7.072407286614179611e-03 -6.121162176132202148e-01 9.183346293866634369e-03
-4.823002964258193970e-02 -4.460086822509765625e-01 9.018338285386562347e-03
1.122589930891990662e-01 1.941295564174652100e-01 -3.124381182715296745e-03
-1.312502622604370117e-01 -1.102553829550743103e-01 4.293464589864015579e-03
1.626188755035400391e-01 -2.866802215576171875e-01 -4.084902815520763397e-03
1.391039229929447174e-02 -1.844328641891479492e-01 1.633921265602111816e-02
-9.564802050590515137e-02 -8.757210522890090942e-02 1.192569453269243240e-02
5.403396487236022949e-02 1.688911020755767822e-01 1.363132148981094360e-02
6.202029436826705933e-02 2.601105570793151855e-01 -1.108673773705959320e-02
-1.744799315929412842e-01 3.977653682231903076e-01 2.967292908579111099e-03
-4.606605693697929382e-02 2.239499688148498535e-01 1.585785113275051117e-02
-9.811832010746002197e-02 -6.455486267805099487e-02 1.199899893254041672e-02
1.324135810136795044e-01 -2.861384749412536621e-01 -1.024949550628662109e-02
-1.544537097215652466e-01 5.811646580696105957e-01 6.696240976452827454e-03
-8.051348477602005005e-02 -1.077602207660675049e-01 -1.266328617930412292e-02
1.263860017061233521e-01 -3.379400372505187988e-01 1.138361915946006775e-02
-1.667418330907821655e-01 6.089643836021423340e-01 3.193009411916136742e-03
7.037394493818283081e-02 2.871901392936706543e-01 -9.334972128272056580e-03
1.227613613009452820e-01 -1.807210743427276611e-01 1.110368873924016953e-02
7.601203769445419312e-02 -4.228174984455108643e-01 -1.366634387522935867e-02
4.140444844961166382e-02 2.872739136219024658e-01 1.263395231217145920e-02
3.445870801806449890e-02 -6.009462475776672363e-01 -1.061333622783422470e-02
1.505813747644424438e-01 -2.630507946014404297e-01 7.440156769007444382e-03
1.365390121936798096e-01 -6.854034662246704102e-01 -6.363712251186370850e-03
-9.798304736614227295e-02 -1.664149574935436249e-03 1.280588749796152115e-02
-3.467442095279693604e-02 5.930580198764801025e-03 -1.595766656100749969e-02
2.624144777655601501e-03 2.667271494865417480e-01 1.505634747445583344e-02
2.722360379993915558e-02 3.004236817359924316e-01 1.341558340936899185e-02
-6.857392191886901855e-02 -4.670790731906890869e-01 -2.014648169279098511e-03
