6.607633829116821289e-01 5.816207081079483032e-02 -3.731851875782012939e-01
6.000731587409973145e-01 -8.540111035108566284e-02 -4.590511023998260498e-01
5.404266119003295898e-01 -6.789624691009521484e-02 -1.280056685209274292e-01
7.772550582885742188e-01 -2.319467067718505859e-01 3.368447721004486084e-02
7.803860902786254883e-01 -2.362037599086761475e-01 -1.248883008956909180e-01
6.676610708236694336e-01 5.719623714685440063e-02 2.850313186645507812e-01
5.911100506782531738e-01 -2.103495299816131592e-01 6.307372450828552246e-02
7.132022380828857422e-01 -2.352552115917205811e-01 2.916508615016937256e-01
6.111397147178649902e-01 9.324239939451217651e-02 -1.175421290099620819e-02
6.755393743515014648e-01 -9.527366608381271362e-02 5.301384925842285156e-01
7.329002022743225098e-01 -2.622320950031280518e-01 -2.201626896858215332e-01
6.237488985061645508e-01 -2.299006283283233643e-01 2.252041101455688477e-01
5.723847150802612305e-01 -1.357295811176300049e-01 -2.631610035896301270e-01
5.887497663497924805e-01 -2.047806978225708008e-01 -4.007790610194206238e-02
7.922795414924621582e-01 -1.440382301807403564e-01 1.479910910129547119e-01
6.237564086914062500e-01 -5.122455209493637085e-02 5.316320657730102539e-01
5.534042119979858398e-01 -7.888483256101608276e-02 -2.348634153604507446e-01
7.682687640190124512e-01 -2.172817289829254150e-01 -3.646186590194702148e-01
7.606980800628662109e-01 -2.261612713336944580e-01 1.795877218246459961e-01
6.145415306091308594e-01 -2.548079192638397217e-02 -4.912550747394561768e-01
7.922656536102294922e-01 -1.956777572631835938e-01 -3.007971346378326416e-01
6.344995498657226562e-01 -2.489487230777740479e-01 -5.299513787031173706e-02
7.207795977592468262e-01 6.043032556772232056e-02 -4.727638512849807739e-02
7.271297574043273926e-01 -2.712404727935791016e-01 -1.430558413267135620e-02
5.923095345497131348e-01 -9.196286648511886597e-02 4.940865635871887207e-01
5.912396311759948730e-01 -3.327617794275283813e-02 -4.300700426101684570e-01
6.065076589584350586e-01 -1.822507977485656738e-01 3.822763860225677490e-01
7.929144501686096191e-01 -2.055982351303100586e-01 -2.484883069992065430e-01
7.068585157394409180e-01 7.006395608186721802e-02 -1.482125520706176758e-01
6.355344653129577637e-01 7.940139621496200562e-02 2.137598991394042969e-01
6.603970527648925781e-01 -2.611515223979949951e-01 1.052330732345581055e-01
6.503052711486816406e-01 -2.551906704902648926e-01 1.301209479570388794e-01
5.481283664703369141e-01 3.768803924322128296e-02 1.165491193532943726e-01
5.425096750259399414e-01 -9.648403525352478027e-02 2.446265518665313721e-01
6.210363507270812988e-01 6.713845580816268921e-02 2.852624654769897461e-01
6.507167816162109375e-01 4.769321531057357788e-02 3.501225411891937256e-01
7.576276063919067383e-01 -1.076112464070320129e-01 -5.395989418029785156e-01
6.036409139633178711e-01 -8.586329966783523560e-02 5.170218348503112793e-01
8.006921410560607910e-01 -7.309675961732864380e-02 -2.153081893920898438e-01
7.542788982391357422e-01 -1.835343986749649048e-01 3.114511370658874512e-01
7.830343842506408691e-01 -2.301235496997833252e-02 -1.931681185960769653e-01
5.634442567825317383e-01 -9.313390403985977173e-02 -2.867344915866851807e-01
7.561943531036376953e-01 -2.187359631061553955e-01 2.257601022720336914e-01
7.048619985580444336e-01 -2.174706161022186279e-01 -4.495349228382110596e-01
7.222462892532348633e-01 5.661391466856002808e-02 1.134308613836765289e-02
5.514503717422485352e-01 3.125701099634170532e-02 2.129323184490203857e-01
5.633242130279541016e-01 5.117227882146835327e-02 -1.180006414651870728e-01
7.966330051422119141e-01 -5.960293114185333252e-02 -5.391735583543777466e-02
6.767863035202026367e-01 -2.696936130523681641e-01 2.787563763558864594e-02
7.496731281280517578e-01 -2.131164819002151489e-01 -4.306961596012115479e-01
7.963030934333801270e-01 -8.269915729761123657e-02 5.576941370964050293e-02
6.077681779861450195e-01 -2.283306717872619629e-01 6.098043173551559448e-02
7.223370075225830078e-01 -1.515773683786392212e-02 3.563264608383178711e-01
5.737249255180358887e-01 -9.544190764427185059e-02 4.400729835033416748e-01
5.457943081855773926e-01 -3.505117446184158325e-02 -1.921896338462829590e-01
6.192427277565002441e-01 -2.388290166854858398e-01 4.045668244361877441e-02
6.177913546562194824e-01 -9.417771548032760620e-02 -5.064964890480041504e-01
6.834242343902587891e-01 -2.199796736240386963e-01 -4.234044253826141357e-01
5.604223608970642090e-01 -4.011321067810058594e-02 -2.955971062183380127e-01
5.480243563652038574e-01 -1.350508034229278564e-01 3.914028406143188477e-02
6.464300751686096191e-01 8.508241921663284302e-02 1.577485054731369019e-01
6.225879788398742676e-01 -2.410729527473449707e-01 -1.708984188735485077e-02
7.502853274345397949e-01 -1.266166865825653076e-01 3.700642883777618408e-01
7.887926697731018066e-01 -1.963632702827453613e-01 -3.263138234615325928e-01
8.032737374305725098e-01 -1.774674206972122192e-01 -2.321277558803558350e-02
5.680701136589050293e-01 -1.760353744029998779e-01 3.754233941435813904e-03
6.926832795143127441e-01 5.474146455526351929e-02 -3.532949686050415039e-01
6.943573951721191406e-01 -2.710360288619995117e-01 6.492330133914947510e-02
7.315256595611572266e-01 -1.779689639806747437e-02 -5.056275129318237305e-01
5.471796393394470215e-01 -3.668867796659469604e-02 3.322283029556274414e-01
5.312905907630920410e-01 -6.574685871601104736e-02 7.581939548254013062e-02
6.726728677749633789e-01 8.527577668428421021e-02 6.590846180915832520e-02
7.252746224403381348e-01 -2.404237687587738037e-01 -3.654326796531677246e-01
7.809742093086242676e-01 -9.569189697504043579e-02 2.107810080051422119e-01
7.131876945495605469e-01 -2.432936131954193115e-01 2.591022849082946777e-01
6.850199699401855469e-01 8.247401565313339233e-02 1.363224349915981293e-02
8.039858341217041016e-01 -9.563498198986053467e-02 -2.712011151015758514e-02
5.319677591323852539e-01 -3.853289410471916199e-02 -1.460592634975910187e-02
5.717751383781433105e-01 -1.540057063102722168e-01 -2.004981040954589844e-01
7.222831249237060547e-01 -2.454371154308319092e-01 -3.438822031021118164e-01
8.098728656768798828e-01 -1.264681518077850342e-01 -1.473355889320373535e-01
7.259255647659301758e-01 -1.471946835517883301e-01 4.333618581295013428e-01
6.574091315269470215e-01 -2.341267764568328857e-01 3.038507401943206787e-01
8.066483736038208008e-01 -1.613539904356002808e-01 -2.261772751808166504e-01
6.648592948913574219e-01 2.355448156595230103e-02 -4.823175370693206787e-01
7.172913551330566406e-01 1.314795762300491333e-02 -4.605245590209960938e-01
7.955103516578674316e-01 -9.262269735336303711e-02 8.703874796628952026e-02
5.384270548820495605e-01 -9.146847575902938843e-02 2.006371915340423584e-01
8.081527352333068848e-01 -1.645304560661315918e-01 -1.179318800568580627e-01
7.644336223602294922e-01 1.113728433847427368e-02 -1.553745865821838379e-01
6.414200067520141602e-01 6.084523350000381470e-02 3.081384599208831787e-01
7.743690013885498047e-01 -1.994308829307556152e-01 1.891708374023437500e-01
5.721730589866638184e-01 -5.426505208015441895e-02 -3.582739531993865967e-01
7.598113417625427246e-01 -1.592735052108764648e-01 3.188889920711517334e-01
7.444706559181213379e-01 -2.093106955289840698e-01 -4.504258036613464355e-01
7.295063138008117676e-01 4.814908653497695923e-02 3.270815312862396240e-02
8.025354146957397461e-01 -1.891576051712036133e-01 -7.574791461229324341e-02
8.065626621246337891e-01 -1.287510842084884644e-01 -1.319254189729690552e-02
6.432980298995971680e-01 -2.498235106468200684e-01 -1.350154429674148560e-01
5.505490899085998535e-01 -8.047135174274444580e-02 3.428116440773010254e-01
6.470962166786193848e-01 -8.610871434211730957e-02 5.450666546821594238e-01
7.935956716537475586e-01 -1.198824793100357056e-01 1.359200626611709595e-01
5.901967287063598633e-01 -9.808507561683654785e-02 -4.142879545688629150e-01
6.586884856224060059e-01 -2.294991910457611084e-01 -3.372872769832611084e-01
7.779359817504882812e-01 -1.842089295387268066e-01 -4.165630936622619629e-01
5.891734361648559570e-01 3.895888477563858032e-02 -3.127120435237884521e-01
5.525563359260559082e-01 -8.822927623987197876e-02 -2.163727879524230957e-01
6.674783229827880859e-01 -2.414610087871551514e-01 2.807931005954742432e-01
6.720105409622192383e-01 -2.333753407001495361e-01 -3.533672988414764404e-01
7.479156851768493652e-01 -2.353711426258087158e-01 -3.550262749195098877e-01
6.347502470016479492e-01 -2.346804440021514893e-01 -2.137427181005477905e-01
6.515039801597595215e-01 8.902273327112197876e-02 1.062326431274414062e-01
6.066326498985290527e-01 -2.258938550949096680e-01 1.059257686138153076e-01
7.425001263618469238e-01 3.693888336420059204e-02 -7.916981354355812073e-03
8.014809489250183105e-01 -1.614454090595245361e-01 4.359684884548187256e-02
6.766628026962280273e-01 4.875410348176956177e-02 -4.029298722743988037e-01
7.199984192848205566e-01 -1.958402246236801147e-01 -5.044007301330566406e-01
6.934894323348999023e-01 7.684826105833053589e-02 -1.687286347150802612e-01
7.071157097816467285e-01 6.854023784399032593e-02 1.883086003363132477e-02
7.104389071464538574e-01 3.175445646047592163e-02 -4.135228097438812256e-01
7.682647705078125000e-01 -3.575965762138366699e-03 -2.711039781570434570e-01
5.386051535606384277e-01 -6.182942166924476624e-02 2.602840363979339600e-01
6.005110740661621094e-01 -1.729741692543029785e-01 -3.191380500793457031e-01
6.449383497238159180e-01 -2.077387571334838867e-01 -3.816562891006469727e-01
5.618794560432434082e-01 5.730075389146804810e-02 -4.898455739021301270e-02
7.685326337814331055e-01 -7.670268416404724121e-03 -2.965760529041290283e-01
5.371584296226501465e-01 3.943860530853271484e-03 -2.277562953531742096e-02
7.609666585922241211e-01 -2.462708950042724609e-02 -4.203550219535827637e-01
5.331062674522399902e-01 -3.840554133057594299e-02 1.913254410028457642e-01
5.439597368240356445e-01 -1.096399724483489990e-01 2.185351848602294922e-01
6.576449871063232422e-01 2.483658492565155029e-02 4.108265936374664307e-01
7.665847539901733398e-01 -2.369154691696166992e-01 9.403769671916961670e-02
7.423678636550903320e-01 -1.604087054729461670e-01 3.789218366146087646e-01
6.758514642715454102e-01 -3.870725631713867188e-04 4.417960047721862793e-01
7.480829358100891113e-01 -4.843683540821075439e-02 -5.180808305740356445e-01
7.367395162582397461e-01 3.817807883024215698e-02 -2.551191747188568115e-01
7.877702116966247559e-01 -1.343418061733245850e-01 -4.270918667316436768e-01
7.798648476600646973e-01 -6.457238644361495972e-02 1.695364713668823242e-01
6.210518479347229004e-01 4.236672073602676392e-02 3.804583847522735596e-01
7.309132814407348633e-01 -2.502278089523315430e-01 1.865383535623550415e-01
5.550878047943115234e-01 -9.100981056690216064e-03 -2.402728199958801270e-01
5.536248683929443359e-01 -9.064763784408569336e-03 3.414761424064636230e-01
8.040906786918640137e-01 -1.489213556051254272e-01 -2.899280190467834473e-01
6.013474464416503906e-01 6.657624989748001099e-02 2.682238817214965820e-01
7.600490450859069824e-01 -1.215747743844985962e-02 1.582545638084411621e-01
7.410293817520141602e-01 -6.788320839405059814e-03 2.564186751842498779e-01
6.900952458381652832e-01 -2.595099508762359619e-01 -2.423233687877655029e-01
7.464712262153625488e-01 -2.599673271179199219e-01 -1.932655721902847290e-01
8.061998486518859863e-01 -1.073407232761383057e-01 -2.396069914102554321e-01
6.537202596664428711e-01 -2.454496622085571289e-01 -2.323772460222244263e-01
6.333681344985961914e-01 -9.120702743530273438e-03 -5.113771557807922363e-01
5.417816638946533203e-01 -6.015366315841674805e-02 -1.505236327648162842e-01
7.256785631179809570e-01 1.448853313922882080e-02 -4.345411658287048340e-01
5.751343369483947754e-01 -1.706290841102600098e-01 -1.543265730142593384e-01
7.689371109008789062e-01 -1.265884190797805786e-01 2.927876114845275879e-01
7.193185091018676758e-01 -9.098700433969497681e-02 4.564116299152374268e-01
7.570608258247375488e-01 -5.262682214379310608e-02 -4.970917105674743652e-01
7.182969450950622559e-01 -2.623548805713653564e-01 -2.397900968790054321e-01
7.867634892463684082e-01 -1.068117767572402954e-01 1.810084283351898193e-01
7.465810179710388184e-01 -3.441553562879562378e-02 3.006358146667480469e-01
6.252378821372985840e-01 1.571401953697204590e-04 -4.854022562503814697e-01
5.570001602172851562e-01 -5.276295170187950134e-02 -2.752719223499298096e-01
6.101578474044799805e-01 -1.060397177934646606e-01 -4.767542481422424316e-01
5.864494442939758301e-01 -1.958259642124176025e-01 2.056881785392761230e-01
8.002552986145019531e-01 -1.218796521425247192e-01 7.191147655248641968e-02
6.196223497390747070e-01 -2.100457400083541870e-01 3.215885758399963379e-01
6.941008567810058594e-01 -2.732625305652618408e-01 -6.379020959138870239e-02
7.947995066642761230e-01 -1.863149404525756836e-01 6.650795042514801025e-02
8.006025552749633789e-01 -7.557693123817443848e-02 -4.311003908514976501e-02
7.544497251510620117e-01 -1.625687330961227417e-01 3.365488946437835693e-01
7.668367028236389160e-01 -3.548359870910644531e-02 1.896589994430541992e-01
7.321637272834777832e-01 -2.595578134059906006e-01 1.211992353200912476e-01
6.048848032951354980e-01 8.032863587141036987e-02 1.874080002307891846e-01
7.966946363449096680e-01 -2.025552690029144287e-01 -3.193213418126106262e-02
5.694850087165832520e-01 4.342479258775711060e-02 -2.030936330556869507e-01
6.941732764244079590e-01 -1.886621117591857910e-03 -5.285928845405578613e-01
7.883843183517456055e-01 -1.960056722164154053e-01 9.997381269931793213e-02
8.096988201141357422e-01 -1.407449543476104736e-01 -1.000081747770309448e-01
7.626791000366210938e-01 -1.571500301361083984e-01 -5.059646368026733398e-01
8.087134361267089844e-01 -1.131434142589569092e-01 -1.065136417746543884e-01
5.681263208389282227e-01 5.130315572023391724e-02 -1.577756106853485107e-01
7.206677794456481934e-01 3.793913871049880981e-02 -3.533735573291778564e-01
6.593219637870788574e-01 4.247163981199264526e-02 -4.297796785831451416e-01
5.361110568046569824e-01 -9.217714518308639526e-02 1.755593158304691315e-02
6.471395492553710938e-01 -1.856977641582489014e-01 4.487991631031036377e-01
6.723844408988952637e-01 -1.190398037433624268e-01 5.283166766166687012e-01
5.777645111083984375e-01 -1.923713386058807373e-01 2.666501887142658234e-02
7.243705391883850098e-01 4.509907215833663940e-02 1.110551953315734863e-01
7.816144227981567383e-01 -8.115818351507186890e-02 -4.326909482479095459e-01
7.125341296195983887e-01 -2.491993308067321777e-01 -3.268666565418243408e-01
5.379495024681091309e-01 -4.810608923435211182e-03 2.059175968170166016e-01
7.430949807167053223e-01 -7.559046894311904907e-02 -5.587080717086791992e-01
5.812166929244995117e-01 -7.072520256042480469e-02 -3.950899243354797363e-01
6.163293719291687012e-01 -2.356004416942596436e-01 8.088291436433792114e-02
5.361573696136474609e-01 -6.746355444192886353e-02 -7.056965678930282593e-02
6.650956869125366211e-01 -1.855960786342620850e-01 4.563941359519958496e-01
6.879318356513977051e-01 -2.642059326171875000e-01 -1.969464272260665894e-01
6.414559483528137207e-01 9.425338357686996460e-02 4.925502836704254150e-02
5.643259286880493164e-01 -7.452300190925598145e-02 4.184263050556182861e-01
7.890610098838806152e-01 -5.248194560408592224e-02 4.273189604282379150e-02
7.703722119331359863e-01 -4.058903083205223083e-02 -4.151172339916229248e-01
6.089595556259155273e-01 7.356268912553787231e-02 2.413127720355987549e-01
6.830781698226928711e-01 7.179296761751174927e-02 1.532665640115737915e-01
6.205531358718872070e-01 -2.227807641029357910e-01 -2.082741856575012207e-01
7.777124047279357910e-01 -1.801060289144515991e-01 2.088252454996109009e-01
7.307308912277221680e-01 -2.112486064434051514e-01 3.287535905838012695e-01
7.155712246894836426e-01 -3.073016181588172913e-02 4.071724116802215576e-01
7.022662162780761719e-01 -2.709973752498626709e-01 -1.413682848215103149e-01
7.736049890518188477e-01 -2.102124094963073730e-01 1.637923717498779297e-01
5.939474701881408691e-01 -2.093680500984191895e-01 1.593705117702484131e-01
7.954344153404235840e-01 -1.544046103954315186e-01 1.150398552417755127e-01
5.343531966209411621e-01 -1.480638980865478516e-03 1.106734126806259155e-01
6.195637583732604980e-01 -1.288778930902481079e-01 5.107224583625793457e-01
6.195623278617858887e-01 8.643432706594467163e-02 1.578693389892578125e-01
6.083623170852661133e-01 -1.873554587364196777e-01 -3.100712299346923828e-01
5.486571192741394043e-01 -1.238271147012710571e-01 -7.662972062826156616e-02
7.989409565925598145e-01 -1.038906723260879517e-01 -3.360191583633422852e-01
6.265649795532226562e-01 -1.887750029563903809e-01 4.140308499336242676e-01
7.681040167808532715e-01 -2.459181547164916992e-01 6.333107128739356995e-03
5.740699768066406250e-01 2.909568697214126587e-02 3.440550863742828369e-01
5.946158766746520996e-01 8.507338911294937134e-02 -6.814665347337722778e-02
7.514134645462036133e-01 -1.758179217576980591e-01 -5.072112679481506348e-01
7.941316366195678711e-01 -2.178665250539779663e-02 8.387414738535881042e-03
5.254579782485961914e-01 1.879716664552688599e-01 -3.253933787345886230e-02
4.253061711788177490e-01 2.052808701992034912e-01 1.018089428544044495e-02
6.823731660842895508e-01 -4.809163510799407959e-02 -7.327782362699508667e-02
1.280744969844818115e-01 1.527972519397735596e-01 1.678656972944736481e-02
7.422761321067810059e-01 8.843399584293365479e-02 -1.312246024608612061e-01
5.779702067375183105e-01 9.360866993665695190e-02 2.764715850353240967e-01
3.563266694545745850e-01 2.092241942882537842e-01 6.720776855945587158e-02
5.983898043632507324e-01 -1.344753056764602661e-02 2.323123961687088013e-01
3.729306161403656006e-01 -2.987092733383178711e-02 4.426196217536926270e-02
7.290812730789184570e-01 8.653024584054946899e-02 -1.531045436859130859e-01
6.760420799255371094e-01 6.888297945261001587e-02 -2.158348858356475830e-01
4.159785509109497070e-01 -2.449603378772735596e-02 -9.712758660316467285e-02
2.057420611381530762e-01 1.975582540035247803e-01 4.953502863645553589e-02
4.464087784290313721e-01 -3.989635407924652100e-02 -4.713266342878341675e-02
3.442113995552062988e-01 1.505641937255859375e-01 2.697696387767791748e-01
3.988469839096069336e-01 -2.866120636463165283e-02 1.354101747274398804e-01
2.925074696540832520e-01 -4.944130778312683105e-03 8.106800168752670288e-02
6.196463108062744141e-01 1.276202350854873657e-01 -1.821053475141525269e-01
5.733135938644409180e-01 -3.544946759939193726e-02 1.865101903676986694e-01
4.889106452465057373e-01 1.382295191287994385e-01 2.648771405220031738e-01
8.048644065856933594e-01 6.366181373596191406e-02 8.458413183689117432e-03
4.931512773036956787e-01 -3.531998395919799805e-02 -1.122536510229110718e-01
1.683867573738098145e-01 1.092183962464332581e-01 2.023641169071197510e-01
1.716867983341217041e-01 1.843767166137695312e-01 9.222822636365890503e-02
1.799250245094299316e-01 4.955358430743217468e-02 1.792375370860099792e-02
5.837913751602172852e-01 -5.566207319498062134e-02 -4.380445182323455811e-02
3.157080113887786865e-01 -8.380383253097534180e-03 -3.067014552652835846e-02
6.250534653663635254e-01 -4.029237478971481323e-02 -1.247466057538986206e-01
2.319659739732742310e-01 1.920028626918792725e-01 -5.457779020071029663e-02
6.221984624862670898e-01 -5.730606615543365479e-03 2.370343953371047974e-01
3.612176775932312012e-01 1.952539086341857910e-01 -9.860058128833770752e-02
7.009850740432739258e-01 -4.382757842540740967e-02 -8.152160793542861938e-02
6.919031143188476562e-01 6.558544933795928955e-02 2.219940274953842163e-01
2.582907676696777344e-01 7.220253348350524902e-03 5.258750915527343750e-02
4.106127619743347168e-01 -3.602062910795211792e-02 -1.692242734134197235e-02
5.548760294914245605e-01 -4.629523307085037231e-02 -9.335032850503921509e-02
7.577245235443115234e-01 1.024606823921203613e-02 -1.529838889837265015e-01
4.596139192581176758e-01 2.009276151657104492e-01 1.633549109101295471e-03
2.471331059932708740e-01 2.029499113559722900e-01 -5.264664068818092346e-03
4.331498742103576660e-01 1.799939870834350586e-01 1.963593065738677979e-01
7.614563703536987305e-01 9.973785281181335449e-02 -3.867246955633163452e-02
3.151324093341827393e-01 8.685868233442306519e-02 2.976617515087127686e-01
5.686407685279846191e-01 -5.763136595487594604e-02 -1.347545348107814789e-02
6.737150549888610840e-01 1.248238086700439453e-01 1.493186652660369873e-01
6.297311782836914062e-01 -5.163110047578811646e-02 -7.445488870143890381e-02
4.657713472843170166e-01 2.539000287652015686e-02 -2.295776307582855225e-01
1.801615357398986816e-01 1.897992193698883057e-01 3.888028115034103394e-02
5.971884727478027344e-01 3.368824347853660583e-02 -2.428400218486785889e-01
2.554730772972106934e-01 1.285954266786575317e-01 2.678226232528686523e-01
2.457424700260162354e-01 1.762787997722625732e-02 1.233100965619087219e-01
3.617612123489379883e-01 7.337335497140884399e-02 -2.297525107860565186e-01
3.846223354339599609e-01 2.055455148220062256e-01 -3.469378501176834106e-02
4.988739788532257080e-01 -4.014423489570617676e-02 -9.494157135486602783e-02
3.279197216033935547e-01 -2.665981650352478027e-03 1.743793487548828125e-01
5.620834827423095703e-01 1.768504381179809570e-01 -6.275802105665206909e-02
2.031956017017364502e-01 7.360258698463439941e-02 2.152272164821624756e-01
5.188477635383605957e-01 -4.442464560270309448e-02 1.446886807680130005e-01
2.088317275047302246e-01 1.653827279806137085e-01 2.017092406749725342e-01
5.312026739120483398e-01 -4.120134562253952026e-02 1.631183773279190063e-01
7.266411781311035156e-01 -4.645567387342453003e-02 4.890878126025199890e-02
2.984308898448944092e-01 1.001809537410736084e-02 1.850859075784683228e-01
7.193343043327331543e-01 1.215317100286483765e-01 6.487632542848587036e-02
5.666215419769287109e-01 -5.171460658311843872e-02 1.175622269511222839e-01
3.660140931606292725e-01 -8.548922836780548096e-03 -1.075471192598342896e-01
4.705822467803955078e-01 -3.198656439781188965e-02 1.780641376972198486e-01
7.130962610244750977e-01 9.429038316011428833e-02 -1.591158956289291382e-01
7.161678075790405273e-01 3.820599988102912903e-02 2.101166397333145142e-01
4.883982837200164795e-01 1.855059117078781128e-01 1.397819966077804565e-01
7.286373972892761230e-01 -4.362556338310241699e-02 -5.084941536188125610e-02
8.103305697441101074e-01 5.602386593818664551e-02 -1.915996707975864410e-02
1.350794434547424316e-01 1.034999936819076538e-01 1.357406973838806152e-01
6.390616297721862793e-01 1.524198949337005615e-01 9.477832168340682983e-02
5.338014364242553711e-01 1.606498062610626221e-01 -1.593536287546157837e-01
6.676437854766845703e-01 1.486513763666152954e-01 1.647607237100601196e-02
3.937367796897888184e-01 7.657027244567871094e-02 3.130331933498382568e-01
7.162470817565917969e-01 8.990815281867980957e-02 1.700806766748428345e-01
1.455159187316894531e-01 7.837033271789550781e-02 1.426534261554479599e-02
4.531109333038330078e-01 1.464403867721557617e-01 -2.113448381423950195e-01
6.337240338325500488e-01 1.600290834903717041e-01 4.167446121573448181e-02
6.361706256866455078e-01 1.358181089162826538e-01 1.670778393745422363e-01
6.517217159271240234e-01 -3.808617591857910156e-03 2.276445776224136353e-01
2.618081569671630859e-01 3.575132414698600769e-02 -1.140589118003845215e-01
6.985215544700622559e-01 -1.329198479652404785e-03 2.036726921796798706e-01
5.082523822784423828e-01 8.387083560228347778e-02 -2.575606107711791992e-01
4.587977826595306396e-01 2.013853192329406738e-01 2.062313817441463470e-02
5.380467176437377930e-01 6.167721748352050781e-02 -2.574071586132049561e-01
7.280064821243286133e-01 -1.541893184185028076e-02 -1.451709121465682983e-01
3.572634160518646240e-01 1.688818633556365967e-01 2.399058043956756592e-01
4.584896564483642578e-01 -4.631547629833221436e-02 -1.136085018515586853e-03
5.212517380714416504e-01 -3.504190593957901001e-02 -1.268443316221237183e-01
7.601024508476257324e-01 6.055410578846931458e-02 -1.470849663019180298e-01
6.438450217247009277e-01 -4.621644318103790283e-02 -9.882824122905731201e-02
6.120717525482177734e-01 1.250120401382446289e-01 2.160357832908630371e-01
7.119342684745788574e-01 -4.510356485843658447e-02 -6.426361203193664551e-02
1.854478120803833008e-01 4.407412558794021606e-02 6.863378733396530151e-02
6.589204072952270508e-01 -4.775660485029220581e-02 1.190059185028076172e-01
4.491393268108367920e-01 -3.642380237579345703e-03 2.477462887763977051e-01
6.561871767044067383e-01 -1.504755765199661255e-02 2.095426619052886963e-01
4.221904575824737549e-01 -9.309239685535430908e-03 -1.518731415271759033e-01
3.371950984001159668e-01 -1.363682746887207031e-02 1.333387196063995361e-01
4.411785602569580078e-01 1.943515539169311523e-01 -8.310031145811080933e-02
3.836180567741394043e-01 5.835149437189102173e-02 3.053469955921173096e-01
4.154664874076843262e-01 1.248718500137329102e-01 -2.344506680965423584e-01
5.950505733489990234e-01 8.081492036581039429e-02 -2.449096441268920898e-01
3.083264827728271484e-01 2.940359711647033691e-02 2.424902766942977905e-01
4.125409722328186035e-01 -3.816222399473190308e-02 8.407762274146080017e-03
1.314390599727630615e-01 9.487098455429077148e-02 1.014556139707565308e-01
7.440583705902099609e-01 6.154928728938102722e-02 1.703320294618606567e-01
6.918445825576782227e-01 8.626680076122283936e-02 2.032320648431777954e-01
5.604097843170166016e-01 1.691060215234756470e-01 -1.096124351024627686e-01
5.454692840576171875e-01 1.842481493949890137e-01 5.649136379361152649e-02
8.177356719970703125e-01 4.306252673268318176e-02 5.862241610884666443e-03
4.437061846256256104e-01 1.983025521039962769e-01 -5.583182722330093384e-02
3.609871566295623779e-01 2.029246687889099121e-01 1.250831186771392822e-01
2.468404918909072876e-01 1.686373054981231689e-01 -1.284766495227813721e-01
2.938639521598815918e-01 -3.219917416572570801e-04 -3.249619156122207642e-02
7.381457686424255371e-01 1.155490353703498840e-01 -1.813342608511447906e-02
5.970896482467651367e-01 1.265334188938140869e-01 -1.983553469181060791e-01
2.227807939052581787e-01 1.828410029411315918e-01 -7.771359384059906006e-02
3.051522076129913330e-01 1.952459663152694702e-02 2.192723602056503296e-01
7.755084633827209473e-01 1.180039346218109131e-02 -1.342092603445053101e-01
1.668229997158050537e-01 8.728004246950149536e-02 -6.867093592882156372e-02
6.728895306587219238e-01 1.461594700813293457e-01 -1.894100941717624664e-02
6.370554566383361816e-01 1.598157882690429688e-01 1.648490503430366516e-02
8.184832334518432617e-01 8.697517216205596924e-03 -2.818812616169452667e-02
7.607803344726562500e-01 -3.804921358823776245e-02 2.049837261438369751e-02
6.583213210105895996e-01 1.307862102985382080e-01 -1.388461738824844360e-01
3.758384883403778076e-01 1.621105372905731201e-01 2.517162263393402100e-01
5.269057750701904297e-01 1.693927645683288574e-01 1.726949363946914673e-01
3.636900186538696289e-01 1.821525096893310547e-01 -1.418138146400451660e-01
3.842860460281372070e-01 1.902182102203369141e-01 1.786653250455856323e-01
3.641573190689086914e-01 1.847545206546783447e-01 2.005496472120285034e-01
2.691393494606018066e-01 9.269095957279205322e-03 1.325441747903823853e-01
3.661495149135589600e-01 2.065931856632232666e-01 -3.163684904575347900e-02
4.096001386642456055e-01 9.224168956279754639e-03 -1.849565505981445312e-01
4.550738632678985596e-01 -4.063416272401809692e-02 1.237408518791198730e-01
5.882470607757568359e-01 3.640071302652359009e-02 2.827171683311462402e-01
7.404395341873168945e-01 1.050536781549453735e-01 -8.633414655923843384e-02
3.342514336109161377e-01 2.037061452865600586e-01 1.246240884065628052e-01
3.466861844062805176e-01 -8.905060589313507080e-03 -8.293387293815612793e-02
5.330485105514526367e-01 1.793830543756484985e-01 -8.825073391199111938e-02
5.056833624839782715e-01 1.565622165799140930e-02 -2.272680401802062988e-01
5.254796743392944336e-01 1.449863314628601074e-01 2.370081096887588501e-01
5.281814336776733398e-01 1.873225271701812744e-01 6.781358271837234497e-02
3.545196056365966797e-01 -2.455842494964599609e-02 1.868940703570842743e-02
3.159375488758087158e-01 -1.134541630744934082e-02 9.987679123878479004e-02
7.810591459274291992e-01 6.127878278493881226e-02 1.101947352290153503e-01
6.545041203498840332e-01 1.527458131313323975e-01 -2.639672346413135529e-02
3.237817883491516113e-01 1.999170184135437012e-01 1.459205150604248047e-01
3.186796903610229492e-01 5.153939127922058105e-02 2.788685560226440430e-01
3.532621860504150391e-01 1.993223875761032104e-01 -8.029406517744064331e-02
5.394607782363891602e-01 -2.473913133144378662e-03 -2.076736688613891602e-01
1.438025534152984619e-01 9.841826558113098145e-02 -3.474698960781097412e-02
6.299003362655639648e-01 2.493275701999664307e-02 -2.314651012420654297e-01
2.245226204395294189e-01 1.980504393577575684e-01 1.033554077148437500e-01
6.881978511810302734e-01 3.672045841813087463e-02 -2.144099175930023193e-01
5.412419438362121582e-01 1.208170503377914429e-02 -2.274972796440124512e-01
2.353518605232238770e-01 1.464672833681106567e-01 -1.495672911405563354e-01
5.469495654106140137e-01 1.251744329929351807e-01 2.583548724651336670e-01
1.886621117591857910e-01 4.250817373394966125e-02 3.523654490709304810e-02
5.751218795776367188e-01 7.912866771221160889e-03 -2.236417233943939209e-01
2.989495992660522461e-01 2.028495073318481445e-01 1.265167146921157837e-01
6.524878144264221191e-01 1.144469231367111206e-01 1.991458833217620850e-01
3.838725984096527100e-01 2.073328495025634766e-01 7.485651224851608276e-02
4.506733715534210205e-01 2.012977004051208496e-01 6.307078897953033447e-02
8.025756478309631348e-01 6.019599735736846924e-02 -5.425069481134414673e-02
2.190731763839721680e-01 2.953841164708137512e-02 1.179408878087997437e-01
7.755559682846069336e-01 9.075370430946350098e-02 -2.576582320034503937e-02
5.071071386337280273e-01 -5.355570465326309204e-02 8.515920490026473999e-03
2.495464980602264404e-01 1.942612528800964355e-01 1.482050418853759766e-01
4.488832354545593262e-01 1.911078691482543945e-01 1.446550190448760986e-01
5.258575081825256348e-01 1.897171139717102051e-01 2.887541614472866058e-02
2.204201519489288330e-01 1.985452473163604736e-01 3.651864826679229736e-04
2.616208791732788086e-01 2.001567333936691284e-01 1.260902434587478638e-01
6.785308122634887695e-01 9.889619797468185425e-02 1.993506401777267456e-01
7.081012725830078125e-01 1.296776831150054932e-01 4.337770864367485046e-02
7.187122106552124023e-01 1.995953544974327087e-02 -1.906888782978057861e-01
5.491245388984680176e-01 -5.150762945413589478e-02 -6.103431433439254761e-02
2.471836209297180176e-01 2.052632570266723633e-01 3.604324907064437866e-02
3.752359747886657715e-01 -2.597432583570480347e-02 -3.209264576435089111e-02
2.255991101264953613e-01 4.312078654766082764e-02 1.864942461252212524e-01
3.597262501716613770e-01 5.805496871471405029e-02 2.994463443756103516e-01
4.631804525852203369e-01 -4.548392444849014282e-02 -2.313238941133022308e-02
4.062200784683227539e-01 2.038734257221221924e-01 9.381619840860366821e-02
5.313666462898254395e-01 1.063288748264312744e-02 2.756570279598236084e-01
7.214283347129821777e-01 -3.211579471826553345e-02 -1.101071536540985107e-01
6.571437120437622070e-01 1.429734528064727783e-01 1.083324402570724487e-01
1.997792720794677734e-01 3.747705742716789246e-02 9.794491529464721680e-02
2.992775440216064453e-01 2.056601643562316895e-01 1.070227622985839844e-01
5.258049368858337402e-01 8.360818773508071899e-02 3.012844026088714600e-01
5.110053420066833496e-01 1.670033633708953857e-01 -1.534536778926849365e-01
5.981252193450927734e-01 -5.808282643556594849e-02 -2.162786759436130524e-02
2.270977348089218140e-01 7.083007693290710449e-02 2.369547188282012939e-01
5.937674641609191895e-01 -2.392309159040451050e-02 2.133623212575912476e-01
5.750229358673095703e-01 1.783782541751861572e-01 1.193384453654289246e-02
3.350824117660522461e-01 1.446023583412170410e-02 -1.431528329849243164e-01
5.954477787017822266e-01 1.378960013389587402e-01 -1.774295568466186523e-01
3.269517719745635986e-01 -1.657945662736892700e-02 2.014086581766605377e-02
4.787237346172332764e-01 1.694870591163635254e-01 2.054666280746459961e-01
4.916989505290985107e-01 1.896753013134002686e-01 -7.118007540702819824e-02
2.076826691627502441e-01 8.327146619558334351e-02 -1.244368553161621094e-01
6.636123061180114746e-01 1.487809419631958008e-01 4.662264510989189148e-02
2.179883122444152832e-01 3.033876419067382812e-02 -1.023562811315059662e-02
2.151468992233276367e-01 2.863221243023872375e-02 1.759948022663593292e-02
7.116324901580810547e-01 8.253666758537292480e-02 1.866134256124496460e-01
5.119272470474243164e-01 2.351388335227966309e-03 2.659540474414825439e-01
1.552696526050567627e-01 1.744053661823272705e-01 1.661272719502449036e-03
8.037812709808349609e-01 3.750582411885261536e-02 8.487055450677871704e-02
5.670065879821777344e-01 1.514752060174942017e-01 1.938205510377883911e-01
2.047479748725891113e-01 1.914356499910354614e-01 -2.201276458799839020e-02
6.313257813453674316e-01 -3.040544688701629639e-02 -1.531735062599182129e-01
7.278357148170471191e-01 3.752434626221656799e-02 -1.891556978225708008e-01
7.950005531311035156e-01 6.483495235443115234e-03 -9.969776868820190430e-02
6.159667968750000000e-01 6.528776139020919800e-02 -2.435120940208435059e-01
3.533555865287780762e-01 2.102471292018890381e-01 2.598102018237113953e-02
6.157518625259399414e-01 -5.929278582334518433e-02 -8.671898394823074341e-04
1.228273212909698486e-01 1.366769820451736450e-01 1.083462089300155640e-01
4.178920090198516846e-01 -8.169561624526977539e-05 2.448375225067138672e-01
2.031128108501434326e-01 1.939808428287506104e-01 9.768507629632949829e-02
5.961748361587524414e-01 -5.873452872037887573e-02 5.600731074810028076e-02
4.906747639179229736e-01 -1.664414256811141968e-02 2.295130044221878052e-01
3.102836310863494873e-01 1.888212859630584717e-01 1.883706450462341309e-01
3.524544835090637207e-01 -1.278235018253326416e-02 1.611072421073913574e-01
8.008375167846679688e-01 1.597351208329200745e-02 9.455596655607223511e-02
1.417199969291687012e-01 1.407869905233383179e-01 -4.261409491300582886e-02
1.857597827911376953e-01 4.690562188625335693e-02 1.063082143664360046e-01
3.767667710781097412e-01 -4.931651055812835693e-03 2.117782980203628540e-01
3.964695930480957031e-01 -1.961917430162429810e-02 1.774571239948272705e-01
5.861538648605346680e-01 1.847320422530174255e-02 2.731729745864868164e-01
2.889810204505920410e-01 7.686892896890640259e-02 -1.925451606512069702e-01
4.755672514438629150e-01 1.923618912696838379e-01 1.132051050662994385e-01
2.051795721054077148e-01 1.752373576164245605e-01 -8.025025576353073120e-02
6.434348821640014648e-01 1.114660501480102539e-01 -1.937218904495239258e-01
4.764720797538757324e-01 1.318204700946807861e-01 2.776452898979187012e-01
6.875617504119873047e-01 -3.814817219972610474e-02 1.385079175233840942e-01
3.991604447364807129e-01 -2.062320709228515625e-05 -1.596491187810897827e-01
4.182699024677276611e-01 1.412124931812286377e-01 -2.188543230295181274e-01
4.233082830905914307e-01 -3.196079283952713013e-02 -6.872110068798065186e-02
8.217491507530212402e-01 1.751652732491493225e-02 9.178059175610542297e-03
6.730772256851196289e-01 -5.420248955488204956e-02 -3.583373874425888062e-02
4.517742097377777100e-01 1.853138208389282227e-01 -1.194187998771667480e-01
5.409788489341735840e-01 6.944853067398071289e-02 3.006319105625152588e-01
5.917515754699707031e-01 1.500291228294372559e-01 1.747102141380310059e-01
3.932766020298004150e-01 1.000493764877319336e-01 3.111532628536224365e-01
6.916710138320922852e-01 1.919296011328697205e-02 2.246721982955932617e-01
3.598127365112304688e-01 4.210107028484344482e-02 -2.056345492601394653e-01
8.058757781982421875e-01 -9.605549275875091553e-03 -3.306033462285995483e-02
4.867023825645446777e-01 1.914688572287559509e-02 -2.276316285133361816e-01
2.582076787948608398e-01 1.170314699411392212e-01 -1.808491498231887817e-01
4.399911463260650635e-01 1.560363471508026123e-01 -1.971262097358703613e-01
6.732046008110046387e-01 6.410695612430572510e-03 -2.035313695669174194e-01
2.878861725330352783e-01 5.205820500850677490e-02 -1.686747670173645020e-01
1.550573706626892090e-01 1.490620076656341553e-01 1.694015115499496460e-01
5.502901077270507812e-01 1.535011827945709229e-01 -1.688394248485565186e-01
3.124807178974151611e-01 1.567736864089965820e-01 -1.789690256118774414e-01
1.446544826030731201e-01 7.513803243637084961e-02 5.987544357776641846e-02
2.155209779739379883e-01 1.281645298004150391e-01 2.453410625457763672e-01
3.957944810390472412e-01 2.083842456340789795e-02 2.729526162147521973e-01
6.690785288810729980e-01 -5.178301781415939331e-02 -5.905116349458694458e-02
2.929669022560119629e-01 8.643276989459991455e-03 -7.584749907255172729e-02
6.485970020294189453e-01 -4.996717721223831177e-02 -7.934863865375518799e-02
4.132809937000274658e-01 1.953534781932830811e-01 -9.030459821224212646e-02
6.182829737663269043e-01 1.370717734098434448e-01 -1.621316820383071899e-01
5.019707679748535156e-01 1.800873130559921265e-01 1.526681929826736450e-01
3.638142347335815430e-01 3.484897315502166748e-03 2.253694534301757812e-01
2.846217453479766846e-01 9.857308864593505859e-02 2.876845896244049072e-01
4.485299587249755859e-01 9.464341402053833008e-02 -2.530473470687866211e-01
4.005604386329650879e-01 -1.659232378005981445e-02 -1.132281571626663208e-01
6.299532651901245117e-01 1.214122027158737183e-01 2.073729783296585083e-01
4.736730158329010010e-01 1.103603541851043701e-01 2.993283271789550781e-01
5.400615334510803223e-01 -3.101012855768203735e-02 1.992153674364089966e-01
4.314013719558715820e-01 2.038569152355194092e-01 6.077885627746582031e-02
8.096472024917602539e-01 4.309021681547164917e-02 -6.605454534292221069e-02
6.347366571426391602e-01 -4.491500556468963623e-03 -2.017496824264526367e-01
2.354423701763153076e-01 1.431237310171127319e-01 2.473946958780288696e-01
3.049354553222656250e-01 -1.009735465049743652e-02 4.292391240596771240e-02
6.842007637023925781e-01 3.794167563319206238e-02 2.352674007415771484e-01
3.679811358451843262e-01 -1.317016035318374634e-02 1.768529713153839111e-01
6.045692563056945801e-01 1.518929004669189453e-01 1.539541333913803101e-01
7.173810005187988281e-01 -2.349951863288879395e-02 1.543183326721191406e-01
6.547199487686157227e-01 -3.581415116786956787e-02 -1.334118992090225220e-01
7.907475829124450684e-01 6.135394796729087830e-02 -9.089136868715286255e-02
6.310458779335021973e-01 1.585325300693511963e-01 7.053502649068832397e-02
4.429253935813903809e-01 1.193434149026870728e-01 -2.406639754772186279e-01
7.362702488899230957e-01 -4.550332576036453247e-02 2.672017365694046021e-02
5.751066803932189941e-01 -2.899000793695449829e-02 -1.579785346984863281e-01
4.205235540866851807e-01 -3.976190090179443359e-02 6.985972821712493896e-02
2.966642975807189941e-01 1.362205594778060913e-01 2.773155272006988525e-01
3.863185942173004150e-01 1.766730546951293945e-01 2.193198502063751221e-01
3.701418638229370117e-01 2.091129124164581299e-01 4.746844992041587830e-03
7.826526165008544922e-01 2.284615114331245422e-02 1.313172280788421631e-01
2.620755136013031006e-01 2.005081474781036377e-01 -4.018581658601760864e-02
5.430057048797607422e-01 1.792872548103332520e-01 1.081743910908699036e-01
4.969429671764373779e-01 -4.572065919637680054e-02 1.258652210235595703e-01
5.716841816902160645e-01 -5.280159413814544678e-03 -2.058206945657730103e-01
3.595699071884155273e-01 1.542479693889617920e-01 -1.953142285346984863e-01
3.333930373191833496e-01 7.512818276882171631e-02 3.002417087554931641e-01
4.195578098297119141e-01 1.948065161705017090e-01 1.450310945510864258e-01
6.156069636344909668e-01 -4.841836541891098022e-02 1.330261081457138062e-01
2.972585558891296387e-01 -1.714758574962615967e-03 1.288113296031951904e-01
4.647409915924072266e-01 1.848036348819732666e-01 1.620993465185165405e-01
5.123528242111206055e-01 -5.438878387212753296e-02 4.306899383664131165e-02
4.587726593017578125e-01 1.728275716304779053e-01 -1.573490202426910400e-01
5.175302028656005859e-01 -4.860553145408630371e-02 1.197765544056892395e-01
2.854588627815246582e-01 2.056761085987091064e-01 -2.191685698926448822e-02
7.225002050399780273e-01 1.056742295622825623e-01 1.254882216453552246e-01
6.928694248199462891e-01 -4.893434047698974609e-02 8.532074093818664551e-02
5.554094314575195312e-01 1.644440293312072754e-01 -1.328091025352478027e-01
3.433372080326080322e-01 1.456491649150848389e-03 2.044159621000289917e-01
6.001523137092590332e-01 1.704736649990081787e-01 -2.389026619493961334e-02
4.403381347656250000e-01 1.904343962669372559e-01 -1.029365658760070801e-01
5.276943445205688477e-01 -5.113167315721511841e-02 -4.981714487075805664e-02
3.671841919422149658e-01 1.511321365833282471e-01 2.695602774620056152e-01
6.578215956687927246e-01 -4.201681166887283325e-02 1.433847546577453613e-01
3.058916926383972168e-01 -5.890354514122009277e-04 1.521337032318115234e-01
7.079638242721557617e-01 3.414075076580047607e-02 -2.026204019784927368e-01
5.679595470428466797e-01 -1.549401879310607910e-02 -1.878252029418945312e-01
4.129694104194641113e-01 2.042913734912872314e-01 -2.810153923928737640e-02
5.178533196449279785e-01 1.911112368106842041e-01 -2.934239804744720459e-03
6.525747776031494141e-01 1.225896030664443970e-01 -1.657528728246688843e-01
7.529221773147583008e-01 -3.472424298524856567e-02 -6.251698732376098633e-02
5.434467196464538574e-01 1.802601814270019531e-01 -6.896800547838211060e-02
3.791171908378601074e-01 1.667428016662597656e-01 -1.778287291526794434e-01
5.798993110656738281e-01 -5.926027148962020874e-02 2.016233094036579132e-02
2.835993766784667969e-01 -1.586005091667175293e-04 -2.311227843165397644e-03
3.082255423069000244e-01 1.651048064231872559e-01 2.437331080436706543e-01
1.831951141357421875e-01 1.649549603462219238e-01 1.794119179248809814e-01
7.556862235069274902e-01 -3.693508356809616089e-02 -4.292502254247665405e-02
5.615897178649902344e-01 1.719229519367218018e-01 1.236967146396636963e-01
1.527978479862213135e-01 1.177759170532226562e-01 1.823167800903320312e-01
2.152669727802276611e-01 1.072682887315750122e-01 -1.463136523962020874e-01
2.915146350860595703e-01 4.172690212726593018e-03 -5.324065685272216797e-02
2.628297805786132812e-01 1.670357957482337952e-02 1.575119793415069580e-01
2.803149223327636719e-01 1.139628589153289795e-01 -1.951448470354080200e-01
5.632432699203491211e-01 1.349051892757415771e-01 2.334791421890258789e-01
3.400256037712097168e-01 2.062812149524688721e-01 1.054945513606071472e-01
6.123692989349365234e-01 -2.150423824787139893e-03 -2.085138708353042603e-01
5.764465928077697754e-01 -5.773156136274337769e-02 6.632699072360992432e-02
1.285404264926910400e-01 1.262346804141998291e-01 -1.562228240072727203e-02
7.037934064865112305e-01 1.227488368749618530e-01 1.025047749280929565e-01
3.990976512432098389e-01 9.332373738288879395e-04 2.390655428171157837e-01
6.277229785919189453e-01 1.558281183242797852e-01 -8.103039115667343140e-02
7.734913229942321777e-01 3.217327594757080078e-02 -1.437771171331405640e-01
4.947943389415740967e-01 -4.986215382814407349e-02 9.013284742832183838e-02
6.449366211891174316e-01 6.915861368179321289e-02 2.547125816345214844e-01
1.656747460365295410e-01 1.783154457807540894e-01 1.137058362364768982e-01
7.341475486755371094e-01 1.191923022270202637e-02 1.862191259860992432e-01
4.082692265510559082e-01 2.059110999107360840e-01 6.695068627595901489e-02
6.368902921676635742e-01 2.488823235034942627e-02 2.586442828178405762e-01
4.026032686233520508e-01 3.543492406606674194e-02 -2.189721614122390747e-01
7.814537286758422852e-01 -1.202678680419921875e-02 9.730432182550430298e-02
5.027600526809692383e-01 -4.607329517602920532e-02 -6.555574387311935425e-02
5.386469364166259766e-01 1.566939651966094971e-01 2.022144645452499390e-01
4.399106204509735107e-01 2.142044156789779663e-02 2.843938171863555908e-01
7.580599784851074219e-01 -4.324607551097869873e-03 1.453050225973129272e-01
6.799353957176208496e-01 -5.519121140241622925e-02 4.178244993090629578e-02
7.647798061370849609e-01 7.485061883926391602e-02 1.197622790932655334e-01
5.217490196228027344e-01 -1.225302368402481079e-02 -1.871680468320846558e-01
1.325959563255310059e-01 9.809651970863342285e-02 2.240398898720741272e-03
5.023284554481506348e-01 -3.538943082094192505e-02 1.778794527053833008e-01
7.669628858566284180e-01 9.324833750724792480e-02 5.480498820543289185e-02
4.185542762279510498e-01 2.201262861490249634e-02 -2.094474136829376221e-01
6.532070040702819824e-01 6.084310635924339294e-02 -2.305264174938201904e-01
6.896747946739196777e-01 1.390755027532577515e-01 2.996634133160114288e-02
3.650154471397399902e-01 1.077837496995925903e-01 3.063963055610656738e-01
7.780178189277648926e-01 -2.975200116634368896e-02 3.249058872461318970e-02
3.448048830032348633e-01 1.161097064614295959e-01 3.002216517925262451e-01
2.998802661895751953e-01 5.806642025709152222e-02 -1.848545521497726440e-01
4.871381521224975586e-01 -5.079438537359237671e-02 2.088669687509536743e-03
5.465034842491149902e-01 1.852154284715652466e-01 2.909107133746147156e-03
6.132520437240600586e-01 1.459041535854339600e-01 -1.421232968568801880e-01
1.875477433204650879e-01 1.760784834623336792e-01 1.576094329357147217e-01
2.748764157295227051e-01 1.740636527538299561e-01 -1.345607042312622070e-01
4.332103133201599121e-01 -3.700616955757141113e-02 1.241215318441390991e-01
2.327514886856079102e-01 2.020403146743774414e-01 7.703212648630142212e-02
6.295081973075866699e-01 -2.000555396080017090e-02 2.117023319005966187e-01
2.464200556278228760e-01 6.099744886159896851e-02 2.425651252269744873e-01
7.440536618232727051e-01 9.791577607393264771e-02 -1.038170307874679565e-01
7.959876060485839844e-01 6.441913545131683350e-02 6.208139657974243164e-02
6.820927262306213379e-01 1.280541568994522095e-01 1.249879375100135803e-01
5.130133032798767090e-01 5.957986786961555481e-02 3.069589734077453613e-01
2.622568905353546143e-01 2.069390714168548584e-01 5.611626803874969482e-02
2.364382296800613403e-01 3.991703316569328308e-02 -8.884532749652862549e-02
4.003355503082275391e-01 2.064529359340667725e-01 -1.266415230929851532e-02
7.416459321975708008e-01 1.023177057504653931e-02 -1.675086319446563721e-01
5.666608810424804688e-01 1.466044336557388306e-01 -1.759431511163711548e-01
7.242038846015930176e-01 -9.058415889739990234e-03 1.739929765462875366e-01
1.768060028553009033e-01 1.813732683658599854e-01 -2.030611969530582428e-02
1.972261369228363037e-01 1.391113996505737305e-01 2.251230031251907349e-01
6.433393955230712891e-01 -2.064390480518341064e-02 -1.730713248252868652e-01
8.195061683654785156e-01 3.631044551730155945e-02 -2.387551777064800262e-02
4.771178662776947021e-01 8.929251134395599365e-02 -2.562892735004425049e-01
2.254884541034698486e-01 2.231493964791297913e-02 3.449464961886405945e-02
6.165689229965209961e-01 1.605828106403350830e-01 9.282305091619491577e-02
1.760336458683013916e-01 7.619564980268478394e-02 1.806904226541519165e-01
1.811567842960357666e-01 8.455634862184524536e-02 -8.958582580089569092e-02
2.491783499717712402e-01 1.923030614852905273e-02 1.416299790143966675e-01
1.270305514335632324e-01 1.568626016378402710e-01 5.349427461624145508e-02
2.723610997200012207e-01 9.617055952548980713e-02 -1.896235495805740356e-01
2.312840968370437622e-01 1.545060873031616211e-01 2.327271699905395508e-01
3.397728800773620605e-01 5.786216631531715393e-02 2.929817140102386475e-01
2.991472482681274414e-01 1.504415273666381836e-01 2.634347379207611084e-01
3.000770807266235352e-01 2.016263306140899658e-01 -5.729610472917556763e-02
6.527937054634094238e-01 1.357332468032836914e-01 1.452549248933792114e-01
3.089551329612731934e-01 1.678955107927322388e-01 -1.605987399816513062e-01
7.629562616348266602e-01 3.554618358612060547e-02 1.599183976650238037e-01
1.248274743556976318e-01 9.998613595962524414e-02 5.376882106065750122e-02
6.166472434997558594e-01 -1.549354195594787598e-02 -1.870779097080230713e-01
4.771036207675933838e-01 1.440746188163757324e-01 -2.119570225477218628e-01
