8.560592532157897949e-01 -2.050182521343231201e-01 1.136048808693885803e-01
6.905809640884399414e-01 -1.755522787570953369e-01 -2.685096263885498047e-01
3.957483470439910889e-01 -1.809254437685012817e-01 -1.540873944759368896e-01
6.716547608375549316e-01 -2.073657214641571045e-01 -6.017543673515319824e-01
4.587484002113342285e-01 -2.404466569423675537e-01 -9.271245449781417847e-02
4.401755928993225098e-01 -2.257753014564514160e-01 -4.867377877235412598e-01
5.960507392883300781e-01 -2.455704808235168457e-01 1.802683770656585693e-01
8.116295337677001953e-01 -2.264344990253448486e-01 2.942581176757812500e-01
5.557001829147338867e-01 -1.906384229660034180e-01 5.612437129020690918e-01
7.249497771263122559e-01 -2.426282614469528198e-01 -2.006041705608367920e-01
7.520088553428649902e-01 -2.105794548988342285e-01 5.500288009643554688e-01
8.190771341323852539e-01 -1.939232200384140015e-01 -1.580975949764251709e-01
5.241637825965881348e-01 -2.304809391498565674e-01 -5.540874600410461426e-01
4.848057031631469727e-01 -2.297665476799011230e-01 -5.215178728103637695e-01
5.725849866867065430e-01 -2.317911237478256226e-01 4.515292644500732422e-01
7.072848081588745117e-01 -2.326027899980545044e-01 -4.492362141609191895e-01
3.748544156551361084e-01 -1.871608495712280273e-01 5.862213671207427979e-02
4.563645124435424805e-01 -1.737704128026962280e-01 -2.157849371433258057e-01
7.459469437599182129e-01 -2.386571466922760010e-01 2.565298378467559814e-01
7.421357631683349609e-01 -1.968297511339187622e-01 5.470150709152221680e-01
6.971637606620788574e-01 -2.436231672763824463e-01 2.081491947174072266e-01
5.785238146781921387e-01 -2.323687374591827393e-01 -5.535815954208374023e-01
7.343677878379821777e-01 -2.436989098787307739e-01 6.531774252653121948e-02
3.891367018222808838e-01 -1.820687651634216309e-01 8.480647578835487366e-03
4.878079295158386230e-01 -2.403375059366226196e-01 1.329661905765533447e-01
8.459369540214538574e-01 -1.987473964691162109e-01 -1.079007983207702637e-02
7.729998230934143066e-01 -1.872206628322601318e-01 -2.633565366268157959e-01
7.388175129890441895e-01 -1.737773716449737549e-01 7.084552943706512451e-02
7.329505681991577148e-01 -2.435251027345657349e-01 9.323778748512268066e-02
8.064544200897216797e-01 -1.936068534851074219e-01 -2.210446596145629883e-01
5.660078525543212891e-01 -1.731308847665786743e-01 -3.462097644805908203e-01
8.118920326232910156e-01 -2.318552434444427490e-01 1.501648426055908203e-01
5.209887623786926270e-01 -1.980397999286651611e-01 5.563966035842895508e-01
3.610259294509887695e-01 -1.925383210182189941e-01 4.844386875629425049e-02
6.541544795036315918e-01 -1.675834208726882935e-01 -1.446411013603210449e-02
7.218528389930725098e-01 -1.720484793186187744e-01 9.133093804121017456e-02
5.362603068351745605e-01 -2.426067888736724854e-01 1.936594247817993164e-01
3.694246411323547363e-01 -2.190202176570892334e-01 -2.942926585674285889e-01
7.410530447959899902e-01 -2.369781434535980225e-01 -3.076083362102508545e-01
4.057798981666564941e-01 -1.787544637918472290e-01 2.038218826055526733e-02
6.528340578079223633e-01 -1.885650306940078735e-01 -5.239250659942626953e-01
5.649350881576538086e-01 -2.478393167257308960e-01 -2.757664583623409271e-02
6.762788295745849609e-01 -1.714763194322586060e-01 2.830592989921569824e-01
5.113832950592041016e-01 -2.013000547885894775e-01 -6.337936520576477051e-01
7.474462985992431641e-01 -2.400186359882354736e-01 2.075470685958862305e-01
3.688825070858001709e-01 -1.912822276353836060e-01 -2.637496292591094971e-01
6.438809037208557129e-01 -1.728298813104629517e-01 3.631330132484436035e-01
7.814234495162963867e-01 -2.373285293579101562e-01 -1.152693480253219604e-01
5.682055950164794922e-01 -2.470043748617172241e-01 6.937058269977569580e-02
3.691705167293548584e-01 -1.871651858091354370e-01 -2.545918524265289307e-02
5.484087467193603516e-01 -1.701614707708358765e-01 2.731533944606781006e-01
5.685050487518310547e-01 -1.664579808712005615e-01 1.183308139443397522e-01
3.885619044303894043e-01 -1.908328980207443237e-01 2.108374834060668945e-01
6.802216768264770508e-01 -1.746902465820312500e-01 3.696183860301971436e-01
6.024554967880249023e-01 -1.841589659452438354e-01 5.380833148956298828e-01
5.727645754814147949e-01 -2.450867295265197754e-01 -3.099449574947357178e-01
6.227657794952392578e-01 -1.686846464872360229e-01 -1.762454509735107422e-01
6.256117224693298340e-01 -1.665799170732498169e-01 -2.274006605148315430e-02
4.165205359458923340e-01 -2.306588739156723022e-01 -3.299164474010467529e-01
6.202337741851806641e-01 -1.820312440395355225e-01 -4.793752729892730713e-01
6.511586308479309082e-01 -1.813046932220458984e-01 5.042837858200073242e-01
6.868444085121154785e-01 -1.703269779682159424e-01 -8.664909750223159790e-02
6.299903988838195801e-01 -2.439026683568954468e-01 2.507402300834655762e-01
7.071341276168823242e-01 -2.444908022880554199e-01 -1.846666038036346436e-01
6.796704530715942383e-01 -2.228281795978546143e-01 -5.664572119712829590e-01
6.751580238342285156e-01 -1.685945689678192139e-01 1.066537499427795410e-01
5.672480463981628418e-01 -1.841427534818649292e-01 -5.263351202011108398e-01
8.378261327743530273e-01 -1.942226439714431763e-01 1.526002585887908936e-02
5.085270404815673828e-01 -1.685011386871337891e-01 1.104005202651023865e-01
6.990274786949157715e-01 -1.844185590744018555e-01 5.053185224533081055e-01
6.230345964431762695e-01 -1.910088211297988892e-01 -5.702068805694580078e-01
4.773178100585937500e-01 -1.970620900392532349e-01 -5.909628272056579590e-01
7.926628589630126953e-01 -2.210287153720855713e-01 -3.445343673229217529e-01
5.845913290977478027e-01 -1.781770884990692139e-01 4.636227488517761230e-01
5.112627148628234863e-01 -2.447520494461059570e-01 4.328316077589988708e-03
5.914363265037536621e-01 -2.153550386428833008e-01 -6.521736383438110352e-01
5.241938233375549316e-01 -1.768256574869155884e-01 -4.099917411804199219e-01
8.027061820030212402e-01 -1.838991791009902954e-01 3.276203945279121399e-02
7.657111883163452148e-01 -2.401831448078155518e-01 -8.312066644430160522e-02
7.253214716911315918e-01 -1.754976809024810791e-01 2.925818860530853271e-01
5.289085507392883301e-01 -1.925716400146484375e-01 -5.976092815399169922e-01
6.809805035591125488e-01 -2.450552284717559814e-01 1.782991886138916016e-01
7.649551630020141602e-01 -1.775857359170913696e-01 -7.957095280289649963e-03
6.755202412605285645e-01 -1.691397428512573242e-01 1.658190488815307617e-01
5.488267540931701660e-01 -1.876698285341262817e-01 -5.624726414680480957e-01
4.694845676422119141e-01 -1.811977624893188477e-01 -4.275998771190643311e-01
5.209640860557556152e-01 -1.752764433622360229e-01 3.589365184307098389e-01
7.161769270896911621e-01 -1.750418096780776978e-01 -1.804576814174652100e-01
5.746387839317321777e-01 -2.471549510955810547e-01 -2.149131298065185547e-01
4.928696751594543457e-01 -2.397246360778808594e-01 -3.552391529083251953e-01
5.229169726371765137e-01 -1.731089651584625244e-01 3.163223862648010254e-01
7.412842512130737305e-01 -1.832412630319595337e-01 -2.987487018108367920e-01
4.809111356735229492e-01 -1.719524115324020386e-01 -2.233024537563323975e-01
7.319981455802917480e-01 -1.732032001018524170e-01 1.772887632250785828e-02
7.592572569847106934e-01 -2.368058860301971436e-01 2.681913375854492188e-01
7.908110618591308594e-01 -1.867548972368240356e-01 -1.777697205543518066e-01
7.656844854354858398e-01 -2.371100187301635742e-01 2.375164031982421875e-01
4.694439470767974854e-01 -2.216486334800720215e-01 4.119988381862640381e-01
6.346933245658874512e-01 -1.893734335899353027e-01 -5.479769110679626465e-01
6.643820405006408691e-01 -2.480544894933700562e-01 -3.687844797968864441e-02
4.858453273773193359e-01 -1.786268651485443115e-01 -4.066709876060485840e-01
3.612753748893737793e-01 -2.173009663820266724e-01 2.400939166545867920e-02
6.509501934051513672e-01 -2.483513355255126953e-01 -7.786313444375991821e-02
6.098675131797790527e-01 -1.790371239185333252e-01 -4.433985054492950439e-01
5.013624429702758789e-01 -2.337322086095809937e-01 -4.914609193801879883e-01
4.128060936927795410e-01 -2.267464101314544678e-01 -3.941761851310729980e-01
6.332571506500244141e-01 -1.704638749361038208e-01 -2.299104630947113037e-01
6.703279614448547363e-01 -2.318785041570663452e-01 -5.089001655578613281e-01
6.428056359291076660e-01 -1.681374311447143555e-01 -1.086137369275093079e-01
5.977466702461242676e-01 -2.479218542575836182e-01 5.813579261302947998e-02
5.997516512870788574e-01 -2.468050867319107056e-01 -2.513248622417449951e-01
5.138113498687744141e-01 -2.454222142696380615e-01 -9.795768558979034424e-02
5.426835417747497559e-01 -2.470355033874511719e-01 -5.561864003539085388e-02
5.881224870681762695e-01 -1.668585389852523804e-01 1.638713777065277100e-01
6.827720403671264648e-01 -1.713873744010925293e-01 -1.559337675571441650e-01
7.910650968551635742e-01 -1.847810745239257812e-01 -1.265490353107452393e-01
5.937116146087646484e-01 -2.449311763048171997e-01 -3.238471746444702148e-01
6.607167124748229980e-01 -2.479205131530761719e-01 -1.078493520617485046e-01
4.396621286869049072e-01 -1.765939295291900635e-01 -2.555761933326721191e-01
7.516575455665588379e-01 -2.403482645750045776e-01 1.774992346763610840e-01
6.778907179832458496e-01 -2.434818893671035767e-01 -2.976513803005218506e-01
3.837981820106506348e-01 -2.205673605203628540e-01 1.386901140213012695e-01
4.736957550048828125e-01 -1.700569242238998413e-01 -3.546159341931343079e-02
3.468183279037475586e-01 -2.118603140115737915e-01 -1.022965386509895325e-01
6.823360919952392578e-01 -1.798959225416183472e-01 -3.742236495018005371e-01
4.882003366947174072e-01 -1.739581078290939331e-01 2.669522762298583984e-01
7.842164635658264160e-01 -1.801277101039886475e-01 8.513132482767105103e-02
8.081492185592651367e-01 -2.079803198575973511e-01 4.356656074523925781e-01
8.337792754173278809e-01 -1.926966309547424316e-01 1.580540537834167480e-01
4.569310545921325684e-01 -1.774206757545471191e-01 -3.305007517337799072e-01
7.061306834220886230e-01 -2.345420569181442261e-01 -4.266209602355957031e-01
8.466249108314514160e-01 -1.976170688867568970e-01 6.045339256525039673e-02
5.983850955963134766e-01 -2.212972044944763184e-01 -6.316027641296386719e-01
4.904227256774902344e-01 -2.260948121547698975e-01 4.098939895629882812e-01
4.967205226421356201e-01 -2.187714725732803345e-01 4.828944802284240723e-01
6.315013170242309570e-01 -2.430060207843780518e-01 2.763866484165191650e-01
6.611872911453247070e-01 -2.406172454357147217e-01 -3.918951749801635742e-01
4.936517477035522461e-01 -2.416369616985321045e-01 -2.920798361301422119e-01
4.839095473289489746e-01 -2.414311021566390991e-01 6.928694993257522583e-02
3.747822642326354980e-01 -2.209044098854064941e-01 7.174713164567947388e-02
6.950700879096984863e-01 -1.701707541942596436e-01 1.465492248535156250e-01
3.486770689487457275e-01 -2.068135738372802734e-01 -2.371569871902465820e-01
4.074718654155731201e-01 -1.977756768465042114e-01 -4.806020259857177734e-01
5.933684110641479492e-01 -1.750430464744567871e-01 4.171008169651031494e-01
8.287915587425231934e-01 -2.262829840183258057e-01 -9.986399114131927490e-02
5.917237401008605957e-01 -2.480976432561874390e-01 -1.637430787086486816e-01
4.725681245326995850e-01 -2.384802550077438354e-01 -3.353439271450042725e-01
6.517707109451293945e-01 -1.672864556312561035e-01 3.165598586201667786e-02
4.866794347763061523e-01 -1.711719036102294922e-01 -2.063315510749816895e-01
3.788576424121856689e-01 -2.243343889713287354e-01 -2.491092085838317871e-01
4.201537370681762695e-01 -1.762222498655319214e-01 9.895933791995048523e-03
7.785458564758300781e-01 -1.800230741500854492e-01 -2.889423444867134094e-02
8.283542394638061523e-01 -2.203350961208343506e-01 2.999618351459503174e-01
4.983268678188323975e-01 -2.433818131685256958e-01 -2.211500406265258789e-01
8.513724803924560547e-01 -2.192088365554809570e-01 8.023285120725631714e-02
7.741322517395019531e-01 -2.287228852510452271e-01 -3.367878794670104980e-01
5.489223599433898926e-01 -1.668814271688461304e-01 1.191200390458106995e-01
6.037239432334899902e-01 -1.927537024021148682e-01 5.971181988716125488e-01
5.989482402801513672e-01 -2.416826933622360229e-01 2.989518344402313232e-01
5.784662365913391113e-01 -2.413280010223388672e-01 -4.162066876888275146e-01
4.195365309715270996e-01 -2.349418252706527710e-01 -9.832929074764251709e-02
6.241165399551391602e-01 -1.753209084272384644e-01 4.236575663089752197e-01
7.840496301651000977e-01 -2.381430864334106445e-01 4.493873193860054016e-02
5.972346067428588867e-01 -1.822355538606643677e-01 5.176416039466857910e-01
4.416477084159851074e-01 -2.382508218288421631e-01 -1.389109194278717041e-01
8.073952794075012207e-01 -1.918276548385620117e-01 -1.894205808639526367e-01
7.089800238609313965e-01 -2.417061626911163330e-01 2.514156997203826904e-01
3.501935005187988281e-01 -2.135593295097351074e-01 -4.920620098710060120e-02
4.129384756088256836e-01 -1.785072088241577148e-01 -1.878260076045989990e-01
3.756408989429473877e-01 -2.191165387630462646e-01 1.109247133135795593e-01
3.835733532905578613e-01 -2.162898629903793335e-01 -4.028483927249908447e-01
4.772644937038421631e-01 -1.937094628810882568e-01 -5.711976885795593262e-01
3.981412649154663086e-01 -1.859723478555679321e-01 -3.239348232746124268e-01
6.264146566390991211e-01 -1.664833873510360718e-01 1.483596861362457275e-04
6.549298167228698730e-01 -2.453989982604980469e-01 1.929398775100708008e-01
5.773184895515441895e-01 -1.723937988281250000e-01 3.570434153079986572e-01
8.489420413970947266e-01 -1.999522596597671509e-01 1.584659218788146973e-01
6.139847040176391602e-01 -1.740854233503341675e-01 -3.485616743564605713e-01
4.529530405998229980e-01 -2.312168031930923462e-01 2.491120398044586182e-01
7.882634997367858887e-01 -2.248050868511199951e-01 3.969341218471527100e-01
5.015918612480163574e-01 -1.768475174903869629e-01 3.557512760162353516e-01
4.231749176979064941e-01 -2.325457483530044556e-01 -3.111692368984222412e-01
6.566788554191589355e-01 -2.405586838722229004e-01 3.321608901023864746e-01
5.746208429336547852e-01 -2.444355338811874390e-01 -3.333000838756561279e-01
6.255321502685546875e-01 -1.686353832483291626e-01 2.435533702373504639e-01
6.451548337936401367e-01 -2.253224998712539673e-01 5.457613468170166016e-01
4.870339035987854004e-01 -1.847856938838958740e-01 -4.991046488285064697e-01
7.620279192924499512e-01 -1.844513714313507080e-01 -2.539329528808593750e-01
4.683305621147155762e-01 -1.837403178215026855e-01 3.876756429672241211e-01
7.377240657806396484e-01 -2.140701860189437866e-01 -5.058176517486572266e-01
6.972225904464721680e-01 -1.708992719650268555e-01 -7.175948470830917358e-02
5.118681788444519043e-01 -2.356936931610107422e-01 -4.738416075706481934e-01
7.571756839752197266e-01 -2.416433990001678467e-01 4.217587783932685852e-02
5.475658178329467773e-01 -2.416311800479888916e-01 2.434473633766174316e-01
8.521057367324829102e-01 -2.086406350135803223e-01 -6.164951249957084656e-02
4.919354915618896484e-01 -1.743898391723632812e-01 -3.237403929233551025e-01
7.485257983207702637e-01 -2.417014241218566895e-01 1.234893724322319031e-01
6.249787211418151855e-01 -1.770797520875930786e-01 -3.991377949714660645e-01
6.709852814674377441e-01 -2.476725876331329346e-01 1.930499449372291565e-02
4.532791972160339355e-01 -1.751275807619094849e-01 1.883883774280548096e-01
5.666689276695251465e-01 -2.438075393438339233e-01 -3.478643000125885010e-01
5.472037196159362793e-01 -2.453529089689254761e-01 -2.682870328426361084e-01
8.103349208831787109e-01 -2.318181991577148438e-01 1.665699183940887451e-01
6.761704683303833008e-01 -1.739867031574249268e-01 -2.595045566558837891e-01
6.513171792030334473e-01 -1.717764139175415039e-01 3.290582597255706787e-01
7.992041707038879395e-01 -2.236667871475219727e-01 -3.015316724777221680e-01
5.088919401168823242e-01 -2.437835335731506348e-01 -2.437810301780700684e-01
4.381015300750732422e-01 -2.371417731046676636e-01 -8.447691798210144043e-03
5.716313123703002930e-01 -2.302195429801940918e-01 -5.748777985572814941e-01
7.314414381980895996e-01 -1.730418801307678223e-01 1.035107597708702087e-01
7.559111714363098145e-01 -2.402223050594329834e-01 1.629036664962768555e-01
5.755266547203063965e-01 -2.383340001106262207e-01 3.522450327873229980e-01
4.794433414936065674e-01 -1.698551625013351440e-01 4.901244491338729858e-02
6.780149936676025391e-01 -1.697437465190887451e-01 1.984806358814239502e-01
6.346263289451599121e-01 -1.677442789077758789e-01 1.865979433059692383e-01
4.066498875617980957e-01 -2.017814815044403076e-01 -4.960707128047943115e-01
8.135288953781127930e-01 -1.928918063640594482e-01 -1.736721098423004150e-01
6.844535470008850098e-01 -1.696713864803314209e-01 -5.147187784314155579e-02
6.970243453979492188e-01 -1.755156964063644409e-01 -2.519578337669372559e-01
5.928564071655273438e-01 -1.712851375341415405e-01 -2.925931215286254883e-01
4.296035766601562500e-01 -2.361351102590560913e-01 -1.910795569419860840e-01
6.666080355644226074e-01 -1.845123618841171265e-01 5.321961641311645508e-01
4.417242407798767090e-01 -1.736804544925689697e-01 5.270514637231826782e-02
7.155233025550842285e-01 -2.403476983308792114e-01 2.787600159645080566e-01
6.821186542510986328e-01 -2.469844371080398560e-01 5.592526495456695557e-02
5.372210144996643066e-01 -1.739387959241867065e-01 -3.577132225036621094e-01
7.307898998260498047e-01 -1.734074503183364868e-01 -2.135748788714408875e-02
7.706969380378723145e-01 -2.306560724973678589e-01 3.630560040473937988e-01
8.013772964477539062e-01 -2.266474217176437378e-01 3.323863148689270020e-01
6.993253231048583984e-01 -2.409167587757110596e-01 2.889209091663360596e-01
6.066662073135375977e-01 -2.295272648334503174e-01 -5.764077901840209961e-01
5.465039014816284180e-01 -2.281112819910049438e-01 4.695272147655487061e-01
5.729036927223205566e-01 -2.430071383714675903e-01 -3.740306198596954346e-01
5.231639742851257324e-01 -2.181394249200820923e-01 5.237083435058593750e-01
8.155239820480346680e-01 -2.067250758409500122e-01 -2.848904430866241455e-01
5.746650695800781250e-01 -1.660229563713073730e-01 7.203578203916549683e-02
6.296783685684204102e-01 -1.723975241184234619e-01 -2.924518287181854248e-01
7.444869279861450195e-01 -1.798845082521438599e-01 -2.178464233875274658e-01
5.842387676239013672e-01 -2.285619676113128662e-01 4.972785115242004395e-01
7.589637637138366699e-01 -1.814563572406768799e-01 -2.005031704902648926e-01
5.354250073432922363e-01 -2.178109586238861084e-01 -6.432624459266662598e-01
6.252244710922241211e-01 -2.479394972324371338e-01 7.324319332838058472e-02
7.614958286285400391e-01 -1.892021596431732178e-01 4.571865797042846680e-01
4.331374168395996094e-01 -1.755479276180267334e-01 -1.812186837196350098e-01
5.390620231628417969e-01 -1.797911077737808228e-01 -4.664003551006317139e-01
6.240754127502441406e-01 -2.481250315904617310e-01 5.817408859729766846e-02
6.945280432701110840e-01 -1.707402616739273071e-01 1.950033903121948242e-01
5.419780015945434570e-01 -1.665425896644592285e-01 5.285382270812988281e-02
7.123992443084716797e-01 -2.383139431476593018e-01 3.329631090164184570e-01
6.926478147506713867e-01 -1.728237569332122803e-01 -1.814287006855010986e-01
4.327679872512817383e-01 -1.954255700111389160e-01 -5.206519365310668945e-01
4.738152027130126953e-01 -1.700824797153472900e-01 8.330183103680610657e-03
4.173570275306701660e-01 -1.768968403339385986e-01 -1.303522437810897827e-01
4.086275696754455566e-01 -2.221366167068481445e-01 -4.407314062118530273e-01
5.487506389617919922e-01 -2.303292155265808105e-01 -5.688098073005676270e-01
6.584362983703613281e-01 -1.811031997203826904e-01 -4.287402927875518799e-01
4.491503834724426270e-01 -1.731656342744827271e-01 -1.468099355697631836e-01
5.622736811637878418e-01 -2.178811281919479370e-01 5.645290613174438477e-01
4.137721955776214600e-01 -1.841074228286743164e-01 -3.484023213386535645e-01
4.155371785163879395e-01 -2.212313264608383179e-01 -4.701990485191345215e-01
5.403569936752319336e-01 -1.667626500129699707e-01 -6.482410430908203125e-02
4.503898918628692627e-01 -1.734906435012817383e-01 -1.744697093963623047e-01
5.762929320335388184e-01 -2.007544487714767456e-01 -6.436657905578613281e-01
5.691574811935424805e-01 -1.668060570955276489e-01 -1.112518608570098877e-01
3.962768614292144775e-01 -2.304777055978775024e-01 -1.305458247661590576e-01
5.889159440994262695e-01 -1.692242920398712158e-01 2.738436162471771240e-01
4.721129834651947021e-01 -1.751257628202438354e-01 -3.064595460891723633e-01
8.546648025512695312e-01 -2.038528174161911011e-01 3.103357553482055664e-02
7.235969305038452148e-01 -2.329995334148406982e-01 -4.138893187046051025e-01
7.807950377464294434e-01 -2.232407629489898682e-01 -3.675886988639831543e-01
8.062353730201721191e-01 -2.311379909515380859e-01 -1.543079912662506104e-01
4.967937469482421875e-01 -2.389365583658218384e-01 -3.851494789123535156e-01
3.640103042125701904e-01 -2.212650626897811890e-01 -9.435862302780151367e-02
6.423817873001098633e-01 -1.755640655755996704e-01 4.219522178173065186e-01
6.997632384300231934e-01 -1.708320975303649902e-01 -5.171604454517364502e-02
5.449866056442260742e-01 -1.743191480636596680e-01 -3.694931864738464355e-01
5.635160803794860840e-01 -2.430786192417144775e-01 2.267347276210784912e-01
8.466721177101135254e-01 -2.204931825399398804e-01 1.500772535800933838e-01
6.023494005203247070e-01 -1.677823066711425781e-01 2.162766158580780029e-01
4.298884868621826172e-01 -2.252596914768218994e-01 -4.676612317562103271e-01
4.620220065116882324e-01 -2.290153950452804565e-01 -4.937945008277893066e-01
6.103886365890502930e-01 -1.663094311952590942e-01 -3.509782999753952026e-02
3.846758008003234863e-01 -1.861822605133056641e-01 -2.588956058025360107e-01
4.596052765846252441e-01 -1.921873539686203003e-01 -5.396588444709777832e-01
5.707768797874450684e-01 -2.152446210384368896e-01 -6.553699970245361328e-01
6.155482530593872070e-01 -2.482717633247375488e-01 -1.568936407566070557e-01
8.135951757431030273e-01 -2.241073101758956909e-01 -2.349137961864471436e-01
6.685247421264648438e-01 -2.407727837562561035e-01 -3.794878721237182617e-01
7.138522863388061523e-01 -1.867208927869796753e-01 5.125787854194641113e-01
6.422066688537597656e-01 -2.405113577842712402e-01 -4.130899310111999512e-01
5.027841925621032715e-01 -2.244441509246826172e-01 4.477130472660064697e-01
7.161114215850830078e-01 -1.997294872999191284e-01 5.876882076263427734e-01
5.221077203750610352e-01 -2.459484338760375977e-01 -7.435943186283111572e-02
4.645304083824157715e-01 -1.723586022853851318e-01 -1.842305362224578857e-01
5.362654328346252441e-01 -2.441443800926208496e-01 -3.000849485397338867e-01
6.355640292167663574e-01 -2.400248795747756958e-01 -4.275453388690948486e-01
5.528776645660400391e-01 -2.475088983774185181e-01 -6.644234061241149902e-02
4.685776829719543457e-01 -1.877148598432540894e-01 4.263429045677185059e-01
7.535912394523620605e-01 -2.345679849386215210e-01 -3.158920407295227051e-01
4.604582190513610840e-01 -1.838642358779907227e-01 3.715579509735107422e-01
5.519090890884399414e-01 -2.378979921340942383e-01 -4.714925289154052734e-01
4.882435202598571777e-01 -2.221948504447937012e-01 4.432956278324127197e-01
7.116422653198242188e-01 -1.801175773143768311e-01 4.299089312553405762e-01
7.741279602050781250e-01 -1.825115531682968140e-01 -1.581911146640777588e-01
4.449436962604522705e-01 -2.362493425607681274e-01 -2.994572818279266357e-01
4.582287073135375977e-01 -1.822879165410995483e-01 3.466927111148834229e-01
7.677685618400573730e-01 -2.269662916660308838e-01 4.206102788448333740e-01
5.797064900398254395e-01 -2.457870841026306152e-01 -2.878586947917938232e-01
5.236194729804992676e-01 -2.357541620731353760e-01 3.326843380928039551e-01
7.594777941703796387e-01 -2.387439161539077759e-01 -1.943100690841674805e-01
6.913746595382690430e-01 -1.988182514905929565e-01 -5.509722232818603516e-01
5.880044102668762207e-01 -2.434670776128768921e-01 2.434968650341033936e-01
7.702411413192749023e-01 -1.788509637117385864e-01 -4.095719754695892334e-02
5.609009861946105957e-01 -2.475964128971099854e-01 -1.415776908397674561e-01
4.341387152671813965e-01 -2.350984066724777222e-01 -2.846454083919525146e-01
3.689382076263427734e-01 -1.872875839471817017e-01 -1.345013529062271118e-01
8.196373581886291504e-01 -1.970685273408889771e-01 3.508187234401702881e-01
5.869347453117370605e-01 -1.767714470624923706e-01 -4.168297946453094482e-01
5.606170892715454102e-01 -1.709892004728317261e-01 -2.894839644432067871e-01
7.760270833969116211e-01 -1.995079517364501953e-01 -3.851689100265502930e-01
6.357199549674987793e-01 -2.482109963893890381e-01 -1.435986459255218506e-01
4.957869350910186768e-01 -2.399665117263793945e-01 1.725788712501525879e-01
3.740954697132110596e-01 -1.897429227828979492e-01 1.115692332386970520e-01
5.343700051307678223e-01 -1.667030304670333862e-01 3.092430159449577332e-02
3.905094861984252930e-01 -1.861191540956497192e-01 1.529386341571807861e-01
6.423780322074890137e-01 -1.735230088233947754e-01 3.803275525569915771e-01
7.295036315917968750e-01 -1.731706708669662476e-01 1.512959003448486328e-01
6.101083159446716309e-01 -1.811414062976837158e-01 5.082349181175231934e-01
5.825960040092468262e-01 -1.882720589637756348e-01 -5.658283829689025879e-01
7.652805447578430176e-01 -2.202402651309967041e-01 4.874162673950195312e-01
6.914268136024475098e-01 -1.713359355926513672e-01 -1.232492327690124512e-01
4.180828630924224854e-01 -2.221536487340927124e-01 2.694014906883239746e-01
7.326928377151489258e-01 -1.798656135797500610e-01 3.839788436889648438e-01
6.635242104530334473e-01 -1.926139146089553833e-01 5.940373539924621582e-01
7.292357087135314941e-01 -1.907032579183578491e-01 5.277107357978820801e-01
3.715794682502746582e-01 -2.239860743284225464e-01 -1.253623962402343750e-01
7.457748651504516602e-01 -1.791418790817260742e-01 3.313552737236022949e-01
5.155522823333740234e-01 -1.727725118398666382e-01 2.956390082836151123e-01
6.802226901054382324e-01 -2.288051992654800415e-01 5.038450956344604492e-01
5.697454810142517090e-01 -1.680024266242980957e-01 -1.811423301696777344e-01
4.129886031150817871e-01 -1.912112683057785034e-01 -4.437697231769561768e-01
8.099055886268615723e-01 -2.197193950414657593e-01 3.820890486240386963e-01
6.657927036285400391e-01 -1.679746210575103760e-01 7.977517694234848022e-02
4.579324722290039062e-01 -1.725778579711914062e-01 1.058531999588012695e-01
5.289476513862609863e-01 -1.736298650503158569e-01 -3.455693125724792480e-01
6.802381277084350586e-01 -1.780209839344024658e-01 4.363571107387542725e-01
5.752254128456115723e-01 -1.713468730449676514e-01 3.305099308490753174e-01
6.032744646072387695e-01 -1.690022945404052734e-01 -2.110150456428527832e-01
7.721218466758728027e-01 -1.814745217561721802e-01 -1.381370425224304199e-01
5.999373793601989746e-01 -1.866383403539657593e-01 5.584668517112731934e-01
7.084853053092956543e-01 -2.268628031015396118e-01 5.048481822013854980e-01
6.441141366958618164e-01 -2.228100895881652832e-01 5.655049085617065430e-01
4.218189120292663574e-01 -1.924011111259460449e-01 -4.759813547134399414e-01
7.037225365638732910e-01 -1.750188320875167847e-01 -2.199490368366241455e-01
5.080075860023498535e-01 -2.448132187128067017e-01 -3.080652281641960144e-02
6.400810480117797852e-01 -2.381648421287536621e-01 3.835062086582183838e-01
4.068487286567687988e-01 -2.298260182142257690e-01 -2.988955676555633545e-01
6.239141225814819336e-01 -1.708716750144958496e-01 3.226764798164367676e-01
7.345361709594726562e-01 -2.370955348014831543e-01 -3.235258460044860840e-01
3.696003556251525879e-01 -2.224938571453094482e-01 -3.315012156963348389e-02
6.716898679733276367e-01 -1.695852875709533691e-01 -1.043101847171783447e-01
4.577940106391906738e-01 -2.168557643890380859e-01 -5.813837647438049316e-01
7.458631992340087891e-01 -1.771451979875564575e-01 -1.279809474945068359e-01
7.059895396232604980e-01 -1.885648071765899658e-01 5.382769107818603516e-01
8.306759595870971680e-01 -2.281989306211471558e-01 5.987312644720077515e-02
5.902984142303466797e-01 -2.442271709442138672e-01 2.223191559314727783e-01
5.854017138481140137e-01 -1.909867525100708008e-01 -5.877470374107360840e-01
6.997183561325073242e-01 -1.730428934097290039e-01 -1.666513085365295410e-01
7.936757802963256836e-01 -2.366401851177215576e-01 1.851813867688179016e-02
5.769318938255310059e-01 -2.482859641313552856e-01 -8.613352477550506592e-02
4.743455052375793457e-01 -2.421130239963531494e-01 -1.231042742729187012e-01
6.501309275627136230e-01 -1.706782728433609009e-01 -2.092569172382354736e-01
5.433154702186584473e-01 -1.771026849746704102e-01 -4.237786233425140381e-01
4.912079572677612305e-01 -2.363312244415283203e-01 2.543542087078094482e-01
5.611077547073364258e-01 -2.437529414892196655e-01 2.019912600517272949e-01
6.458814740180969238e-01 -2.485143393278121948e-01 -4.315163195133209229e-02
6.903603672981262207e-01 -2.362968921661376953e-01 -4.274827837944030762e-01
6.240048408508300781e-01 -1.726928651332855225e-01 -3.063772022724151611e-01
5.020917057991027832e-01 -2.445002198219299316e-01 -1.326426267623901367e-01
4.743396639823913574e-01 -1.728517264127731323e-01 1.931599974632263184e-01
6.356948614120483398e-01 -2.455695718526840210e-01 1.942491233348846436e-01
4.246094524860382080e-01 -1.896658241748809814e-01 -4.558242559432983398e-01
4.480592012405395508e-01 -1.727008521556854248e-01 -9.511820971965789795e-02
6.768383383750915527e-01 -2.412386238574981689e-01 -3.574673533439636230e-01
6.365262269973754883e-01 -2.485379874706268311e-01 -5.089221522212028503e-04
4.909563064575195312e-01 -2.422547936439514160e-01 -2.531152367591857910e-01
7.212762832641601562e-01 -1.808216273784637451e-01 -3.088315725326538086e-01
6.456217765808105469e-01 -2.340837717056274414e-01 -5.082907676696777344e-01
7.096431851387023926e-01 -1.845293045043945312e-01 -3.948783576488494873e-01
6.017926931381225586e-01 -1.919939815998077393e-01 -5.894215106964111328e-01
4.207832813262939453e-01 -1.847136616706848145e-01 2.680085599422454834e-01
5.703577399253845215e-01 -2.474657297134399414e-01 -1.848981976509094238e-01
6.651992797851562500e-01 -2.445752620697021484e-01 -2.847115695476531982e-01
6.512060165405273438e-01 -2.306939214468002319e-01 4.916951656341552734e-01
5.401080846786499023e-01 -2.365111112594604492e-01 -4.869579076766967773e-01
8.353149294853210449e-01 -2.051196843385696411e-01 -1.802640259265899658e-01
6.634824275970458984e-01 -1.775910109281539917e-01 -3.630976974964141846e-01
6.317791342735290527e-01 -2.339939922094345093e-01 -5.193286538124084473e-01
4.417535662651062012e-01 -1.801031380891799927e-01 2.657470107078552246e-01
6.268126368522644043e-01 -2.217100709676742554e-01 5.720981955528259277e-01
5.136021375656127930e-01 -2.438204735517501831e-01 8.030069619417190552e-02
6.172696948051452637e-01 -2.486699223518371582e-01 -8.710818365216255188e-03
7.377861142158508301e-01 -2.300480604171752930e-01 -4.184028506278991699e-01
7.794921994209289551e-01 -1.800283491611480713e-01 1.791096627712249756e-01
5.398843288421630859e-01 -1.970007419586181641e-01 -6.268665790557861328e-01
3.923379480838775635e-01 -1.847336739301681519e-01 1.351551413536071777e-01
5.238857269287109375e-01 -2.460278272628784180e-01 -1.149172931909561157e-01
3.630284667015075684e-01 -2.192077338695526123e-01 -4.553176462650299072e-03
5.581772327423095703e-01 -2.342239916324615479e-01 -5.283991694450378418e-01
6.361118555068969727e-01 -2.475914210081100464e-01 9.495457261800765991e-02
4.651601612567901611e-01 -1.710882484912872314e-01 4.790719598531723022e-02
3.946121633052825928e-01 -2.286782264709472656e-01 1.283659599721431732e-02
4.617469906806945801e-01 -1.804443895816802979e-01 -4.021647274494171143e-01
7.874929308891296387e-01 -2.376205027103424072e-01 -6.131457164883613586e-03
4.279534220695495605e-01 -2.002648115158081055e-01 -5.365474820137023926e-01
5.037370920181274414e-01 -2.179369181394577026e-01 -6.257935166358947754e-01
7.582000494003295898e-01 -1.868419349193572998e-01 -3.072272241115570068e-01
4.235704839229583740e-01 -1.761835366487503052e-01 -1.441357731819152832e-01
5.305663347244262695e-01 -2.452906668186187744e-01 -2.314556241035461426e-01
7.203428149223327637e-01 -2.417959719896316528e-01 2.247045636177062988e-01
5.253433585166931152e-01 -2.278961986303329468e-01 4.460165798664093018e-01
4.327992796897888184e-01 -2.027642875909805298e-01 -5.532824397087097168e-01
8.230927586555480957e-01 -2.301449775695800781e-01 -9.694702923297882080e-03
7.155291438102722168e-01 -2.433189451694488525e-01 1.782425940036773682e-01
4.719423651695251465e-01 -1.766368150711059570e-01 -3.440416157245635986e-01
5.536153912544250488e-01 -1.661772727966308594e-01 -2.790985628962516785e-03
4.313136339187622070e-01 -2.361784279346466064e-01 -2.083735167980194092e-01
4.227285385131835938e-01 -2.164418995380401611e-01 -5.203982591629028320e-01
5.470942854881286621e-01 -2.454343289136886597e-01 1.068341061472892761e-01
7.160084247589111328e-01 -1.715643107891082764e-01 1.064534559845924377e-01
6.972699165344238281e-01 -1.748737543821334839e-01 3.459016680717468262e-01
6.706972122192382812e-01 -2.367451488971710205e-01 4.006589949131011963e-01
6.449984312057495117e-01 -2.469818592071533203e-01 -2.157586514949798584e-01
8.021153211593627930e-01 -2.328235954046249390e-01 -1.341647505760192871e-01
7.501299381256103516e-01 -1.989000290632247925e-01 -4.470551311969757080e-01
5.208671092987060547e-01 -2.458346933126449585e-01 -5.896612629294395447e-02
6.225738525390625000e-01 -1.678372025489807129e-01 2.077679336071014404e-01
5.947069525718688965e-01 -2.281690537929534912e-01 -5.908803939819335938e-01
5.113533139228820801e-01 -1.689502894878387451e-01 1.500692069530487061e-01
4.935418963432312012e-01 -2.436319291591644287e-01 -2.738872356712818146e-02
6.883693933486938477e-01 -2.249883711338043213e-01 5.360126495361328125e-01
6.423916816711425781e-01 -2.388193905353546143e-01 -4.436967670917510986e-01
5.781390666961669922e-01 -2.453604936599731445e-01 1.689562499523162842e-01
3.570887446403503418e-01 -2.043174058198928833e-01 -3.093543648719787598e-01
4.575749635696411133e-01 -1.797344982624053955e-01 3.067282140254974365e-01
7.341234087944030762e-01 -2.358580678701400757e-01 3.488234281539916992e-01
8.070306777954101562e-01 -2.298862189054489136e-01 2.473769485950469971e-01
6.146902441978454590e-01 -1.994907259941101074e-01 6.216081976890563965e-01
5.574756264686584473e-01 -2.466192245483398438e-01 -2.193792462348937988e-01
7.580983042716979980e-01 -2.412325292825698853e-01 8.255323022603988647e-02
6.375406980514526367e-01 -1.713567674160003662e-01 -2.525753974914550781e-01
7.761702537536621094e-01 -2.342079877853393555e-01 2.776957452297210693e-01
6.076241731643676758e-01 -1.665973961353302002e-01 -7.306566834449768066e-02
5.485405921936035156e-01 -1.675678938627243042e-01 1.661244332790374756e-01
6.177396774291992188e-01 -1.712874770164489746e-01 3.363569974899291992e-01
5.490507483482360840e-01 -1.956130117177963257e-01 5.777103304862976074e-01
7.221531867980957031e-01 -2.345910668373107910e-01 3.905448615550994873e-01
3.711053133010864258e-01 -1.924707293510437012e-01 -2.984082102775573730e-01
7.878246903419494629e-01 -2.122984975576400757e-01 4.815100729465484619e-01
6.398165822029113770e-01 -1.808816194534301758e-01 -4.465857148170471191e-01
7.177758216857910156e-01 -2.428689897060394287e-01 -2.175103127956390381e-01
7.555308938026428223e-01 -1.822790205478668213e-01 3.713212013244628906e-01
5.625861287117004395e-01 -1.674190908670425415e-01 -1.485032141208648682e-01
5.756524801254272461e-01 -1.666760444641113281e-01 1.444108188152313232e-01
6.358047127723693848e-01 -1.685383319854736328e-01 2.285341918468475342e-01
6.495745778083801270e-01 -1.911078989505767822e-01 -5.494028329849243164e-01
5.020474195480346680e-01 -1.703061312437057495e-01 -2.070017755031585693e-01
8.508191108703613281e-01 -2.187315225601196289e-01 1.264441013336181641e-01
5.231208205223083496e-01 -1.674576252698898315e-01 8.416108042001724243e-02
6.541249752044677734e-01 -2.471508681774139404e-01 -1.910758316516876221e-01
5.379747748374938965e-01 -1.879968047142028809e-01 5.291829705238342285e-01
8.411324620246887207e-01 -2.216340452432632446e-01 1.912358701229095459e-01
4.528239071369171143e-01 -2.371154725551605225e-01 9.769766032695770264e-02
6.934942603111267090e-01 -2.301358878612518311e-01 4.812573492527008057e-01
5.412208437919616699e-01 -2.373315095901489258e-01 3.309715092182159424e-01
6.930056214332580566e-01 -1.725206375122070312e-01 2.833022475242614746e-01
5.521545410156250000e-01 -2.438276857137680054e-01 1.842360496520996094e-01
6.486575603485107422e-01 -1.671478152275085449e-01 5.620440840721130371e-02
4.675021767616271973e-01 -1.714782565832138062e-01 -1.473234295845031738e-01
7.639059424400329590e-01 -1.783657222986221313e-01 -6.850600242614746094e-02
4.566252827644348145e-01 -1.789211630821228027e-01 -3.631423115730285645e-01
5.592095255851745605e-01 -1.685831099748611450e-01 -2.046668231487274170e-01
6.405187249183654785e-01 -1.749784946441650391e-01 -3.414369523525238037e-01
8.396293520927429199e-01 -2.250137478113174438e-01 2.265022322535514832e-02
7.008001208305358887e-01 -2.441919296979904175e-01 1.777059733867645264e-01
5.875424742698669434e-01 -2.392929941415786743e-01 -4.573845565319061279e-01
6.387687921524047852e-01 -1.719934940338134766e-01 -2.696910500526428223e-01
4.038292467594146729e-01 -2.234179377555847168e-01 -4.090783596038818359e-01
5.180433392524719238e-01 -1.902233213186264038e-01 5.215555429458618164e-01
5.920159220695495605e-01 -2.485479861497879028e-01 -9.763026982545852661e-02
5.365457534790039062e-01 -1.716754585504531860e-01 3.010609149932861328e-01
3.827482163906097412e-01 -2.164169698953628540e-01 1.860877871513366699e-01
4.780831933021545410e-01 -2.375402897596359253e-01 -3.774279356002807617e-01
8.169730901718139648e-01 -2.313087135553359985e-01 1.170984581112861633e-01
7.709110975265502930e-01 -2.200501263141632080e-01 -4.143575727939605713e-01
4.777446091175079346e-01 -2.257253825664520264e-01 3.892181217670440674e-01
4.757880866527557373e-01 -1.834305673837661743e-01 3.996253013610839844e-01
3.676881194114685059e-01 -2.133483439683914185e-01 1.315750777721405029e-01
4.921748638153076172e-01 -2.270182520151138306e-01 -5.589331388473510742e-01
6.264148354530334473e-01 -2.447472065687179565e-01 -3.214429914951324463e-01
8.547474145889282227e-01 -2.164113670587539673e-01 4.257397726178169250e-02
6.714065074920654297e-01 -2.198798060417175293e-01 -5.884701609611511230e-01
8.282663822174072266e-01 -2.245876491069793701e-01 2.362198829650878906e-01
4.564746022224426270e-01 -2.340861856937408447e-01 -3.994862437248229980e-01
6.827196478843688965e-01 -1.697412133216857910e-01 1.796696186065673828e-01
5.986384153366088867e-01 -2.271804958581924438e-01 5.190945267677307129e-01
4.031953811645507812e-01 -2.316370308399200439e-01 -5.359273776412010193e-02
6.262824535369873047e-01 -1.734059453010559082e-01 3.850903511047363281e-01
6.225513219833374023e-01 -1.675396114587783813e-01 -1.169192120432853699e-01
4.489715695381164551e-01 -1.723560839891433716e-01 -3.443582355976104736e-02
8.218883275985717773e-01 -2.262057512998580933e-01 -1.571111083030700684e-01
7.528064846992492676e-01 -1.921285986900329590e-01 -3.876283764839172363e-01
7.787492275238037109e-01 -1.792923212051391602e-01 1.158471480011940002e-01
5.186388492584228516e-01 -1.698020696640014648e-01 -2.168626189231872559e-01
4.707687497138977051e-01 -2.275324165821075439e-01 3.527404069900512695e-01
5.612520575523376465e-01 -1.720285713672637939e-01 -3.184895813465118408e-01
5.925818681716918945e-01 -2.477321028709411621e-01 -1.948835253715515137e-01
4.657578766345977783e-01 -1.732803285121917725e-01 1.760283708572387695e-01
8.206997513771057129e-01 -2.203512638807296753e-01 3.355359137058258057e-01
4.609623551368713379e-01 -1.712076216936111450e-01 -5.603787675499916077e-02
7.675566077232360840e-01 -2.392129451036453247e-01 -1.280270516872406006e-01
5.505273938179016113e-01 -2.420697361230850220e-01 -3.834610581398010254e-01
4.443225264549255371e-01 -2.322344928979873657e-01 1.991197466850280762e-01
7.204077243804931641e-01 -2.386051118373870850e-01 -3.289232254028320312e-01
6.260331869125366211e-01 -2.341332286596298218e-01 4.471226930618286133e-01
7.863775491714477539e-01 -2.021478116512298584e-01 -3.695566952228546143e-01
5.347514152526855469e-01 -2.433562576770782471e-01 1.646271049976348877e-01
7.868015170097351074e-01 -2.360778748989105225e-01 -1.295031309127807617e-01
6.234351396560668945e-01 -2.418799251317977905e-01 -3.976752161979675293e-01
5.882502794265747070e-01 -1.699323654174804688e-01 -2.533956170082092285e-01
6.562787890434265137e-01 -2.418716251850128174e-01 -3.705955445766448975e-01
6.665338873863220215e-01 -2.464606910943984985e-01 1.322147548198699951e-01
4.166890680789947510e-01 -2.344287335872650146e-01 -1.381202042102813721e-01
6.494254469871520996e-01 -1.675590574741363525e-01 1.325589120388031006e-01
5.784623026847839355e-01 -1.677871793508529663e-01 2.116392552852630615e-01
7.217226028442382812e-01 -2.449508756399154663e-01 -5.628703162074089050e-02
5.782586336135864258e-01 -2.422617822885513306e-01 -3.948248922824859619e-01
5.024392604827880859e-01 -2.269997149705886841e-01 4.211674928665161133e-01
5.138842463493347168e-01 -2.372219711542129517e-01 2.863729894161224365e-01
4.992567300796508789e-01 -2.111687660217285156e-01 -6.379170417785644531e-01
7.135908603668212891e-01 -1.712650209665298462e-01 5.471579730510711670e-02
7.523828744888305664e-01 -2.325733453035354614e-01 3.732562363147735596e-01
7.920457720756530762e-01 -2.357178777456283569e-01 1.460977494716644287e-01
8.031555414199829102e-01 -1.891541332006454468e-01 -1.625712215900421143e-01
4.837158322334289551e-01 -1.711515933275222778e-01 1.604768037796020508e-01
5.408133268356323242e-01 -2.441612929105758667e-01 1.481727659702301025e-01
6.984651684761047363e-01 -1.813982278108596802e-01 4.680584669113159180e-01
5.271443128585815430e-01 -2.440840601921081543e-01 1.147647723555564880e-01
6.934210658073425293e-01 -2.468522638082504272e-01 -2.728018723428249359e-02
6.273156404495239258e-01 -1.727923005819320679e-01 3.709647953510284424e-01
4.144069552421569824e-01 -1.930480152368545532e-01 3.281113207340240479e-01
5.066581368446350098e-01 -2.381492406129837036e-01 -4.209008216857910156e-01
8.432191610336303711e-01 -1.958368271589279175e-01 8.792044222354888916e-02
6.179146170616149902e-01 -1.935641616582870483e-01 -5.919625163078308105e-01
4.108695983886718750e-01 -2.324360311031341553e-01 -2.275327444076538086e-01
5.539354085922241211e-01 -2.472343146800994873e-01 7.173474878072738647e-04
4.795960783958435059e-01 -1.701402366161346436e-01 7.949046045541763306e-02
6.213456988334655762e-01 -2.301885634660720825e-01 -5.644099712371826172e-01
6.697804927825927734e-01 -1.684074401855468750e-01 -1.657840050756931305e-02
3.823584914207458496e-01 -2.263599187135696411e-01 -2.835679426789283752e-02
8.025914430618286133e-01 -1.959778517484664917e-01 4.081892073154449463e-01
4.616363644599914551e-01 -1.750634610652923584e-01 -2.790080308914184570e-01
4.892137348651885986e-01 -1.689252108335494995e-01 8.931104093790054321e-03
8.018624186515808105e-01 -1.958651840686798096e-01 -2.683427333831787109e-01
7.373383045196533203e-01 -2.201291620731353760e-01 5.295213460922241211e-01
6.951231956481933594e-01 -2.388091534376144409e-01 -3.773594200611114502e-01
7.718227505683898926e-01 -1.793502867221832275e-01 2.116785347461700439e-01
4.454765915870666504e-01 -1.994336247444152832e-01 -5.626798272132873535e-01
6.894972920417785645e-01 -1.735800057649612427e-01 -2.159318327903747559e-01
5.107529163360595703e-01 -2.231443822383880615e-01 -6.051284670829772949e-01
5.470978021621704102e-01 -1.720106899738311768e-01 3.229225277900695801e-01
4.377012550830841064e-01 -2.259147167205810547e-01 2.860159873962402344e-01
3.954971432685852051e-01 -2.192409336566925049e-01 -4.243793785572052002e-01
5.681804418563842773e-01 -1.879288852214813232e-01 5.532018542289733887e-01
6.863362789154052734e-01 -1.827431768178939819e-01 4.984061717987060547e-01
7.506637573242187500e-01 -2.411903142929077148e-01 -1.397908329963684082e-01
7.610914111137390137e-01 -1.781809031963348389e-01 2.317049503326416016e-01
6.682210564613342285e-01 -2.054316103458404541e-01 6.238139867782592773e-01
7.581113576889038086e-01 -1.870274394750595093e-01 4.395627081394195557e-01
4.867877662181854248e-01 -1.702257096767425537e-01 -1.576621234416961670e-01
7.055118083953857422e-01 -1.714032292366027832e-01 1.843177080154418945e-01
6.684013605117797852e-01 -1.690642982721328735e-01 1.880510449409484863e-01
6.747799515724182129e-01 -1.709453910589218140e-01 2.659541368484497070e-01
7.388845682144165039e-01 -1.773347854614257812e-01 -1.673840582370758057e-01
5.663194060325622559e-01 -1.682714968919754028e-01 2.241296172142028809e-01
7.552588582038879395e-01 -1.958672255277633667e-01 -4.145164489746093750e-01
5.358196496963500977e-01 -1.693365424871444702e-01 -2.197619974613189697e-01
5.247516036033630371e-01 -1.959910690784454346e-01 -6.171624660491943359e-01
6.742249131202697754e-01 -1.698250025510787964e-01 2.154791355133056641e-01
5.638005137443542480e-01 -1.752059757709503174e-01 4.047944843769073486e-01
8.084667325019836426e-01 -1.916744112968444824e-01 3.367740213871002197e-01
7.898656129837036133e-01 -2.341340333223342896e-01 2.216756641864776611e-01
6.010749936103820801e-01 -1.718927472829818726e-01 -3.046368956565856934e-01
7.803180217742919922e-01 -1.918343156576156616e-01 -3.032031059265136719e-01
7.774228453636169434e-01 -2.377558350563049316e-01 1.550211608409881592e-01
5.848883390426635742e-01 -1.687089502811431885e-01 -2.100701034069061279e-01
4.542019665241241455e-01 -1.723391115665435791e-01 -1.219518110156059265e-01
4.549744725227355957e-01 -1.771226674318313599e-01 2.478547692298889160e-01
8.352287411689758301e-01 -1.929408162832260132e-01 3.248922526836395264e-02
7.860643863677978516e-01 -1.892619580030441284e-01 -2.460160851478576660e-01
4.699290990829467773e-01 -1.707488745450973511e-01 -1.038400754332542419e-01
7.255363464355468750e-01 -2.172401398420333862e-01 -5.218446254730224609e-01
4.844786524772644043e-01 -1.755834817886352539e-01 2.959980070590972900e-01
6.072874665260314941e-01 -1.843231022357940674e-01 -5.157998204231262207e-01
8.090858459472656250e-01 -2.300072312355041504e-01 2.329625785350799561e-01
5.251227617263793945e-01 -2.346096634864807129e-01 -5.039432644844055176e-01
6.280037164688110352e-01 -1.756016910076141357e-01 -3.681547343730926514e-01
7.263309359550476074e-01 -1.871105432510375977e-01 -3.939023911952972412e-01
7.046594023704528809e-01 -2.311502397060394287e-01 4.601215422153472900e-01
6.574999690055847168e-01 -2.444590628147125244e-01 2.256208360195159912e-01
5.370189547538757324e-01 -2.242695391178131104e-01 -6.128768324851989746e-01
5.672914981842041016e-01 -2.240506112575531006e-01 -6.211804151535034180e-01
4.245868623256683350e-01 -1.942535936832427979e-01 -4.967139959335327148e-01
6.391498446464538574e-01 -1.700173169374465942e-01 2.853002250194549561e-01
8.130751252174377441e-01 -1.870471984148025513e-01 1.890606582164764404e-01
3.988042473793029785e-01 -1.899323165416717529e-01 2.468152940273284912e-01
6.249818801879882812e-01 -2.480359971523284912e-01 -1.717831790447235107e-01
5.009876489639282227e-01 -2.438046038150787354e-01 1.759168133139610291e-02
8.509297370910644531e-01 -2.032127231359481812e-01 -3.010062314569950104e-02
6.541777253150939941e-01 -2.478326112031936646e-01 5.579397827386856079e-02
7.853334546089172363e-01 -1.823542118072509766e-01 -8.368111401796340942e-02
5.237081646919250488e-01 -2.416917681694030762e-01 -3.606178462505340576e-01
5.775709748268127441e-01 -1.794442981481552124e-01 -4.631441831588745117e-01
5.580444335937500000e-01 -1.681575924158096313e-01 2.102504968643188477e-01
5.935559868812561035e-01 -1.800988316535949707e-01 -4.678701460361480713e-01
6.633284687995910645e-01 -1.739435791969299316e-01 3.726986348628997803e-01
6.534630656242370605e-01 -1.763182729482650757e-01 -3.526351451873779297e-01
