1.422391235828399658e-01 6.073217391967773438e-01 1.061018742620944977e-02
-2.969140708446502686e-01 9.836324304342269897e-02 1.976411640644073486e-01
2.082921862602233887e-01 4.424791783094406128e-02 2.519570291042327881e-01
2.419428825378417969e-01 2.420467436313629150e-01 4.098359867930412292e-02
-3.276118934154510498e-01 -9.555128961801528931e-02 -1.730445921421051025e-01
-1.877032220363616943e-01 6.486219912767410278e-02 3.209445476531982422e-01
-1.778751313686370850e-01 2.337215840816497803e-01 3.145467936992645264e-01
-1.484047062695026398e-02 7.438991069793701172e-01 -1.276770383119583130e-01
1.850304007530212402e-01 -7.980582714080810547e-01 -8.084491640329360962e-02
-2.740444242954254150e-01 -6.497189998626708984e-01 -6.639675050973892212e-02
-4.929834231734275818e-02 7.084444761276245117e-01 2.159885764122009277e-01
1.941010057926177979e-01 -3.388278782367706299e-01 -2.157198339700698853e-01
6.484538316726684570e-04 3.382602035999298096e-01 -3.005134761333465576e-01
8.577123284339904785e-03 -3.285305202007293701e-01 3.664593100547790527e-01
-3.275642096996307373e-01 -6.940327584743499756e-02 -1.747356951236724854e-01
-1.901150345802307129e-01 -8.311595916748046875e-01 8.972929418087005615e-02
-2.600908279418945312e-01 -2.317601144313812256e-01 2.367262244224548340e-01
-2.410165071487426758e-01 -7.417156100273132324e-01 -9.302461147308349609e-02
-1.654990315437316895e-01 -2.111781984567642212e-01 -3.421133160591125488e-01
1.212043091654777527e-01 6.585185527801513672e-01 4.185840860009193420e-02
2.050796449184417725e-01 -6.332387328147888184e-01 -1.353683918714523315e-01
1.020986810326576233e-01 3.765426576137542725e-03 3.523764610290527344e-01
-5.219925194978713989e-02 -9.546249508857727051e-01 1.451012343168258667e-01
-5.132518708705902100e-02 -3.570045232772827148e-01 -3.543187379837036133e-01
6.370942294597625732e-02 -7.684260010719299316e-01 2.544968128204345703e-01
-2.038643956184387207e-01 4.664891213178634644e-02 -3.210952579975128174e-01
7.983764261007308960e-02 -4.216086566448211670e-01 -3.113265335559844971e-01
-3.026382625102996826e-01 3.700879812240600586e-01 -1.528548747301101685e-01
-1.372879184782505035e-02 -8.632723093032836914e-01 2.181383371353149414e-01
-9.349717199802398682e-02 -1.013651609420776367e+00 -9.603283368051052094e-03
2.196868360042572021e-01 -2.121069729328155518e-01 -1.812469661235809326e-01
-1.837916076183319092e-01 -8.170427680015563965e-01 1.164904087781906128e-01
-1.969670057296752930e-01 -5.684792995452880859e-01 -2.662100195884704590e-01
1.630950719118118286e-03 -6.988362073898315430e-01 2.889174520969390869e-01
5.176402628421783447e-04 -4.944399595260620117e-01 3.415762186050415039e-01
-1.414304673671722412e-01 -9.479176402091979980e-01 4.086165130138397217e-02
-8.259299397468566895e-02 -6.953441500663757324e-01 -2.871198356151580811e-01
-1.487310230731964111e-01 1.284881532192230225e-01 -3.383489549160003662e-01
-1.458468288183212280e-01 5.275608897209167480e-01 2.702614665031433105e-01
-1.186692900955677032e-02 -1.033653855323791504e+00 6.560160219669342041e-02
2.435043156147003174e-01 -2.135813236236572266e-01 2.054871469736099243e-01
-1.745578050613403320e-01 4.096402972936630249e-02 -3.364086449146270752e-01
-1.677953898906707764e-01 2.057113349437713623e-01 -3.219594955444335938e-01
-3.404223918914794922e-01 -2.086594998836517334e-01 -1.096543967723846436e-01
2.399928569793701172e-01 2.492928206920623779e-01 6.969260424375534058e-02
1.677201092243194580e-01 5.376514792442321777e-01 8.095304667949676514e-02
-2.000978291034698486e-01 3.868730962276458740e-01 2.719570994377136230e-01
-2.266848981380462646e-01 -1.110854893922805786e-01 -3.095777630805969238e-01
-2.941892743110656738e-01 -2.169823646545410156e-01 -2.272225618362426758e-01
-3.154919743537902832e-01 4.577405154705047607e-01 -1.831470429897308350e-02
-9.494377672672271729e-02 4.063532054424285889e-01 -2.978058755397796631e-01
-1.389983147382736206e-01 -3.594411015510559082e-01 3.259271383285522461e-01
-1.132729426026344299e-01 -1.909713596105575562e-01 -3.590493202209472656e-01
2.425838708877563477e-01 -1.047490909695625305e-01 2.057761996984481812e-01
1.404449641704559326e-01 -7.624652981758117676e-01 2.098914682865142822e-01
-7.562711834907531738e-02 -5.406207591295242310e-02 -3.626691699028015137e-01
-8.022658526897430420e-02 6.549474596977233887e-01 2.432709187269210815e-01
2.240934967994689941e-01 1.790944337844848633e-01 1.900052726268768311e-01
-2.942632883787155151e-02 -7.546280026435852051e-01 -2.725726664066314697e-01
1.450668275356292725e-01 3.285311758518218994e-01 -1.953467130661010742e-01
-3.055230975151062012e-01 4.251663982868194580e-01 9.820426255464553833e-02
2.187612652778625488e-01 -9.220035374164581299e-02 -1.772043853998184204e-01
1.833178997039794922e-01 1.729332506656646729e-01 -1.886388957500457764e-01
1.678260266780853271e-01 2.255798280239105225e-01 -1.970461159944534302e-01
2.122378647327423096e-01 3.012809902429580688e-02 -1.723358631134033203e-01
-1.078122556209564209e-01 -1.110209524631500244e-02 -3.581947088241577148e-01
-3.178333342075347900e-01 4.448510706424713135e-01 5.567834712564945221e-03
-1.536592543125152588e-01 2.883714437484741211e-01 3.216052949428558350e-01
-2.096827626228332520e-01 -1.902824938297271729e-01 2.964580059051513672e-01
-3.106338977813720703e-01 -3.125623464584350586e-01 1.271014213562011719e-01
-1.356491744518280029e-01 -8.659749627113342285e-01 -1.809178441762924194e-01
-1.134950518608093262e-01 -3.587279468774795532e-02 3.623721003532409668e-01
-2.311489582061767578e-01 -1.756424605846405029e-01 -3.037302792072296143e-01
1.561704576015472412e-01 -2.808881998062133789e-01 -2.636461555957794189e-01
-2.803309261798858643e-01 5.800476670265197754e-01 -5.639179795980453491e-02
-1.051925942301750183e-01 -2.320477664470672607e-01 -3.589654266834259033e-01
2.720360755920410156e-01 -2.961604297161102295e-02 6.864461302757263184e-02
2.199888527393341064e-01 6.597910076379776001e-02 2.288285642862319946e-01
4.038589447736740112e-02 7.762804627418518066e-01 8.437725901603698730e-02
-3.146571815013885498e-01 -4.779121577739715576e-01 -2.207163721323013306e-02
-1.841732561588287354e-01 6.705660223960876465e-01 -1.595450788736343384e-01
6.094739586114883423e-02 7.537245750427246094e-01 -5.762057378888130188e-03
2.148627042770385742e-01 3.375243842601776123e-01 -3.902220353484153748e-02
-2.496861815452575684e-01 -1.802735030651092529e-01 2.562459707260131836e-01
-3.131916821002960205e-01 3.377404063940048218e-02 1.692574620246887207e-01
-1.177238896489143372e-01 -7.115494012832641602e-01 -2.702027261257171631e-01
-3.222273886203765869e-01 -3.159562647342681885e-01 9.042947739362716675e-02
2.303926944732666016e-01 -3.236218690872192383e-01 2.222818583250045776e-01
2.169165611267089844e-01 -6.621839106082916260e-02 2.505473494529724121e-01
-3.496731519699096680e-01 2.032423317432403564e-01 -1.312096323817968369e-02
-1.611931920051574707e-01 -1.716567873954772949e-01 3.340037167072296143e-01
2.767663300037384033e-01 -1.252783536911010742e-01 6.235861405730247498e-02
2.153156399726867676e-01 2.088876366615295410e-01 1.995390355587005615e-01
-1.855385601520538330e-01 5.594857782125473022e-02 -3.303391933441162109e-01
6.823311001062393188e-02 -8.142321109771728516e-01 -2.211462110280990601e-01
7.260781526565551758e-02 -3.049165904521942139e-01 -3.249049782752990723e-01
7.523894309997558594e-02 4.922881424427032471e-01 -2.081461697816848755e-01
-2.540642619132995605e-01 -6.710826754570007324e-01 7.906559109687805176e-02
2.241570949554443359e-01 1.516383290290832520e-01 1.992084980010986328e-01
-1.909397915005683899e-02 -3.687866628170013428e-01 -3.505708575248718262e-01
-7.312159240245819092e-02 -1.857796907424926758e-01 3.702695071697235107e-01
-2.550536990165710449e-01 2.654132843017578125e-01 -2.534815371036529541e-01
-1.181651726365089417e-01 -8.552973270416259766e-01 -2.022943496704101562e-01
-5.559011548757553101e-02 -1.038890838623046875e+00 -2.258215099573135376e-04
3.847997635602951050e-02 -9.849882721900939941e-01 1.263150721788406372e-01
-1.354934833943843842e-02 -2.772755920886993408e-03 3.806102275848388672e-01
1.935256421566009521e-01 -4.019704088568687439e-02 -2.120879590511322021e-01
2.660748958587646484e-01 -1.165539026260375977e-02 -2.636154741048812866e-02
1.679786667227745056e-02 4.226463288068771362e-02 -3.422130942344665527e-01
2.026061415672302246e-01 1.673467457294464111e-01 -1.576023399829864502e-01
2.029021680355072021e-01 -2.483721673488616943e-01 -2.077805995941162109e-01
2.393308281898498535e-02 -8.789471387863159180e-01 2.097663581371307373e-01
6.761371344327926636e-02 -8.036483526229858398e-01 2.377578914165496826e-01
1.376833319664001465e-01 -2.962793707847595215e-01 -2.803410887718200684e-01
8.000005781650543213e-02 3.809401988983154297e-01 3.064205348491668701e-01
9.805942326784133911e-02 2.018302381038665771e-01 3.340793848037719727e-01
-2.209125459194183350e-01 7.215689420700073242e-01 6.131279468536376953e-02
-1.257101297378540039e-01 6.481934785842895508e-01 -2.030952721834182739e-01
3.816698491573333740e-02 3.704294860363006592e-01 3.279735147953033447e-01
1.525382995605468750e-01 5.850302577018737793e-01 3.015988320112228394e-02
7.261899858713150024e-02 9.165754169225692749e-02 -3.109366297721862793e-01
-1.531621254980564117e-02 7.565779685974121094e-01 1.728720217943191528e-01
1.095791682600975037e-01 1.603162586688995361e-01 -2.744164168834686279e-01
-2.291695773601531982e-01 -5.329529047012329102e-01 -2.447673231363296509e-01
5.547787994146347046e-02 4.203459918498992920e-01 3.081897497177124023e-01
1.016575768589973450e-01 9.201427549123764038e-02 -2.914115786552429199e-01
-2.058831453323364258e-01 4.716867953538894653e-02 3.076300919055938721e-01
3.567102551460266113e-02 4.383912384510040283e-01 -2.566601336002349854e-01
5.990114063024520874e-02 -7.645524740219116211e-01 -2.456610053777694702e-01
-1.481389105319976807e-01 -1.358979940414428711e-01 3.437322378158569336e-01
-2.838348448276519775e-01 -6.164195537567138672e-01 7.229857146739959717e-04
-1.875866055488586426e-01 9.318848699331283569e-02 -3.263539969921112061e-01
1.590816974639892578e-01 -7.887665629386901855e-01 1.735319793224334717e-01
-2.505352497100830078e-01 -1.950666308403015137e-01 -2.849269509315490723e-01
1.070556268095970154e-01 -1.126457974314689636e-01 -3.052511811256408691e-01
2.066816389560699463e-01 -6.454506516456604004e-01 -1.267031729221343994e-01
1.111747100949287415e-01 4.242421686649322510e-01 -2.003489285707473755e-01
1.280907690525054932e-01 6.438444256782531738e-01 4.279874265193939209e-02
1.715212762355804443e-01 6.602663546800613403e-02 2.954049110412597656e-01
2.632428407669067383e-01 7.379066199064254761e-02 1.350143551826477051e-02
4.617486894130706787e-02 7.362604737281799316e-01 -7.342907041311264038e-02
1.288036704063415527e-01 2.702324390411376953e-01 2.996363043785095215e-01
-1.466918438673019409e-01 1.006989106535911560e-01 -3.417702615261077881e-01
-1.502197384834289551e-01 -9.385873675346374512e-01 3.263685107231140137e-02
-2.931048274040222168e-01 -5.400596857070922852e-01 -1.118057519197463989e-01
2.645406126976013184e-01 -1.635256111621856689e-01 1.471119672060012817e-01
-2.368186116218566895e-01 2.407570779323577881e-01 2.640640735626220703e-01
1.786408126354217529e-01 6.056915968656539917e-02 -2.187753915786743164e-01
1.538246870040893555e-01 5.395621806383132935e-02 3.136195540428161621e-01
2.149074673652648926e-01 -7.551217675209045410e-01 1.320214197039604187e-02
-1.165364459156990051e-01 -6.059036850929260254e-01 -3.030576109886169434e-01
-3.008975647389888763e-02 -4.097614288330078125e-01 3.543806672096252441e-01
-1.855153739452362061e-01 -3.232760727405548096e-01 3.002342581748962402e-01
-2.437609136104583740e-01 4.222798645496368408e-01 2.180176973342895508e-01
1.613490879535675049e-01 4.344266951084136963e-01 -1.219313740730285645e-01
-2.680990993976593018e-01 -5.369672179222106934e-01 1.354017406702041626e-01
-2.942985594272613525e-01 2.287882864475250244e-01 1.874313503503799438e-01
1.586793661117553711e-01 -9.006925225257873535e-01 -2.806930243968963623e-02
-4.025904461741447449e-02 5.909617543220520020e-01 2.744763493537902832e-01
1.388024687767028809e-01 1.599819362163543701e-01 3.125782608985900879e-01
-7.148820906877517700e-02 -5.311136245727539062e-01 -3.294964134693145752e-01
-2.083835899829864502e-01 6.189196109771728516e-01 1.802953332662582397e-01
6.162067502737045288e-02 1.577840149402618408e-01 3.567272424697875977e-01
3.383640944957733154e-02 -2.275801599025726318e-01 3.726823031902313232e-01
5.363598465919494629e-04 4.119910895824432373e-01 -2.812498211860656738e-01
2.341312766075134277e-01 -5.570504665374755859e-01 1.532048285007476807e-01
-2.453476488590240479e-01 2.002311348915100098e-01 2.599360644817352295e-01
-3.275277316570281982e-01 -3.330848813056945801e-01 5.988897010684013367e-02
2.264526486396789551e-01 2.489169836044311523e-01 1.501681953668594360e-01
2.474980950355529785e-01 2.045186161994934082e-01 6.391844898462295532e-02
2.497087419033050537e-01 5.824600905179977417e-02 1.585526317358016968e-01
9.488209336996078491e-02 -8.441351056098937988e-01 -1.877218633890151978e-01
-3.172517418861389160e-01 -3.116846382617950439e-01 -1.586501449346542358e-01
1.345700025558471680e-01 -4.533030986785888672e-01 3.085725605487823486e-01
-1.716352403163909912e-01 -3.667155206203460693e-01 -3.252073824405670166e-01
2.090964615345001221e-01 -1.750893145799636841e-01 -1.981534063816070557e-01
-1.111328229308128357e-02 -8.212723135948181152e-01 2.396850734949111938e-01
-2.373515069484710693e-01 -5.144681930541992188e-01 -2.408406287431716919e-01
-3.533916473388671875e-01 1.438865065574645996e-01 -2.410231903195381165e-02
-2.609898447990417480e-01 4.592777043581008911e-02 -2.760448455810546875e-01
2.590967416763305664e-01 -2.387749552726745605e-01 -8.972676843404769897e-02
-8.572313934564590454e-02 -1.412471383810043335e-01 -3.635418415069580078e-01
6.722185760736465454e-03 -7.444712519645690918e-02 -3.528043329715728760e-01
1.066844910383224487e-02 -5.765069723129272461e-01 3.236490786075592041e-01
2.604389488697052002e-01 -1.042943671345710754e-01 1.572377383708953857e-01
-3.167011439800262451e-01 8.979663252830505371e-04 1.617667078971862793e-01
-6.921142339706420898e-02 -3.715727329254150391e-01 -3.526212275028228760e-01
-3.314003348350524902e-01 -4.847707971930503845e-02 1.230812147259712219e-01
2.366335391998291016e-01 -6.646795868873596191e-01 3.111825138330459595e-02
-7.668834924697875977e-02 -3.513276576995849609e-01 3.533332645893096924e-01
4.046636074781417847e-02 -1.368954032659530640e-01 -3.429079949855804443e-01
2.744667530059814453e-01 -2.595627307891845703e-01 9.438700228929519653e-02
1.103603467345237732e-01 6.309455037117004395e-01 1.498928815126419067e-01
-1.126719191670417786e-01 3.462351858615875244e-01 -3.106936216354370117e-01
2.365507185459136963e-01 -1.219468787312507629e-01 -1.447493135929107666e-01
-2.702193558216094971e-01 -3.100167512893676758e-01 -2.483576983213424683e-01
-3.173984587192535400e-02 -6.319792866706848145e-01 3.063722550868988037e-01
7.664018869400024414e-02 -6.386122703552246094e-01 2.950691878795623779e-01
2.475543022155761719e-01 -1.169662177562713623e-02 -1.010673791170120239e-01
3.884588181972503662e-02 -1.043215990066528320e+00 -1.635731011629104614e-02
-6.820109486579895020e-02 8.178449869155883789e-01 -6.949574500322341919e-02
-2.325421273708343506e-01 -7.735480070114135742e-01 2.626502141356468201e-02
1.884788274765014648e-01 4.670078456401824951e-01 -5.428958684206008911e-03
-2.290448248386383057e-01 -4.464413523674011230e-01 -2.686366140842437744e-01
-3.217547535896301270e-01 -2.397572994232177734e-01 1.182654574513435364e-01
-1.936231553554534912e-01 -3.591418862342834473e-01 -3.133983910083770752e-01
1.889712214469909668e-01 -5.546582937240600586e-01 -1.884654462337493896e-01
-2.758048176765441895e-01 5.694912672042846680e-01 8.303780108690261841e-02
-2.630609571933746338e-01 -5.482671260833740234e-01 -1.886405497789382935e-01
1.389048695564270020e-01 2.870951294898986816e-01 -2.162400484085083008e-01
-2.725974097847938538e-02 4.061200916767120361e-01 3.313486576080322266e-01
-8.764664828777313232e-02 -2.474442720413208008e-01 -3.605931997299194336e-01
-3.285189867019653320e-01 3.079099059104919434e-01 7.841981947422027588e-02
2.635532915592193604e-01 -4.848628044128417969e-01 8.124069310724735260e-03
5.979236215353012085e-03 3.189795017242431641e-01 -3.030890226364135742e-01
1.650620996952056885e-01 4.459085762500762939e-01 1.890754997730255127e-01
2.459011971950531006e-01 -1.136713251471519470e-01 -1.218829751014709473e-01
2.555199265480041504e-01 -9.529930353164672852e-02 -9.229135513305664062e-02
-1.830082535743713379e-01 -7.113549709320068359e-01 1.873140633106231689e-01
-1.446792781352996826e-01 7.308952212333679199e-01 -1.423904001712799072e-01
-4.136449471116065979e-02 -1.020911693572998047e+00 7.402414828538894653e-02
-3.383198976516723633e-01 -3.175989985466003418e-01 -2.535047382116317749e-02
1.817570626735687256e-01 -6.139646172523498535e-01 2.258183509111404419e-01
1.696265041828155518e-01 -5.721227526664733887e-01 -2.103592008352279663e-01
-2.933356463909149170e-01 -3.656148612499237061e-01 1.512944251298904419e-01
-1.189153939485549927e-01 -6.721714138984680176e-01 2.605427801609039307e-01
1.422197520732879639e-01 3.781036138534545898e-01 2.551317512989044189e-01
2.040117383003234863e-01 3.435371816158294678e-01 1.610440015792846680e-01
-2.411105930805206299e-01 6.226925253868103027e-01 -1.234930008649826050e-01
-9.420340508222579956e-02 7.053502202033996582e-01 -1.749480664730072021e-01
2.526538819074630737e-02 3.474173545837402344e-01 3.368922472000122070e-01
2.664613127708435059e-01 5.115251988172531128e-02 5.068561434745788574e-02
-3.001849055290222168e-01 -2.414822578430175781e-01 -2.133057117462158203e-01
-2.811692468822002411e-02 5.928272604942321777e-01 -2.257693409919738770e-01
-1.722503453493118286e-02 1.482992470264434814e-01 -3.401702344417572021e-01
-2.448371350765228271e-01 1.258390545845031738e-01 -2.845748960971832275e-01
2.149404883384704590e-01 -6.803248524665832520e-01 1.347020864486694336e-01
-5.841219797730445862e-02 -3.148774206638336182e-01 -3.578993678092956543e-01
-1.732482574880123138e-02 1.784349083900451660e-01 -3.360100388526916504e-01
-3.477193117141723633e-01 -6.714788079261779785e-02 6.047911942005157471e-02
2.067119777202606201e-01 -6.149016618728637695e-01 -1.393745094537734985e-01
1.628909111022949219e-01 -6.405149102210998535e-01 -1.997729688882827759e-01
-6.122192740440368652e-02 -4.234302043914794922e-01 3.466190695762634277e-01
1.775225996971130371e-01 -1.578124612569808960e-01 3.015921413898468018e-01
-3.394047617912292480e-01 3.081727623939514160e-01 -5.275314673781394958e-03
3.924640268087387085e-02 4.516928493976593018e-01 3.058579266071319580e-01
-2.861897945404052734e-01 -2.726820111274719238e-01 -2.316570132970809937e-01
3.954908251762390137e-02 6.168895363807678223e-01 2.394560575485229492e-01
8.408092707395553589e-02 7.263002395629882812e-01 3.361951932311058044e-02
1.497656106948852539e-01 -8.120416402816772461e-01 -1.425797045230865479e-01
-3.300434052944183350e-01 3.748620450496673584e-01 -2.853965386748313904e-02
2.663719654083251953e-01 -4.598825871944427490e-01 1.340773887932300568e-02
1.533010900020599365e-01 7.130503654479980469e-03 3.181740045547485352e-01
-1.969551853835582733e-02 2.360693812370300293e-01 -3.273442089557647705e-01
-3.178694844245910645e-01 4.168736040592193604e-01 -7.381166517734527588e-02
-2.672942280769348145e-01 1.491058170795440674e-01 2.385116666555404663e-01
6.516136974096298218e-02 6.664340496063232422e-01 -1.168765127658843994e-01
1.639586389064788818e-01 -1.188377067446708679e-01 -2.548696994781494141e-01
-2.988966703414916992e-01 2.600572407245635986e-01 1.729851961135864258e-01
-8.277565240859985352e-02 -1.021384716033935547e+00 2.719884738326072693e-03
-2.297666668891906738e-01 -7.310976386070251465e-01 9.291251748800277710e-02
7.526598125696182251e-02 3.198459744453430176e-01 3.240447044372558594e-01
1.411810517311096191e-01 9.129010140895843506e-03 -2.680113911628723145e-01
9.512304514646530151e-02 -5.475821495056152344e-01 -2.834495902061462402e-01
-3.265682756900787354e-01 -1.687313467264175415e-01 -1.673897355794906616e-01
2.985117584466934204e-02 -8.306169509887695312e-01 -2.319408059120178223e-01
-3.536251187324523926e-01 -1.112367510795593262e-01 -5.103301256895065308e-02
-2.129795961081981659e-02 8.330386877059936523e-01 5.158697068691253662e-02
2.671659886837005615e-01 -2.978491783142089844e-02 -2.738134190440177917e-02
1.607466340065002441e-01 3.299290835857391357e-01 2.493648231029510498e-01
-3.184140622615814209e-01 -4.371472597122192383e-01 -7.946129888296127319e-02
-3.441523015499114990e-01 2.626821398735046387e-01 -3.399205952882766724e-02
4.350256174802780151e-02 -4.316781461238861084e-02 3.750711977481842041e-01
-3.479650914669036865e-01 2.172613441944122314e-01 -4.093037918210029602e-02
1.633027195930480957e-02 -8.938050270080566406e-01 -2.044316679239273071e-01
-2.541827261447906494e-01 6.453559398651123047e-01 6.769390404224395752e-02
-1.287976205348968506e-01 -3.453733921051025391e-01 3.334863483905792236e-01
-1.013896688818931580e-01 7.679114937782287598e-01 -1.263113319873809814e-01
-2.420406043529510498e-01 4.536607563495635986e-01 2.103070318698883057e-01
-1.961278021335601807e-01 -1.469135284423828125e-01 -3.291917443275451660e-01
-2.763298749923706055e-01 6.029359698295593262e-01 2.652563899755477905e-02
-3.093033134937286377e-01 3.345808982849121094e-01 1.294701397418975830e-01
-2.981564030051231384e-02 4.879105985164642334e-01 3.098212182521820068e-01
8.065075427293777466e-02 -6.875057220458984375e-01 -2.593187689781188965e-01
-2.242508828639984131e-01 -6.338947415351867676e-01 -2.120400816202163696e-01
2.359139621257781982e-01 -5.590924024581909180e-01 -9.019397944211959839e-02
-3.267783224582672119e-01 3.272141516208648682e-01 -1.022876501083374023e-01
2.715163230895996094e-01 -2.264396250247955322e-01 1.161834970116615295e-01
2.175365984439849854e-01 -1.916612237691879272e-01 2.525134384632110596e-01
1.398318707942962646e-01 -4.012993872165679932e-01 3.133933842182159424e-01
-3.524817228317260742e-01 1.535214483737945557e-03 3.879848122596740723e-02
-2.814407274127006531e-02 -2.522285878658294678e-01 -3.595955073833465576e-01
1.173966601490974426e-01 2.946556210517883301e-01 -2.371268719434738159e-01
-1.424768716096878052e-01 -2.032955586910247803e-01 3.423236906528472900e-01
1.856578886508941650e-01 1.145593300461769104e-01 2.721238434314727783e-01
5.789299309253692627e-02 -1.638758480548858643e-01 -3.355412483215332031e-01
-2.105637788772583008e-01 -6.707815080881118774e-02 -3.211381733417510986e-01
-2.203143537044525146e-01 -2.113277018070220947e-01 -3.100693225860595703e-01
-1.575018465518951416e-01 -1.450953781604766846e-01 3.379235565662384033e-01
2.429387867450714111e-01 -1.281361877918243408e-01 -1.305854469537734985e-01
-5.931096151471138000e-02 -5.777517557144165039e-01 -3.210946619510650635e-01
2.454785406589508057e-01 -2.228380143642425537e-01 -1.283238530158996582e-01
8.381073921918869019e-02 -9.697617888450622559e-01 -1.041233763098716736e-01
-2.886292636394500732e-01 -3.945089578628540039e-01 1.516884118318557739e-01
-3.009363114833831787e-01 -5.032324194908142090e-01 -1.109832003712654114e-01
2.037569582462310791e-01 3.693414926528930664e-01 -5.523208528757095337e-02
-3.096893727779388428e-01 -4.985348284244537354e-01 -5.852816998958587646e-02
-7.078585773706436157e-02 -1.910047680139541626e-01 -3.636689484119415283e-01
-2.315026223659515381e-01 -3.599463701248168945e-01 2.495714873075485229e-01
6.968735903501510620e-02 7.267990112304687500e-01 1.124631017446517944e-01
-2.320683598518371582e-01 5.163742303848266602e-01 1.999292820692062378e-01
-4.247903078794479370e-02 2.820574939250946045e-01 3.549904525279998779e-01
1.756348609924316406e-01 4.457393586635589600e-01 1.654993295669555664e-01
-1.417165249586105347e-01 -2.984354197978973389e-01 -3.453945219516754150e-01
-1.647124290466308594e-01 6.249334663152694702e-02 3.360037207603454590e-01
-1.210396885871887207e-01 -7.077968865633010864e-02 -3.579819798469543457e-01
-2.936643958091735840e-01 4.400245845317840576e-01 -1.392419189214706421e-01
9.182771295309066772e-02 3.713390529155731201e-01 3.017233312129974365e-01
2.424509227275848389e-01 -5.760864615440368652e-01 1.151118874549865723e-01
-1.977247893810272217e-01 3.681547045707702637e-01 -2.757138311862945557e-01
-3.345800936222076416e-01 -3.045452535152435303e-01 -9.315021336078643799e-02
-2.787170112133026123e-01 -6.400257349014282227e-03 -2.585156261920928955e-01
-2.496502399444580078e-01 -5.051681399345397949e-01 1.841254830360412598e-01
-1.936039924621582031e-01 -3.752174973487854004e-01 -3.110938370227813721e-01
-2.339135110378265381e-01 -2.552703320980072021e-01 2.650150954723358154e-01
-1.933873295783996582e-01 -7.010585069656372070e-01 -2.188007980585098267e-01
-1.960144937038421631e-01 -6.271088123321533203e-02 3.153398036956787109e-01
-3.370167016983032227e-01 6.010219454765319824e-03 1.082271635532379150e-01
2.115066349506378174e-01 -7.635064721107482910e-01 -5.378881469368934631e-03
-2.153423130512237549e-01 2.737993896007537842e-01 -2.853404283523559570e-01
-1.380423009395599365e-01 -7.723464369773864746e-01 -2.338546216487884521e-01
2.709287703037261963e-01 -9.582512080669403076e-03 2.175744064152240753e-02
1.899576187133789062e-01 -1.561613082885742188e-01 2.885513603687286377e-01
-1.240126639604568481e-01 -7.993220686912536621e-01 2.010514587163925171e-01
2.366926670074462891e-01 -8.521634340286254883e-02 2.168837785720825195e-01
-2.518123984336853027e-01 -2.238703370094299316e-01 2.484663873910903931e-01
-9.335148334503173828e-02 -8.170954585075378418e-01 2.134056091308593750e-01
-1.496332287788391113e-01 7.191240787506103516e-01 -1.488773524761199951e-01
-5.023385956883430481e-02 6.311292648315429688e-01 -2.133548855781555176e-01
-1.847791969776153564e-01 -4.018347337841987610e-02 3.240967392921447754e-01
-1.461693048477172852e-01 -8.329634070396423340e-01 -1.936716139316558838e-01
-8.164292573928833008e-02 1.677422225475311279e-01 3.631887137889862061e-01
-2.487784922122955322e-01 -4.547772407531738281e-01 2.027806937694549561e-01
-2.235511839389801025e-01 -7.755861282348632812e-01 -1.111358106136322021e-01
-2.820232696831226349e-02 -1.564013510942459106e-01 -3.616546392440795898e-01
1.627162992954254150e-01 -3.464387655258178711e-01 -2.530501484870910645e-01
-2.389990389347076416e-01 -2.421581447124481201e-01 2.611732184886932373e-01
1.582395434379577637e-01 -2.177247852087020874e-01 3.172030746936798096e-01
4.117201268672943115e-02 5.949380993843078613e-01 2.497360557317733765e-01
-2.882868647575378418e-01 1.771508157253265381e-01 2.050089687108993530e-01
1.344670057296752930e-01 -4.934859573841094971e-01 3.010521531105041504e-01
-3.027627766132354736e-01 -3.051111102104187012e-01 -1.954808384180068970e-01
-2.980240881443023682e-01 -4.322502017021179199e-01 -1.639855206012725830e-01
-1.024455875158309937e-01 -6.459471583366394043e-01 2.787682712078094482e-01
-2.997543811798095703e-01 -2.063778042793273926e-01 -2.192410826683044434e-01
-1.110589802265167236e-01 -8.866332769393920898e-01 1.570797711610794067e-01
-1.191692873835563660e-01 3.209987580776214600e-01 3.321911394596099854e-01
7.297924906015396118e-02 2.827138453722000122e-02 -3.177821934223175049e-01
-3.139242827892303467e-01 -4.373362064361572266e-01 5.188202485442161560e-02
2.421542704105377197e-01 2.281853258609771729e-01 8.608397841453552246e-02
-2.898722887039184570e-01 -5.906903743743896484e-01 -5.942390114068984985e-02
-2.937948703765869141e-01 4.977119863033294678e-01 -9.935765713453292847e-02
2.250073254108428955e-01 2.750600278377532959e-01 1.377898156642913818e-01
-3.565520346164703369e-01 1.797534525394439697e-02 -3.811813145875930786e-02
-2.369364798069000244e-01 4.950278103351593018e-01 2.020955234766006470e-01
-3.509051203727722168e-01 7.451476901769638062e-02 -8.684555441141128540e-02
2.588452994823455811e-01 8.816006034612655640e-02 1.021412312984466553e-01
2.486427128314971924e-01 1.642506420612335205e-01 1.090477332472801208e-01
1.627196371555328369e-01 -8.833078145980834961e-01 -4.660436883568763733e-02
-2.304552495479583740e-01 8.484258502721786499e-02 -3.003107309341430664e-01
-1.695989668369293213e-01 -8.927303552627563477e-01 -1.030774116516113281e-01
-1.943300962448120117e-01 7.267194986343383789e-01 1.178760007023811340e-01
-2.639625370502471924e-01 -6.398569941520690918e-01 -1.279728859663009644e-01
2.569161057472229004e-01 -5.320786237716674805e-01 6.848729401826858521e-02
9.161672741174697876e-02 -4.416131377220153809e-01 3.332413733005523682e-01
6.405118852853775024e-03 4.684368073940277100e-01 -2.613287270069122314e-01
-1.680598258972167969e-01 -5.565593242645263672e-01 2.626437246799468994e-01
1.338736712932586670e-01 4.361521303653717041e-01 -1.668365001678466797e-01
-1.500030905008316040e-01 -5.745845437049865723e-01 2.714266479015350342e-01
-4.481887072324752808e-02 7.447526454925537109e-01 -1.408562511205673218e-01
2.606999576091766357e-01 -1.339978575706481934e-01 -7.984095066785812378e-02
1.161959841847419739e-01 5.526466369628906250e-01 2.036980241537094116e-01
6.157308816909790039e-02 7.591120004653930664e-01 4.306068643927574158e-02
-3.399768769741058350e-01 -1.218649595975875854e-01 -1.328233182430267334e-01
-1.937189102172851562e-01 7.437034845352172852e-01 9.863486140966415405e-02
1.555774509906768799e-01 3.499490916728973389e-01 2.490087747573852539e-01
-8.849062025547027588e-02 -9.205349683761596680e-01 -1.760589182376861572e-01
2.412402331829071045e-01 -5.488760471343994141e-01 -7.741465419530868530e-02
-3.456943929195404053e-01 1.609458327293395996e-01 -9.368404000997543335e-02
-1.906174123287200928e-01 -8.737326860427856445e-01 1.813575997948646545e-02
-1.318349391222000122e-01 6.053227782249450684e-01 -2.226867824792861938e-01
1.088729426264762878e-01 -6.559172868728637695e-01 2.751479148864746094e-01
2.661161720752716064e-01 -5.031292885541915894e-02 -4.069121181964874268e-02
-1.228905618190765381e-01 6.708863973617553711e-01 -1.912677288055419922e-01
-1.894162297248840332e-01 6.127277612686157227e-01 2.042066156864166260e-01
-1.141112744808197021e-01 -9.603918194770812988e-01 8.017228543758392334e-02
-3.371375203132629395e-01 -2.102706134319305420e-01 7.359440624713897705e-02
5.126193910837173462e-02 4.872355759143829346e-01 2.890094220638275146e-01
-8.884461224079132080e-02 5.884666442871093750e-01 -2.364765852689743042e-01
2.746860384941101074e-01 -8.007603138685226440e-02 6.967088580131530762e-02
3.265190869569778442e-02 -4.868060350418090820e-04 -3.398630619049072266e-01
-3.506229221820831299e-01 8.623313158750534058e-02 4.502386972308158875e-02
2.606826424598693848e-01 -4.959894418716430664e-01 -1.126663852483034134e-02
1.312401592731475830e-01 5.947625637054443359e-01 -6.003303825855255127e-02
1.988597214221954346e-01 -6.201860904693603516e-01 -1.524376422166824341e-01
-3.185538649559020996e-01 3.042718768119812012e-01 1.146639510989189148e-01
1.314421296119689941e-01 -1.123827174305915833e-01 -2.860613763332366943e-01
-2.219583392143249512e-01 -8.098399043083190918e-01 -4.683834314346313477e-02
6.587355583906173706e-02 1.400660574436187744e-01 -3.082402348518371582e-01
1.992824077606201172e-01 -2.929610013961791992e-02 -2.024094909429550171e-01
1.788462400436401367e-01 -8.536379933357238770e-01 -2.836100384593009949e-02
-1.608684360980987549e-01 -1.480083316564559937e-01 -3.462293446063995361e-01
-1.611812412738800049e-01 1.309275031089782715e-01 -3.339420557022094727e-01
9.343688935041427612e-02 -9.993653893470764160e-01 4.428995028138160706e-02
-2.619954049587249756e-01 -4.845152199268341064e-01 1.708977967500686646e-01
-3.175825774669647217e-01 -4.555949196219444275e-02 -1.978121846914291382e-01
-8.051876723766326904e-02 5.463601946830749512e-01 -2.535306215286254883e-01
6.112622469663619995e-02 -1.017813205718994141e+00 6.367425620555877686e-02
1.070047542452812195e-01 6.056473851203918457e-01 1.793522238731384277e-01
2.633594870567321777e-01 -2.595391571521759033e-01 1.486947387456893921e-01
-2.975235581398010254e-01 -5.194240808486938477e-01 -1.115974411368370056e-01
-1.783520877361297607e-01 7.833409905433654785e-01 -4.220299422740936279e-02
-2.278169989585876465e-01 -3.394821882247924805e-01 -2.900771200656890869e-01
-4.932092875242233276e-02 -1.774819791316986084e-01 3.754971921443939209e-01
-2.774517834186553955e-01 5.872257947921752930e-01 5.342686176300048828e-02
-1.578720510005950928e-01 -9.370927810668945312e-01 -1.303044799715280533e-02
-1.744945347309112549e-01 6.850938796997070312e-01 -1.572520434856414795e-01
-2.155374549329280853e-02 -1.132100075483322144e-01 -3.602715730667114258e-01
1.545389592647552490e-01 3.863866925239562988e-01 2.363418191671371460e-01
-3.031503856182098389e-01 4.537992179393768311e-01 8.728151023387908936e-02
-3.415361046791076660e-02 -9.882389307022094727e-01 1.210980862379074097e-01
-2.834142744541168213e-01 -6.768681108951568604e-02 2.198626399040222168e-01
-8.720740675926208496e-02 -9.374230504035949707e-01 -1.631132513284683228e-01
2.535684108734130859e-01 -4.839982688426971436e-01 1.240872591733932495e-01
-2.588196992874145508e-01 -4.101861417293548584e-01 -2.425884157419204712e-01
-2.079170383512973785e-02 2.433304190635681152e-01 3.610611855983734131e-01
-1.137915067374706268e-02 -8.814969658851623535e-01 -2.163279652595520020e-01
4.000657051801681519e-02 -1.806575059890747070e-01 -3.434059023857116699e-01
-2.545937597751617432e-01 -2.718900144100189209e-01 2.377276867628097534e-01
-3.543617129325866699e-01 1.131938174366950989e-01 -3.959303721785545349e-02
-3.330259025096893311e-01 6.482193619012832642e-02 1.193335205316543579e-01
7.504120469093322754e-02 2.164956629276275635e-01 -2.895063161849975586e-01
1.876115798950195312e-01 -4.081208109855651855e-01 2.702282369136810303e-01
-1.189931035041809082e-01 5.430427193641662598e-01 -2.517219185829162598e-01
2.293011844158172607e-01 -5.230593085289001465e-01 1.788843721151351929e-01
-1.474930644035339355e-01 5.980259776115417480e-01 2.429825365543365479e-01
-5.236255377531051636e-02 -8.635392785072326660e-01 2.083226591348648071e-01
2.173573076725006104e-01 -6.309934854507446289e-01 1.586265265941619873e-01
-2.278072535991668701e-01 2.966874241828918457e-01 2.646371424198150635e-01
-1.730853319168090820e-01 1.371428668498992920e-01 3.269048929214477539e-01
2.066352367401123047e-01 2.382426857948303223e-01 -1.245289444923400879e-01
2.122819721698760986e-01 -3.701542615890502930e-01 -1.853907406330108643e-01
2.730289101600646973e-01 -1.409412026405334473e-01 -2.274697273969650269e-02
2.231760323047637939e-01 3.402138054370880127e-01 3.233228623867034912e-02
2.262450754642486572e-01 9.295540302991867065e-02 2.108242958784103394e-01
1.862688958644866943e-01 -7.522042989730834961e-01 -1.132762059569358826e-01
-3.222761154174804688e-01 -1.230245083570480347e-01 1.400358080863952637e-01
1.730896532535552979e-01 -3.337538838386535645e-01 2.952485382556915283e-01
-5.273338407278060913e-03 -1.007562160491943359e+00 -1.185831278562545776e-01
2.026086151599884033e-01 -1.817708313465118408e-01 -2.081965059041976929e-01
2.066216766834259033e-01 3.221521675586700439e-01 1.672472357749938965e-01
-3.260866105556488037e-01 3.718763887882232666e-01 -7.200671732425689697e-02
1.795172095298767090e-01 4.628201425075531006e-01 -5.367942899465560913e-02
-3.065799176692962646e-02 -6.367112696170806885e-02 -3.603365719318389893e-01
-4.698813706636428833e-02 5.293380618095397949e-01 2.970270812511444092e-01
-3.293275535106658936e-01 1.126462146639823914e-01 1.262218058109283447e-01
-2.228313386440277100e-01 -7.470046728849411011e-02 2.920773625373840332e-01
2.455380558967590332e-01 6.201862543821334839e-02 -8.690027147531509399e-02
-1.293943971395492554e-01 -5.192549824714660645e-01 -3.184354901313781738e-01
2.661511600017547607e-01 -7.045142352581024170e-02 -4.623790085315704346e-02
-4.969169199466705322e-02 6.776154041290283203e-01 2.340590059757232666e-01
1.079224571585655212e-01 6.167127490043640137e-01 1.684325784444808960e-01
1.630745232105255127e-01 1.956478506326675415e-02 -2.438390702009201050e-01
-2.081743776798248291e-01 3.091056346893310547e-01 2.806865274906158447e-01
-1.928251087665557861e-01 -2.703642249107360840e-01 -3.239869475364685059e-01
-8.597277104854583740e-02 3.470979630947113037e-01 -3.125993013381958008e-01
3.309258818626403809e-02 6.546009778976440430e-01 2.218737304210662842e-01
2.336881160736083984e-01 -8.468994498252868652e-02 -1.473291814327239990e-01
2.139328718185424805e-01 3.756541311740875244e-01 7.946267724037170410e-02
-2.379616200923919678e-01 -7.685938477516174316e-01 -4.733711853623390198e-02
1.026464030146598816e-01 -7.277265191078186035e-02 -3.064997494220733643e-01
2.109829485416412354e-01 2.612470984458923340e-01 -1.035906523466110229e-01
1.172481700778007507e-01 -9.512702226638793945e-01 8.870310336351394653e-02
-1.215689852833747864e-01 2.185046672821044922e-01 -3.332014083862304688e-01
-1.950029432773590088e-01 -3.790698051452636719e-01 2.826614677906036377e-01
1.716013550758361816e-01 -3.495165407657623291e-01 -2.430259436368942261e-01
-2.643986046314239502e-01 -4.213231205940246582e-01 -2.319326847791671753e-01
2.686576545238494873e-01 -3.935279548168182373e-01 9.061912447214126587e-02
1.111811473965644836e-01 4.424663484096527100e-01 -1.928560286760330200e-01
2.514941096305847168e-01 1.800757050514221191e-01 4.829992726445198059e-02
-2.092245966196060181e-03 -7.100088596343994141e-01 -2.843624353408813477e-01
7.294736802577972412e-02 -1.415318399667739868e-01 3.667687475681304932e-01
1.474780142307281494e-01 5.408113002777099609e-01 1.555970460176467896e-01
2.166513204574584961e-01 3.041185736656188965e-01 1.477932333946228027e-01
-2.296631336212158203e-01 6.021005511283874512e-01 -1.560562849044799805e-01
-6.819330900907516479e-02 4.494579732418060303e-01 3.185379803180694580e-01
6.736735999584197998e-02 2.816500663757324219e-01 -2.807025015354156494e-01
-1.118502840399742126e-01 -6.627876162528991699e-01 2.680627405643463135e-01
-5.852789431810379028e-02 -5.568946599960327148e-01 3.203139305114746094e-01
7.595167309045791626e-02 -6.560307741165161133e-01 2.901552021503448486e-01
6.225887686014175415e-02 7.269705086946487427e-02 -3.191214799880981445e-01
-2.343284189701080322e-01 -5.648620724678039551e-01 1.846288889646530151e-01
-2.105056345462799072e-01 7.356312274932861328e-01 6.966110318899154663e-02
-2.744714021682739258e-01 -4.348106086254119873e-01 -2.121318131685256958e-01
-1.001514196395874023e-01 -7.954127192497253418e-01 2.202544212341308594e-01
-1.589475870132446289e-01 -7.992388606071472168e-01 -2.023169994354248047e-01
-2.992910444736480713e-01 5.011385679244995117e-01 6.038152053952217102e-02
-1.664220988750457764e-01 7.478169202804565430e-01 -1.112597361207008362e-01
-3.405311405658721924e-01 -2.999164164066314697e-02 -1.386523097753524780e-01
4.931686818599700928e-02 -9.244529604911804199e-01 1.748997122049331665e-01
-1.324976086616516113e-01 -2.783660888671875000e-01 -3.499230742454528809e-01
6.341472268104553223e-02 7.565035223960876465e-01 2.750249952077865601e-02
1.119941994547843933e-01 -9.781306982040405273e-01 -3.199224174022674561e-02
-7.975323498249053955e-02 -3.971316516399383545e-01 3.457367718219757080e-01
-1.552497446537017822e-01 -5.482249259948730469e-01 2.751666307449340820e-01
-2.434391677379608154e-01 -6.398015618324279785e-01 -1.778955459594726562e-01
-3.026813268661499023e-01 4.480286687612533569e-02 1.896281689405441284e-01
1.209225580096244812e-01 6.238730549812316895e-01 -5.323865264654159546e-02
1.325399577617645264e-01 -5.785292983055114746e-01 -2.482875138521194458e-01
2.617064416408538818e-01 -4.764029979705810547e-01 -2.004014328122138977e-02
2.688927352428436279e-01 -2.213269621133804321e-01 -5.185522884130477905e-02
2.882474660873413086e-02 -7.532015442848205566e-01 -2.626965045928955078e-01
2.136836349964141846e-01 -6.421597003936767578e-01 -1.120955348014831543e-01
-2.612344324588775635e-01 4.240465462207794189e-01 -2.022033631801605225e-01
-3.434620797634124756e-01 -4.300311207771301270e-03 -1.282419115304946899e-01
5.086355656385421753e-02 6.026849746704101562e-01 -1.755728572607040405e-01
2.424066662788391113e-01 -1.573723107576370239e-01 -1.339101791381835938e-01
9.126982837915420532e-02 -1.007261157035827637e+00 1.225215196609497070e-02
-2.520233094692230225e-01 5.628301501274108887e-01 1.467113941907882690e-01
1.220013871788978577e-01 -1.280186772346496582e-01 3.446104824542999268e-01
1.664144098758697510e-01 4.949680864810943604e-01 1.486331969499588013e-01
-2.474493384361267090e-01 3.917452096939086914e-01 2.220093756914138794e-01
-1.353735029697418213e-01 -2.298534810543060303e-01 -3.520946800708770752e-01
2.322395443916320801e-01 2.626992762088775635e-03 -1.373178511857986450e-01
-3.180477023124694824e-01 -8.903767168521881104e-02 -1.954166293144226074e-01
4.633981734514236450e-02 6.762783527374267578e-01 1.975866705179214478e-01
2.339427173137664795e-01 2.450744211673736572e-01 1.219512447714805603e-01
-3.538240790367126465e-01 9.281443804502487183e-02 1.702717691659927368e-02
1.480974853038787842e-01 -3.956333547830581665e-02 3.251828551292419434e-01
6.911658495664596558e-02 -1.158943027257919312e-01 3.684126436710357666e-01
6.130599230527877808e-02 -9.858547449111938477e-01 1.131273210048675537e-01
2.653949260711669922e-01 -3.611487150192260742e-01 -5.066614598035812378e-02
-2.352628111839294434e-01 -4.340436160564422607e-01 -2.650360763072967529e-01
-3.317672908306121826e-01 -3.248068690299987793e-01 4.245166853070259094e-02
-1.952779591083526611e-01 5.308268666267395020e-01 2.339485436677932739e-01
1.154977083206176758e-02 -3.708248734474182129e-01 3.612228035926818848e-01
1.462280452251434326e-01 -7.916883826255798340e-01 -1.593785136938095093e-01
2.054580301046371460e-02 6.116417646408081055e-01 -1.937133818864822388e-01
-8.675510436296463013e-02 -1.910606920719146729e-01 -3.627612888813018799e-01
3.198178857564926147e-02 -5.055968761444091797e-01 3.374682962894439697e-01
-2.798531353473663330e-01 -2.373926043510437012e-01 2.069589197635650635e-01
-1.258145272731781006e-01 -6.353008151054382324e-01 2.689137160778045654e-01
-2.267831861972808838e-01 -2.628901600837707520e-01 -3.005653619766235352e-01
-4.043919593095779419e-02 -1.671468317508697510e-01 -3.630185425281524658e-01
1.864469647407531738e-01 -7.839022874832153320e-01 1.271591186523437500e-01
3.228261321783065796e-02 -1.022236943244934082e+00 8.010256290435791016e-02
-6.566677242517471313e-03 -6.391490697860717773e-01 3.070287704467773438e-01
1.427816152572631836e-01 -9.246857762336730957e-01 6.785213202238082886e-02
-4.568987339735031128e-02 -9.469821453094482422e-01 1.546352207660675049e-01
9.654293209314346313e-02 1.191560849547386169e-01 3.459038734436035156e-01
2.264751791954040527e-01 -6.521392464637756348e-01 1.195895969867706299e-01
-8.564520627260208130e-02 -1.008473992347717285e+00 4.352278262376785278e-02
-1.960313916206359863e-01 -8.013477325439453125e-01 -1.507166922092437744e-01
3.858969360589981079e-02 7.454007118940353394e-02 3.710753023624420166e-01
1.349757611751556396e-01 -6.672821044921875000e-01 2.539918124675750732e-01
1.815036535263061523e-01 3.202938139438629150e-01 -1.414724290370941162e-01
1.958701014518737793e-01 -3.454932272434234619e-01 2.697952985763549805e-01
-3.337801992893218994e-01 -3.379464447498321533e-01 1.489670667797327042e-02
1.068073287606239319e-01 4.594232738018035889e-01 2.608661651611328125e-01
2.030463516712188721e-01 2.156566083431243896e-01 -1.409615576267242432e-01
-1.326804310083389282e-01 -8.794340491294860840e-01 -1.736498773097991943e-01
9.122098237276077271e-02 3.809159249067306519e-02 -3.053667545318603516e-01
1.660722494125366211e-02 5.930674672126770020e-01 2.622021734714508057e-01
-3.550823032855987549e-01 -1.065456867218017578e-02 -6.161612272262573242e-02
-2.076717019081115723e-01 3.299759328365325928e-01 -2.786716818809509277e-01
2.098664343357086182e-01 -6.735363006591796875e-01 1.520361751317977905e-01
1.978211700916290283e-01 3.991403877735137939e-01 1.373272091150283813e-01
-7.958337664604187012e-03 -2.781939208507537842e-01 -3.551269173622131348e-01
4.436175525188446045e-02 7.761439085006713867e-01 -6.949426606297492981e-04
2.291789352893829346e-01 2.107346355915069580e-01 -7.614027708768844604e-02
-1.657567322254180908e-01 -3.795674443244934082e-01 -3.264612853527069092e-01
-3.055479526519775391e-01 2.147646248340606689e-01 -1.949722617864608765e-01
-2.889418601989746094e-01 -4.707675576210021973e-01 -1.692038923501968384e-01
-2.953463792800903320e-01 1.673428714275360107e-01 1.942800134420394897e-01
2.294667661190032959e-01 -4.694388210773468018e-01 1.954524666070938110e-01
-5.613603442907333374e-02 2.868196070194244385e-01 3.530656099319458008e-01
-2.650040388107299805e-01 6.246543526649475098e-01 5.359524488449096680e-02
-1.279435157775878906e-01 -4.396377801895141602e-01 -3.331559300422668457e-01
1.524689793586730957e-01 -4.703907966613769531e-01 -2.494670301675796509e-01
-1.236128211021423340e-01 -4.942260086536407471e-01 3.088941276073455811e-01
-2.401550114154815674e-01 -7.192321419715881348e-01 7.462736964225769043e-02
1.167202964425086975e-01 -9.327070713043212891e-01 1.141955703496932983e-01
-2.318474054336547852e-01 -7.538274526596069336e-01 6.182032078504562378e-02
-2.403020262718200684e-01 5.890853404998779297e-01 -1.495415866374969482e-01
2.591004669666290283e-01 -4.079519808292388916e-01 -6.550052762031555176e-02
7.185107469558715820e-02 6.359201073646545410e-01 -1.322031617164611816e-01
-2.245240807533264160e-01 2.872581481933593750e-01 -2.760512828826904297e-01
2.495585381984710693e-01 -5.600634217262268066e-01 9.326686710119247437e-02
-6.739401072263717651e-02 -8.409715294837951660e-01 -2.328752577304840088e-01
-1.683223545551300049e-01 -6.429618597030639648e-01 2.332012504339218140e-01
-8.943151682615280151e-03 -4.890784621238708496e-02 -3.557110428810119629e-01
9.004428237676620483e-02 7.040139436721801758e-01 9.611237049102783203e-02
2.051039636135101318e-01 -7.778594493865966797e-01 -2.471433579921722412e-02
5.577968060970306396e-02 -1.299069523811340332e-01 3.720944523811340332e-01
-2.560960054397583008e-01 1.373554468154907227e-01 -2.727875709533691406e-01
-2.334849834442138672e-01 3.458389937877655029e-01 -2.554470896720886230e-01
2.209970653057098389e-01 -1.489737331867218018e-01 2.474475950002670288e-01
1.234893277287483215e-01 6.489450335502624512e-01 7.529816776514053345e-02
-2.835786044597625732e-01 -5.574806928634643555e-01 8.007187396287918091e-02
1.109559088945388794e-03 -1.007286190986633301e+00 1.075388863682746887e-01
-4.336308687925338745e-02 1.238931939005851746e-01 -3.477647006511688232e-01
1.930545866489410400e-01 -5.595605447888374329e-02 -2.143784314393997192e-01
-3.032921254634857178e-02 7.225449681282043457e-01 2.043679058551788330e-01
-3.037159740924835205e-01 -1.893650293350219727e-01 -2.143625468015670776e-01
-9.602542221546173096e-02 7.114999890327453613e-01 2.082679867744445801e-01
-2.864376902580261230e-01 4.514983594417572021e-01 -1.490354686975479126e-01
1.316879391670227051e-01 -4.167922437191009521e-01 3.164575695991516113e-01
-2.429282963275909424e-01 4.596432149410247803e-01 -2.107360661029815674e-01
1.392215788364410400e-01 -8.728826045989990234e-01 1.401933878660202026e-01
2.216711640357971191e-01 2.874543666839599609e-01 -5.380644649267196655e-02
-2.888831496238708496e-01 3.870698809623718262e-01 -1.737408041954040527e-01
-2.331283688545227051e-01 6.760348081588745117e-01 9.372380375862121582e-02
-7.783155143260955811e-02 -9.108118414878845215e-01 1.652104556560516357e-01
-1.800046265125274658e-01 -6.874539852142333984e-01 2.024957388639450073e-01
2.026892006397247314e-01 1.899041235446929932e-03 2.653748393058776855e-01
9.520193189382553101e-02 -5.741756558418273926e-01 -2.781673967838287354e-01
