3.194286227226257324e-01 3.019818365573883057e-01 -6.596210598945617676e-02
1.662001311779022217e-01 -1.529760509729385376e-01 -6.400655210018157959e-02
3.711073994636535645e-01 3.223124146461486816e-01 -5.953816324472427368e-02
-4.143123924732208252e-01 -8.401498943567276001e-02 6.798721849918365479e-02
-5.162140727043151855e-01 -1.411710381507873535e-01 -5.768590793013572693e-02
-2.435846030712127686e-01 1.650535874068737030e-02 8.171384781599044800e-02
4.461814463138580322e-01 2.808288335800170898e-01 -6.183834001421928406e-02
-2.614380419254302979e-01 -2.177164405584335327e-01 8.146087825298309326e-02
-6.316370368003845215e-01 -2.218613922595977783e-01 -2.171089127659797668e-02
2.507018446922302246e-01 -1.134735047817230225e-01 6.061761826276779175e-02
-1.032222062349319458e-01 2.996763959527015686e-02 -9.470418095588684082e-02
3.778004646301269531e-01 -4.437442868947982788e-03 6.236112862825393677e-02
4.764166176319122314e-01 2.464512288570404053e-01 6.537770479917526245e-02
-4.434558451175689697e-01 1.774824783205986023e-02 3.361829370260238647e-02
5.209663510322570801e-02 -2.824287116527557373e-01 -2.708181366324424744e-02
-4.036176502704620361e-01 -4.055771529674530029e-01 -2.562315389513969421e-02
2.752799987792968750e-01 3.195033669471740723e-01 -6.132448092103004456e-02
-6.440277099609375000e-01 -2.813934981822967529e-01 7.134627085179090500e-03
-2.477079033851623535e-01 -3.768494427204132080e-01 -3.467682749032974243e-02
5.330011844635009766e-01 2.880129814147949219e-01 5.236387252807617188e-02
-4.575436711311340332e-01 -2.573277652263641357e-01 -6.857775896787643433e-02
-9.116695821285247803e-02 -2.115159183740615845e-01 -8.116419613361358643e-02
-1.769106686115264893e-01 4.455503076314926147e-02 8.570836484432220459e-02
-1.393749117851257324e-01 2.479391396045684814e-01 1.980049349367618561e-02
5.577946826815605164e-02 -1.294655054807662964e-01 -8.485817164182662964e-02
-2.440415322780609131e-01 1.036151200532913208e-01 6.407345086336135864e-02
-5.661872029304504395e-01 -2.863604128360748291e-01 -4.798931628465652466e-02
-2.975669503211975098e-01 1.235230341553688049e-01 -4.534498974680900574e-02
-2.402260750532150269e-01 2.084700763225555420e-02 -8.461242169141769409e-02
-4.473029449582099915e-02 -2.122211158275604248e-01 -7.739587128162384033e-02
3.438479006290435791e-01 3.888093531131744385e-01 -3.326168283820152283e-02
-2.432539761066436768e-01 1.842453330755233765e-01 2.414955385029315948e-02
9.815937839448451996e-03 -7.458618283271789551e-02 -9.458128362894058228e-02
3.452894389629364014e-01 3.442118167877197266e-01 5.628084018826484680e-02
-1.828027702867984772e-02 2.382020652294158936e-01 -6.332695484161376953e-02
-4.728716015815734863e-01 -2.355531603097915649e-01 6.331169605255126953e-02
3.822635114192962646e-01 1.493623405694961548e-01 7.955041527748107910e-02
-4.352107942104339600e-01 -1.658610999584197998e-01 6.998911499977111816e-02
4.012651741504669189e-01 -1.651680655777454376e-02 -4.864286258816719055e-02
-4.370559751987457275e-01 -4.137147367000579834e-01 -1.538013294339179993e-02
-3.339683711528778076e-01 9.485075622797012329e-02 4.230083897709846497e-02
2.383681386709213257e-01 1.507026255130767822e-01 -8.823454380035400391e-02
-5.036693811416625977e-01 -3.238068521022796631e-02 2.706106379628181458e-02
-5.058749765157699585e-02 -2.963594198226928711e-01 4.806589335203170776e-02
1.608644723892211914e-01 -1.837146133184432983e-01 -5.374405533075332642e-02
1.278855502605438232e-01 -1.839186400175094604e-01 -6.118632480502128601e-02
5.040066242218017578e-01 1.551787555217742920e-02 5.185776855796575546e-03
3.629234433174133301e-01 4.134064316749572754e-01 1.083570532500743866e-02
4.602876305580139160e-02 2.172822654247283936e-01 7.628244906663894653e-02
-6.225607395172119141e-01 -2.799699604511260986e-01 2.328958548605442047e-02
1.780997216701507568e-01 2.410101294517517090e-01 7.922834157943725586e-02
-1.319430917501449585e-01 -3.481623530387878418e-01 3.193416818976402283e-02
1.845993548631668091e-01 2.966809868812561035e-01 6.567878276109695435e-02
-4.938446879386901855e-01 -3.400274515151977539e-01 -5.063435807824134827e-02
-1.258327513933181763e-01 -9.429771453142166138e-02 -9.573538601398468018e-02
-3.481767773628234863e-01 -2.378193289041519165e-01 7.547295093536376953e-02
5.549856424331665039e-01 3.544381558895111084e-01 3.339640051126480103e-02
4.120200872421264648e-01 3.332248628139495850e-01 -5.459037050604820251e-02
4.355232045054435730e-02 5.348409526050090790e-03 -9.723810851573944092e-02
1.474864631891250610e-01 -1.911764033138751984e-02 9.195825457572937012e-02
-3.098042309284210205e-01 3.336826339364051819e-02 6.846186518669128418e-02
4.198853373527526855e-01 2.459001541137695312e-01 7.200281322002410889e-02
2.755768299102783203e-01 2.235651016235351562e-01 8.251348882913589478e-02
3.271476924419403076e-01 2.168268114328384399e-01 -7.885385304689407349e-02
-4.657547771930694580e-01 -1.997096687555313110e-01 -7.054045796394348145e-02
-4.018090367317199707e-01 -4.138984680175781250e-01 -1.537845004349946976e-02
-2.740748226642608643e-02 -2.846929132938385010e-01 -4.995280876755714417e-02
-2.461967617273330688e-02 2.348718196153640747e-01 -6.356530636548995972e-02
-2.647602558135986328e-01 -2.963952124118804932e-01 6.710486114025115967e-02
3.077014982700347900e-01 3.367230892181396484e-01 5.840873718261718750e-02
1.755549460649490356e-01 -1.571965590119361877e-02 -8.887851983308792114e-02
1.718998253345489502e-01 1.096390634775161743e-01 9.370112419128417969e-02
1.013750135898590088e-01 1.048855856060981750e-01 -9.422904253005981445e-02
3.070486485958099365e-01 -1.063308939337730408e-01 4.738140851259231567e-02
-1.952025741338729858e-01 -1.648172549903392792e-02 8.985827118158340454e-02
3.072118163108825684e-01 -1.442975699901580811e-01 -1.602396368980407715e-02
8.671748638153076172e-02 1.557998210191726685e-01 -8.951701968908309937e-02
5.660563111305236816e-01 3.470272719860076904e-01 -2.825850807130336761e-02
8.699559420347213745e-02 -2.239300310611724854e-01 5.467923730611801147e-02
3.941271305084228516e-01 -2.530221641063690186e-02 5.153466388583183289e-02
3.471740186214447021e-01 1.174779236316680908e-01 8.271938562393188477e-02
-7.545426487922668457e-02 -1.307543665170669556e-01 9.141399711370468140e-02
-3.475314080715179443e-01 -7.534506916999816895e-02 -8.187202364206314087e-02
5.122114419937133789e-01 1.565538048744201660e-01 -5.324844270944595337e-02
-4.437419176101684570e-01 -3.596104681491851807e-01 -4.924126714468002319e-02
-2.482739463448524475e-02 2.508188486099243164e-01 5.608572810888290405e-02
-8.433291316032409668e-02 -1.173334345221519470e-01 9.277604520320892334e-02
4.449746906757354736e-01 -3.396665677428245544e-02 2.045903727412223816e-02
-4.308259114623069763e-02 7.832986116409301758e-02 9.240552783012390137e-02
-1.358154714107513428e-01 6.720204651355743408e-02 8.684013783931732178e-02
9.919375926256179810e-02 2.035319060087203979e-01 8.290905505418777466e-02
9.529405832290649414e-02 3.585275262594223022e-02 9.656623005867004395e-02
-2.766890227794647217e-01 -3.986197412014007568e-01 1.506911311298608780e-02
-4.804525151848793030e-02 8.633789420127868652e-02 9.130582213401794434e-02
-3.843317031860351562e-01 -1.976923644542694092e-01 -7.996775209903717041e-02
-4.077305197715759277e-01 -2.376925796270370483e-01 -7.526201009750366211e-02
-8.316083252429962158e-02 -8.313831686973571777e-02 -9.625194966793060303e-02
5.888454318046569824e-01 2.118561714887619019e-01 -3.391476348042488098e-02
5.057273507118225098e-01 4.216665402054786682e-02 3.152196854352951050e-02
-4.733900129795074463e-01 -4.920292645692825317e-02 -5.222474038600921631e-02
-3.322435319423675537e-01 -1.752620339393615723e-01 -8.500111103057861328e-02
-4.386480152606964111e-01 -1.920056492090225220e-01 -7.434473186731338501e-02
-4.805884957313537598e-01 -3.605405092239379883e-01 4.097102954983711243e-02
7.290755957365036011e-02 -8.123307675123214722e-02 9.067943692207336426e-02
-5.558834075927734375e-01 -1.521766632795333862e-01 4.129898920655250549e-02
2.962453663349151611e-01 3.954507410526275635e-01 2.592605538666248322e-02
-1.404892504215240479e-01 7.548322901129722595e-05 -9.472074359655380249e-02
1.790862381458282471e-01 -1.715606153011322021e-01 -5.426581576466560364e-02
-2.040582746267318726e-01 1.676432639360427856e-01 -5.349385738372802734e-02
-8.011668175458908081e-02 -1.686872392892837524e-01 -8.798839151859283447e-02
-5.068001151084899902e-01 -1.954976767301559448e-01 -6.359203904867172241e-02
-4.962683916091918945e-01 -4.227537289261817932e-02 -4.119316488504409790e-02
1.800186932086944580e-01 -1.827579438686370850e-01 -4.895609989762306213e-02
-1.490647941827774048e-01 4.551258869469165802e-03 9.189368039369583130e-02
3.416871130466461182e-01 -3.206558525562286377e-02 -6.081933155655860901e-02
-1.152198575437068939e-02 2.658219635486602783e-01 5.195021256804466248e-02
1.267627179622650146e-01 7.711987197399139404e-02 9.558482468128204346e-02
-3.566868007183074951e-01 -2.499985545873641968e-01 7.351531833410263062e-02
-1.458212286233901978e-01 -3.313674926757812500e-01 4.582253098487854004e-02
-6.548643857240676880e-02 1.437462866306304932e-01 8.140610903501510620e-02
4.369902014732360840e-01 -3.050844650715589523e-03 -4.046512395143508911e-02
2.334483265876770020e-01 -4.055725038051605225e-02 8.105430752038955688e-02
-3.956403210759162903e-02 1.238881517201662064e-02 9.656188637018203735e-02
1.633570194244384766e-01 -6.486036628484725952e-02 -8.416863530874252319e-02
-2.772853374481201172e-01 -2.201162278652191162e-01 -8.377158641815185547e-02
9.861517697572708130e-02 1.461743563413619995e-01 9.107269346714019775e-02
4.405929148197174072e-02 1.418700963258743286e-01 -9.000257402658462524e-02
2.670796513557434082e-01 4.018949270248413086e-01 6.768069695681333542e-03
3.116041421890258789e-01 1.559442877769470215e-01 -8.347356319427490234e-02
-3.968610763549804688e-01 -1.402837131172418594e-02 -6.458128243684768677e-02
5.612584352493286133e-01 3.581930696964263916e-01 3.024296835064888000e-02
-1.383288353681564331e-01 -3.386048674583435059e-01 4.029708355665206909e-02
1.946844011545181274e-01 -1.154816150665283203e-01 7.121921330690383911e-02
-1.987355202436447144e-01 -2.024820446968078613e-01 -8.649732172489166260e-02
3.335756063461303711e-01 1.689095199108123779e-01 -8.128916472196578979e-02
-5.628764033317565918e-01 -2.569828629493713379e-01 4.507253691554069519e-02
3.617097735404968262e-01 1.283994913101196289e-01 8.144971728324890137e-02
-3.563826978206634521e-01 1.127095296978950500e-01 -2.139041759073734283e-02
2.949978038668632507e-02 2.547581493854522705e-01 6.348477303981781006e-02
-1.708534061908721924e-01 -2.866204977035522461e-01 -6.803904473781585693e-02
4.537282586097717285e-01 5.053556710481643677e-02 5.567499995231628418e-02
-5.791387706995010376e-02 8.618826977908611298e-03 -9.731545299291610718e-02
-1.707992330193519592e-02 2.503224909305572510e-01 -5.885810405015945435e-02
1.387995574623346329e-02 -8.211638778448104858e-02 9.350575506687164307e-02
-1.387299746274948120e-01 7.793990522623062134e-02 8.506791293621063232e-02
-2.992866188287734985e-02 -3.304178118705749512e-01 1.289862673729658127e-03
2.113307565450668335e-01 1.215665712952613831e-01 9.213270246982574463e-02
-5.339468121528625488e-01 -2.929897606372833252e-01 -5.382446572184562683e-02
4.431132972240447998e-01 1.531289666891098022e-01 -6.756180524826049805e-02
-1.112886071205139160e-01 -3.175854086875915527e-01 -4.889992997050285339e-02
3.422405421733856201e-01 -1.252414137125015259e-01 2.673889044672250748e-03
-3.886045515537261963e-01 2.159460261464118958e-02 5.272605642676353455e-02
4.074209630489349365e-01 -6.412327289581298828e-02 2.342596277594566345e-02
4.782671034336090088e-01 3.357789516448974609e-01 -4.787021875381469727e-02
1.013235449790954590e-01 -4.995021969079971313e-02 -9.160475432872772217e-02
-2.626688778400421143e-01 -3.505080193281173706e-02 -8.811745792627334595e-02
-1.938375234603881836e-01 -3.056075274944305420e-01 6.166589260101318359e-02
3.341214656829833984e-01 -6.948864459991455078e-02 -5.113542079925537109e-02
3.857667744159698486e-01 2.022446095943450928e-01 -7.511364668607711792e-02
-4.600895643234252930e-01 -1.271874457597732544e-01 -6.869306415319442749e-02
1.277269702404737473e-02 -1.951147615909576416e-01 -7.564789801836013794e-02
3.662485182285308838e-01 2.493996173143386841e-01 7.573620229959487915e-02
3.864413201808929443e-01 -5.901589989662170410e-03 5.979657173156738281e-02
2.877249717712402344e-01 -9.509196132421493530e-02 -5.522378906607627869e-02
1.697119772434234619e-01 -2.322931140661239624e-01 1.440788153558969498e-02
-4.386651888489723206e-02 -1.963719427585601807e-01 8.017374575138092041e-02
3.683458566665649414e-01 -5.326340720057487488e-02 -4.617390036582946777e-02
-6.093930602073669434e-01 -1.623272597789764404e-01 1.548667345196008682e-02
1.287200599908828735e-01 1.627737730741500854e-01 8.987199515104293823e-02
2.680485844612121582e-01 4.872173815965652466e-02 8.727275580167770386e-02
2.802515029907226562e-01 2.521955370903015137e-01 -7.640761882066726685e-02
-1.943032890558242798e-01 -3.068113625049591064e-01 -6.333635747432708740e-02
2.758553624153137207e-01 -1.669798791408538818e-01 -1.393174286931753159e-02
3.067779839038848877e-01 3.654377460479736328e-01 -4.482024535536766052e-02
4.268390238285064697e-01 -4.374330490827560425e-02 2.673796564340591431e-02
2.129605263471603394e-01 -1.205783113837242126e-01 -6.460530310869216919e-02
3.730509281158447266e-01 8.875646442174911499e-02 7.786639779806137085e-02
-3.365284800529479980e-01 -1.469647288322448730e-01 8.165131509304046631e-02
-2.044412791728973389e-01 1.951536834239959717e-01 3.506120294332504272e-02
1.266382783651351929e-01 2.100401818752288818e-01 -8.260454237461090088e-02
-7.376429438591003418e-02 -2.724694646894931793e-02 -9.761095046997070312e-02
1.693463027477264404e-01 2.797054350376129150e-01 6.968856602907180786e-02
-2.596119418740272522e-02 -1.824640668928623199e-02 9.707653522491455078e-02
-6.428434848785400391e-01 -2.324092984199523926e-01 -1.065154466778039932e-02
5.914302468299865723e-01 3.506281673908233643e-01 -1.744483411312103271e-02
2.146234363317489624e-01 1.911047995090484619e-01 8.718314766883850098e-02
3.744611144065856934e-01 -5.592196062207221985e-02 4.620912671089172363e-02
-1.469777226448059082e-01 -2.590735554695129395e-01 -7.400215417146682739e-02
3.300643563270568848e-01 -4.743855819106101990e-02 -5.945429205894470215e-02
-3.561769798398017883e-02 -3.002904951572418213e-01 4.257618263363838196e-02
6.723485141992568970e-02 -2.881477773189544678e-01 1.977659761905670166e-03
-3.634403273463249207e-02 -3.323744833469390869e-01 5.846695974469184875e-03
-1.668238043785095215e-01 -5.161638930439949036e-02 9.317174553871154785e-02
1.943491250276565552e-01 9.698911756277084351e-02 -9.203854203224182129e-02
5.935801863670349121e-01 3.438739478588104248e-01 2.442868798971176147e-02
4.733574390411376953e-01 1.348003894090652466e-01 6.454429030418395996e-02
4.027212858200073242e-01 -7.155795395374298096e-02 1.945035718381404877e-02
1.197144985198974609e-01 -2.479657083749771118e-01 2.916661091148853302e-02
-4.401850104331970215e-01 -2.767460346221923828e-01 -6.810137629508972168e-02
-3.983966261148452759e-02 3.809630637988448143e-03 -9.770897030830383301e-02
6.026707217097282410e-02 -2.867132723331451416e-01 -1.644786261022090912e-02
-6.822365522384643555e-02 2.123234122991561890e-01 -6.465437263250350952e-02
-5.854665040969848633e-01 -1.144624799489974976e-01 1.196107733994722366e-02
2.368616163730621338e-01 9.399458020925521851e-02 9.132452309131622314e-02
1.838126778602600098e-01 -5.701608583331108093e-02 8.443398773670196533e-02
2.484373599290847778e-01 -1.374363154172897339e-01 -4.962021484971046448e-02
-3.842841386795043945e-01 -2.514745593070983887e-01 7.148579508066177368e-02
3.693240284919738770e-01 -1.011566072702407837e-01 1.516121719032526016e-02
1.188440024852752686e-01 2.512154877185821533e-01 -7.354382425546646118e-02
-1.947645992040634155e-01 -3.712248504161834717e-01 2.688670344650745392e-02
-5.985875613987445831e-04 -1.755803823471069336e-01 -8.141901344060897827e-02
-3.107606470584869385e-01 -1.959237605333328247e-01 -8.500055223703384399e-02
3.853300213813781738e-01 1.656210422515869141e-01 -7.609409838914871216e-02
3.894558548927307129e-01 -7.884503155946731567e-02 -1.995234563946723938e-02
-1.024536192417144775e-01 2.721372842788696289e-01 1.044359616935253143e-02
2.328920736908912659e-02 -3.070181906223297119e-01 8.520511910319328308e-03
-3.765116631984710693e-01 -3.609678149223327637e-01 -5.105146393179893494e-02
3.762874305248260498e-01 -7.085679471492767334e-02 3.779650479555130005e-02
1.443482637405395508e-01 -1.304078698158264160e-01 7.525941729545593262e-02
-2.640439271926879883e-01 -1.187709812074899673e-02 8.259397745132446289e-02
7.718960940837860107e-02 -2.058590352535247803e-01 -6.313393265008926392e-02
-5.503196716308593750e-01 -1.017348989844322205e-01 -3.745080158114433289e-02
3.373831808567047119e-01 1.364032328128814697e-01 8.405204117298126221e-02
3.904035091400146484e-01 3.146749734878540039e-01 6.341557949781417847e-02
5.620058998465538025e-02 -1.834484934806823730e-01 -7.326054573059082031e-02
2.243713587522506714e-01 2.615225017070770264e-01 7.638558000326156616e-02
-8.643335849046707153e-02 -1.918707042932510376e-01 8.347089588642120361e-02
-3.377706110477447510e-01 -3.608215153217315674e-01 -5.075496435165405273e-02
-1.680439859628677368e-01 2.378408312797546387e-01 1.041222270578145981e-02
2.910144329071044922e-01 1.265456974506378174e-01 -8.556175976991653442e-02
6.120332516729831696e-03 3.031907677650451660e-01 -3.460006415843963623e-02
1.807072386145591736e-02 -1.617361977696418762e-02 9.703586250543594360e-02
-3.832168877124786377e-01 -3.326700031757354736e-01 5.631080642342567444e-02
-5.549097061157226562e-01 -7.949300110340118408e-02 1.802189275622367859e-02
-1.059455201029777527e-01 4.460151493549346924e-02 -9.340776503086090088e-02
5.770487785339355469e-01 3.797137439250946045e-01 1.554226037114858627e-03
4.452383220195770264e-01 1.748453378677368164e-01 7.166994363069534302e-02
3.833064436912536621e-01 3.280368819832801819e-02 -6.565038859844207764e-02
2.526277899742126465e-01 5.812110006809234619e-02 -8.723292499780654907e-02
-1.670955717563629150e-01 3.697560355067253113e-02 8.757308125495910645e-02
3.365161120891571045e-01 9.269706159830093384e-02 -8.002602308988571167e-02
9.260853379964828491e-02 -7.186621427536010742e-02 9.047155082225799561e-02
-4.271666705608367920e-01 4.578135535120964050e-02 2.563806436955928802e-02
-2.346317172050476074e-01 -3.471023440361022949e-01 -5.069091171026229858e-02
7.018352299928665161e-02 3.221025466918945312e-01 -3.850544616580009460e-02
-3.203219175338745117e-01 -2.047826349735260010e-02 -7.975149899721145630e-02
-2.454491332173347473e-02 -2.305585741996765137e-01 -7.041371613740921021e-02
-1.182394698262214661e-01 1.646300703287124634e-01 6.972869485616683960e-02
2.466755956411361694e-01 -1.041128858923912048e-01 6.454915553331375122e-02
-5.458742976188659668e-01 -2.573488950729370117e-01 -5.483554676175117493e-02
3.319679200649261475e-01 2.321932762861251831e-01 -7.702843844890594482e-02
3.842710852622985840e-01 6.385401636362075806e-02 -7.019018381834030151e-02
5.599796772003173828e-02 -1.950449794530868530e-01 -7.005997002124786377e-02
4.175615310668945312e-01 4.229656234383583069e-02 6.334977596998214722e-02
6.144971251487731934e-01 2.424981594085693359e-01 2.943626232445240021e-02
-3.287725150585174561e-01 -2.363409399986267090e-01 7.671193033456802368e-02
-1.269395053386688232e-01 8.471091277897357941e-03 -9.492623060941696167e-02
1.264984309673309326e-01 6.978595256805419922e-02 9.573408216238021851e-02
-2.434074878692626953e-02 1.713240444660186768e-01 -8.104758709669113159e-02
1.474196165800094604e-01 2.702401280403137207e-01 -7.029198855161666870e-02
5.624568089842796326e-02 4.196035116910934448e-02 9.697163850069046021e-02
1.869545280933380127e-01 -7.986093312501907349e-02 8.024203777313232422e-02
7.389371097087860107e-02 -2.762162387371063232e-01 -2.233020029962062836e-02
-1.218706145882606506e-01 -1.133768260478973389e-02 9.431537985801696777e-02
-5.894223228096961975e-03 1.835540980100631714e-01 -8.005668222904205322e-02
3.723841905593872070e-01 2.054417580366134644e-01 7.921959459781646729e-02
6.253181695938110352e-01 2.025740295648574829e-01 -6.912943907082080841e-03
-1.026667058467864990e-01 2.741264998912811279e-01 1.904152217321097851e-03
4.687907993793487549e-01 4.100504219532012939e-01 -1.042951922863721848e-02
-6.405415534973144531e-01 -2.363596707582473755e-01 8.825995028018951416e-03
-7.865928858518600464e-02 -1.031499356031417847e-01 -9.499204158782958984e-02
-1.764860302209854126e-01 -2.255671024322509766e-01 8.053573966026306152e-02
1.846302151679992676e-01 4.321297258138656616e-02 -9.199707210063934326e-02
-3.213840126991271973e-01 -1.742136180400848389e-01 8.217728883028030396e-02
-1.409830749034881592e-01 1.781447827816009521e-01 -6.369193643331527710e-02
3.967870175838470459e-01 2.604225575923919678e-01 7.236929237842559814e-02
2.472164183855056763e-01 8.935967460274696350e-03 -8.394476771354675293e-02
-5.285725593566894531e-01 -1.875199675559997559e-01 5.298869311809539795e-02
1.345974653959274292e-01 1.571847796440124512e-01 -8.996785432100296021e-02
-4.016831219196319580e-01 -3.311295807361602783e-01 5.589782446622848511e-02
5.170782804489135742e-01 1.772399693727493286e-01 -5.373391509056091309e-02
-3.177361786365509033e-01 -3.622619211673736572e-01 4.622389748692512512e-02
-1.808242648839950562e-01 -1.783397942781448364e-01 8.720133453607559204e-02
2.481271177530288696e-01 -1.805184036493301392e-01 2.275099046528339386e-02
-2.409457415342330933e-01 1.377664953470230103e-01 5.312545970082283020e-02
-2.228345274925231934e-01 -1.159408781677484512e-02 -8.986318111419677734e-02
-9.887529164552688599e-02 -2.786110341548919678e-01 -6.381297111511230469e-02
2.042062133550643921e-01 2.116893231868743896e-01 -8.340862393379211426e-02
1.517836749553680420e-01 7.907040417194366455e-02 9.500034898519515991e-02
-1.396320760250091553e-01 -2.578747570514678955e-01 -7.380980998277664185e-02
-3.402917459607124329e-02 2.625313997268676758e-01 -4.992077499628067017e-02
-5.624251365661621094e-01 -3.026440441608428955e-01 -4.678306356072425842e-02
3.709852993488311768e-01 1.569685786962509155e-01 8.081615716218948364e-02
-1.334388256072998047e-01 1.599515974521636963e-01 6.857877224683761597e-02
-5.702894330024719238e-01 -2.653223276138305664e-01 -4.873116314411163330e-02
-2.088760733604431152e-01 3.537566214799880981e-02 8.340185135602951050e-02
2.633495628833770752e-01 -5.986169353127479553e-02 7.288746535778045654e-02
3.235912322998046875e-01 9.306299686431884766e-02 -8.160058408975601196e-02
8.619590848684310913e-02 -2.004791423678398132e-02 -9.479621052742004395e-02
-2.110597491264343262e-02 2.723825871944427490e-01 4.640992358326911926e-02
3.746572732925415039e-01 3.168676197528839111e-01 6.354553252458572388e-02
3.184415996074676514e-01 -8.054270595312118530e-02 5.465381592512130737e-02
4.949184358119964600e-01 2.194894254207611084e-01 -5.944421142339706421e-02
-1.342928111553192139e-01 -2.083139419555664062e-01 -8.403967320919036865e-02
-2.391329109668731689e-01 -2.033107168972492218e-02 -8.913987874984741211e-02
-3.172940313816070557e-01 -3.262683749198913574e-01 5.932930111885070801e-02
2.538797557353973389e-01 2.817416191101074219e-01 7.258301228284835815e-02
-3.345830738544464111e-01 -2.972603738307952881e-01 -7.000739872455596924e-02
-5.080280303955078125e-01 -9.786006063222885132e-02 4.728777334094047546e-02
-1.958301514387130737e-01 2.048738300800323486e-01 -3.447192162275314331e-02
-4.429120123386383057e-01 -3.924098610877990723e-01 -3.440137952566146851e-02
-1.519059836864471436e-01 -3.205336928367614746e-01 5.202658846974372864e-02
-1.295028924942016602e-01 6.031447649002075195e-02 -9.024231880903244019e-02
1.981305778026580811e-01 1.128273457288742065e-01 9.286075830459594727e-02
5.798720121383666992e-01 1.091758161783218384e-01 -1.288833678700029850e-03
-1.975764483213424683e-01 1.941708624362945557e-01 3.850616142153739929e-02
-1.365802250802516937e-02 1.187049299478530884e-01 -9.045210480690002441e-02
1.358071807771921158e-03 2.493079900741577148e-01 -6.219228729605674744e-02
-4.761697053909301758e-01 2.535658655688166618e-03 2.343670837581157684e-02
3.551369905471801758e-01 1.888047670945525169e-03 6.882715225219726562e-02
1.299359500408172607e-01 3.677404522895812988e-01 4.417197313159704208e-03
1.444654017686843872e-01 2.788285315036773682e-01 6.815761327743530273e-02
1.900246590375900269e-01 -2.231573611497879028e-01 -6.252075079828500748e-03
1.905770450830459595e-01 -1.900768876075744629e-01 -4.162179678678512573e-02
-9.403261542320251465e-02 -3.253701627254486084e-01 3.988699987530708313e-02
3.393675386905670166e-01 3.325960636138916016e-01 5.999635159969329834e-02
3.751935958862304688e-01 3.930770456790924072e-01 -3.116916678845882416e-02
5.419034361839294434e-01 3.379303812980651855e-01 4.146213084459304810e-02
-3.292661607265472412e-01 -1.594731658697128296e-01 -8.576358854770660400e-02
4.452385902404785156e-01 -3.964580968022346497e-02 1.163197029381990433e-02
-1.060799136757850647e-02 1.058780774474143982e-01 9.129200130701065063e-02
2.946792542934417725e-02 -1.665820032358169556e-01 8.042233437299728394e-02
3.209540843963623047e-01 3.281762897968292236e-01 6.130114197731018066e-02
2.609861791133880615e-01 4.634352773427963257e-02 8.778101205825805664e-02
5.161347985267639160e-01 3.849807679653167725e-01 2.787493914365768433e-02
-9.610277414321899414e-02 2.701241075992584229e-01 -2.171248570084571838e-02
-2.835453450679779053e-01 1.632736027240753174e-01 1.830664277076721191e-02
-7.875710725784301758e-02 -2.098269909620285034e-01 -8.067303150892257690e-02
-5.342901945114135742e-01 -5.932570993900299072e-02 -2.785695530474185944e-02
-5.171872377395629883e-01 -2.010575234889984131e-01 -6.164729222655296326e-02
2.811735868453979492e-01 1.986419111490249634e-01 8.499918878078460693e-02
4.396298229694366455e-01 2.924370765686035156e-01 6.435126811265945435e-02
2.321172058582305908e-01 4.418185353279113770e-02 -8.834523707628250122e-02
-5.811468884348869324e-02 -1.196033209562301636e-01 9.215418249368667603e-02
4.679268896579742432e-01 1.894371360540390015e-01 6.831908971071243286e-02
4.338438510894775391e-01 1.589782238006591797e-01 -6.931660324335098267e-02
-5.105144381523132324e-01 -4.153552651405334473e-02 -3.353387489914894104e-02
-1.966942399740219116e-01 -3.848389089107513428e-01 5.982873495668172836e-03
-1.683495342731475830e-01 2.057862579822540283e-01 4.188638925552368164e-02
-4.363943040370941162e-01 -2.400170117616653442e-01 6.771592050790786743e-02
-7.955098152160644531e-02 7.021360099315643311e-03 9.547148644924163818e-02
2.248384207487106323e-01 2.387100458145141602e-01 8.064844459295272827e-02
8.432162553071975708e-02 2.731029689311981201e-01 6.412686407566070557e-02
1.073540449142456055e-01 -1.416572332382202148e-01 -7.670279592275619507e-02
-2.159705311059951782e-01 2.103942036628723145e-01 -1.363189611583948135e-02
-6.019124388694763184e-01 -3.271986842155456543e-01 -3.078646585345268250e-02
-3.353627026081085205e-02 2.220031768083572388e-01 6.543955951929092407e-02
3.840834796428680420e-01 -9.668720886111259460e-03 -5.593802034854888916e-02
3.273059129714965820e-01 4.116809666156768799e-01 3.909925464540719986e-03
-2.763355970382690430e-01 4.006279632449150085e-02 7.315363734960556030e-02
5.797799825668334961e-01 1.943392306566238403e-01 -3.577996045351028442e-02
6.152122840285301208e-02 1.657129079103469849e-01 -8.740110695362091064e-02
5.833488106727600098e-01 2.648333311080932617e-01 -3.696205094456672668e-02
5.440784692764282227e-01 1.466820389032363892e-01 4.714253917336463928e-02
3.477785289287567139e-01 -3.930157050490379333e-02 6.038158014416694641e-02
-1.854330301284790039e-01 1.489160060882568359e-01 -6.496431678533554077e-02
-3.703989386558532715e-01 -2.119707018136978149e-01 7.622194290161132812e-02
5.927293375134468079e-02 9.363074786961078644e-03 -9.691565483808517456e-02
-6.501712650060653687e-02 -9.049972891807556152e-02 -9.562170505523681641e-02
-4.633376300334930420e-01 -2.808924317359924316e-01 -6.525430083274841309e-02
4.208685159683227539e-01 3.968878984451293945e-01 3.093722648918628693e-02
-1.367317885160446167e-01 -3.018596172332763672e-01 -5.961774662137031555e-02
-3.987577259540557861e-01 -3.726426661014556885e-01 -4.596360027790069580e-02
-5.826035737991333008e-01 -1.336141377687454224e-01 2.430222369730472565e-02
-3.476947247982025146e-01 -1.692046821117401123e-01 8.023758977651596069e-02
-4.436479136347770691e-02 1.036769598722457886e-01 -9.068480134010314941e-02
-6.179050803184509277e-01 -3.010891377925872803e-01 -2.956541068851947784e-02
-4.869034588336944580e-01 -1.336953788995742798e-01 -6.384196877479553223e-02
7.244647294282913208e-02 -1.890804171562194824e-01 -6.934674084186553955e-02
3.862828910350799561e-01 1.664756536483764648e-01 7.916560024023056030e-02
-2.814214527606964111e-01 -3.503990173339843750e-01 -5.279920622706413269e-02
4.997048676013946533e-01 4.088036417961120605e-01 2.823687624186277390e-03
-3.823053836822509766e-01 -4.033742547035217285e-01 -2.712256461381912231e-02
4.426681697368621826e-01 -4.176698997616767883e-02 -7.940815761685371399e-03
3.437874615192413330e-01 6.121213734149932861e-02 -7.656731456518173218e-02
7.851053774356842041e-02 4.817437008023262024e-02 -9.655273705720901489e-02
2.610774636268615723e-01 1.016273796558380127e-01 8.985570073127746582e-02
-5.022653564810752869e-02 -2.186805754899978638e-01 7.564941793680191040e-02
-4.253095090389251709e-01 -7.124476879835128784e-02 -6.893166899681091309e-02
-1.055002436041831970e-01 -8.047427237033843994e-02 -9.639824181795120239e-02
-1.569238305091857910e-01 -2.986179590225219727e-01 -6.295217573642730713e-02
5.456836819648742676e-01 1.018517166376113892e-01 3.523842617869377136e-02
-5.366008281707763672e-01 -1.952552646398544312e-01 5.140557885169982910e-02
-6.271443367004394531e-01 -2.883220314979553223e-01 -2.661284245550632477e-02
-2.177065610885620117e-02 9.981734305620193481e-02 -9.228411316871643066e-02
5.370458960533142090e-01 2.128091752529144287e-01 5.507847666740417480e-02
3.269939422607421875e-01 -6.333711557090282440e-03 -6.974399089813232422e-02
-2.124435901641845703e-01 -3.877290487289428711e-01 -1.158773992210626602e-02
-1.943114697933197021e-01 1.378726363182067871e-01 -6.676224619150161743e-02
1.934991776943206787e-01 -8.685225993394851685e-02 7.801151275634765625e-02
8.412294834852218628e-02 9.904257208108901978e-02 -9.463667124509811401e-02
6.333515048027038574e-02 -1.022130027413368225e-01 -8.839067816734313965e-02
1.757793128490447998e-01 -1.907894164323806763e-01 -4.617182537913322449e-02
-6.280791163444519043e-01 -3.377719819545745850e-01 2.891146577894687653e-03
1.332347393035888672e-01 -1.884274333715438843e-01 -5.836108326911926270e-02
-6.105729341506958008e-01 -1.642871350049972534e-01 -2.184526622295379639e-02
-2.292730212211608887e-01 -2.717374563217163086e-01 -7.486884295940399170e-02
2.773334980010986328e-01 2.603245973587036133e-01 7.701004296541213989e-02
3.566286265850067139e-01 1.641462594270706177e-01 8.213688433170318604e-02
-3.595553934574127197e-01 -4.151186347007751465e-01 -4.103572107851505280e-03
-3.928357362747192383e-01 -3.051287531852722168e-01 6.244446337223052979e-02
4.831044375896453857e-01 1.414273381233215332e-01 6.308421492576599121e-02
-1.175854951143264771e-01 -2.397945076227188110e-01 -7.673647254705429077e-02
-2.719992399215698242e-01 -3.030498921871185303e-01 -6.833414733409881592e-02
4.288387894630432129e-01 4.162549674510955811e-01 6.390982307493686676e-03
-1.812273263931274414e-01 -3.445513546466827393e-01 -4.554207250475883484e-02
3.932521343231201172e-01 -7.489015161991119385e-02 2.444154955446720123e-02
-6.412410736083984375e-02 1.047354191541671753e-01 -8.931647241115570068e-02
9.393582493066787720e-02 1.806066632270812988e-01 8.648014813661575317e-02
-4.388411715626716614e-02 -1.896897852420806885e-01 -8.220075070858001709e-02
-1.668545901775360107e-01 1.006969213485717773e-01 -8.026193082332611084e-02
4.398461878299713135e-01 2.090148031711578369e-01 7.211374491453170776e-02
-6.948800384998321533e-02 -7.416080683469772339e-02 9.544392675161361694e-02
-3.039330244064331055e-01 8.188065886497497559e-02 -6.063466146588325500e-02
3.434704542160034180e-01 2.376685589551925659e-01 -7.573655992746353149e-02
1.556559354066848755e-01 4.174748435616493225e-02 9.470809996128082275e-02
6.005617380142211914e-01 1.827136874198913574e-01 2.878156863152980804e-02
-1.369571983814239502e-01 2.264501303434371948e-01 -4.222787544131278992e-02
6.871742010116577148e-02 9.394793212413787842e-02 9.495140612125396729e-02
2.735927402973175049e-01 -1.178650557994842529e-01 -5.044659227132797241e-02
2.739158570766448975e-01 5.376302823424339294e-02 -8.483672142028808594e-02
-2.064703777432441711e-02 -1.802463456988334656e-02 -9.782924503087997437e-02
-5.532807707786560059e-01 -1.896118968725204468e-01 4.656982794404029846e-02
-3.229578137397766113e-01 7.419365644454956055e-02 5.429959297180175781e-02
2.011239081621170044e-01 3.228864073753356934e-02 -9.029506146907806396e-02
-7.550985366106033325e-02 -1.728115826845169067e-01 8.611129969358444214e-02
1.562393456697463989e-01 -8.902229368686676025e-02 -8.106821030378341675e-02
2.119862139225006104e-01 3.582020401954650879e-01 -4.103403910994529724e-02
2.875932455062866211e-01 3.548439741134643555e-01 5.072984099388122559e-02
1.497269421815872192e-01 -1.486121714115142822e-01 6.968022137880325317e-02
-3.351055979728698730e-01 -8.138968050479888916e-02 -8.380253612995147705e-02
6.905668973922729492e-02 1.539017856121063232e-01 -8.928868919610977173e-02
4.134724736213684082e-01 -5.036576837301254272e-02 3.071820549666881561e-02
3.123755156993865967e-01 -1.730141229927539825e-02 7.312292605638504028e-02
-4.064145386219024658e-01 -5.857146461494266987e-04 -5.882525444030761719e-02
4.850637912750244141e-01 4.079974889755249023e-01 1.352446246892213821e-02
-2.069668024778366089e-01 9.573320299386978149e-02 -7.577259093523025513e-02
3.718369305133819580e-01 1.741733849048614502e-01 -7.750380039215087891e-02
2.320462092757225037e-02 -7.296212948858737946e-03 -9.744901210069656372e-02
-1.941926926374435425e-01 2.092017829418182373e-01 2.872153185307979584e-02
-5.579386949539184570e-01 -8.018863201141357422e-02 -2.185656130313873291e-02
-5.021642446517944336e-01 -1.779417097568511963e-01 -6.391851603984832764e-02
1.224372908473014832e-01 1.424341499805450439e-01 -9.136687219142913818e-02
3.781439661979675293e-01 2.535939216613769531e-01 -7.153079658746719360e-02
-1.869900077581405640e-01 -4.448760300874710083e-02 9.183076769113540649e-02
-2.639541327953338623e-01 -4.938585683703422546e-02 8.582012355327606201e-02
-1.973145753145217896e-01 -6.748354434967041016e-02 9.174591302871704102e-02
6.031212210655212402e-01 2.462129741907119751e-01 3.507576882839202881e-02
3.745608404278755188e-02 3.349470198154449463e-01 6.831665989011526108e-03
5.051419734954833984e-01 3.394209146499633789e-01 -4.325178638100624084e-02
4.010571241378784180e-01 8.340293914079666138e-02 -6.947901844978332520e-02
1.221991423517465591e-02 -2.205801904201507568e-01 -6.864020973443984985e-02
2.716146707534790039e-01 -4.370952025055885315e-02 -7.254593074321746826e-02
3.523393273353576660e-01 3.399653732776641846e-01 5.764398351311683655e-02
-4.442916214466094971e-01 -5.355981364846229553e-02 5.654244497418403625e-02
-7.748690992593765259e-02 -9.648658335208892822e-02 9.424930065870285034e-02
-5.006216764450073242e-01 -1.883546859025955200e-01 5.919536948204040527e-02
2.485357075929641724e-01 -5.297821015119552612e-02 -7.460223138332366943e-02
-2.941763401031494141e-01 1.471000909805297852e-01 2.756288647651672363e-02
-3.441973775625228882e-02 -8.702921867370605469e-02 -9.516964852809906006e-02
-4.301085174083709717e-01 8.073912933468818665e-03 -4.860301315784454346e-02
4.396938979625701904e-01 3.424750864505767822e-01 5.347894132137298584e-02
5.110575258731842041e-02 1.305229365825653076e-01 9.133411943912506104e-02
5.151537656784057617e-01 2.844868898391723633e-01 -5.164284631609916687e-02
-8.363481611013412476e-02 -1.037039235234260559e-02 9.586054086685180664e-02
5.092927813529968262e-01 3.844692409038543701e-01 2.949736453592777252e-02
2.412242591381072998e-01 3.955019712448120117e-01 1.083619613200426102e-02
-1.592274606227874756e-01 -3.746851086616516113e-01 -6.581576075404882431e-03
-1.375301331281661987e-01 -1.501430273056030273e-01 9.016328305006027222e-02
-3.437418341636657715e-01 -4.131400287151336670e-01 3.387086559087038040e-03
-2.669485211372375488e-01 -3.278451859951019287e-01 -6.065322458744049072e-02
-5.269150733947753906e-01 -1.184966266155242920e-01 -5.104874074459075928e-02
2.083884477615356445e-01 -1.652355641126632690e-01 5.084698647260665894e-02
2.936502099037170410e-01 2.614742815494537354e-01 -7.456560432910919189e-02
-9.956162422895431519e-02 2.498761713504791260e-01 3.728476166725158691e-02
1.466186493635177612e-01 2.520738542079925537e-01 7.541783154010772705e-02
-2.727624475955963135e-01 -3.368324935436248779e-01 -5.772374197840690613e-02
-4.660781100392341614e-02 -2.580952346324920654e-01 -6.439657509326934814e-02
5.054008364677429199e-01 3.908457159996032715e-01 2.619471028447151184e-02
2.325309514999389648e-01 2.221322804689407349e-01 -8.172495663166046143e-02
-5.656810849905014038e-02 -2.935539782047271729e-01 5.062227323651313782e-02
-1.808165460824966431e-01 -1.633043214678764343e-02 -9.333500266075134277e-02
-3.683206140995025635e-01 -3.370877206325531006e-01 5.551195889711380005e-02
1.066892966628074646e-01 2.687230408191680908e-01 6.791874766349792480e-02
-5.397512912750244141e-01 -5.653244256973266602e-02 1.513770502060651779e-02
4.090418815612792969e-01 3.260656297206878662e-01 -5.660990625619888306e-02
-2.052551060914993286e-01 -1.459331065416336060e-01 8.954492211341857910e-02
2.965747416019439697e-01 2.359817773103713989e-01 -7.826486229896545410e-02
7.494533061981201172e-02 -2.718177139759063721e-01 2.747534960508346558e-02
1.436410993337631226e-01 1.718430370092391968e-01 -8.840882778167724609e-02
-5.167154073715209961e-01 -3.961072266101837158e-01 -2.289659716188907623e-02
-3.149012923240661621e-01 -3.154874444007873535e-01 -6.566191464662551880e-02
-2.398252859711647034e-02 6.386027485132217407e-02 9.451718628406524658e-02
5.986522436141967773e-01 1.673666983842849731e-01 2.563422732055187225e-02
1.473481506109237671e-01 2.241946458816528320e-01 -8.069454133510589600e-02
-8.542352169752120972e-02 -2.955110743641853333e-02 -9.745277464389801025e-02
-4.343450069427490234e-02 -2.649045288562774658e-01 -6.146880984306335449e-02
-1.651271581649780273e-01 -3.147200942039489746e-01 5.596963316202163696e-02
-7.724393159151077271e-03 3.033987283706665039e-01 -2.934554778039455414e-02
-1.193717569112777710e-01 2.460698932409286499e-01 3.247135132551193237e-02
4.101624488830566406e-01 2.249330580234527588e-01 -7.127695530652999878e-02
3.231609165668487549e-01 -1.234401240944862366e-01 2.938441932201385498e-02
-4.578746259212493896e-01 -1.951529830694198608e-01 6.676561385393142700e-02
-4.231140390038490295e-02 -2.209492772817611694e-01 7.440260052680969238e-02
-4.580311179161071777e-01 -3.842993378639221191e-01 3.327418863773345947e-02
1.532551497220993042e-01 -1.869150400161743164e-01 5.563799291849136353e-02
4.344748258590698242e-01 2.275389432907104492e-01 7.189251482486724854e-02
-2.651346325874328613e-01 -2.027524858713150024e-01 8.303652703762054443e-02
-4.077222645282745361e-01 -5.611668899655342102e-02 6.549181044101715088e-02
5.995796918869018555e-01 1.706950962543487549e-01 -2.066933177411556244e-02
2.677545845508575439e-01 -1.719216406345367432e-01 1.712111011147499084e-02
-2.446006238460540771e-02 -6.455276906490325928e-02 -9.635713696479797363e-02
3.297331556677818298e-02 -1.864498406648635864e-01 7.555197924375534058e-02
-5.049284100532531738e-01 -2.822778820991516113e-01 5.454821512103080750e-02
-5.128676891326904297e-01 -3.914006650447845459e-01 -2.721010521054267883e-02
-3.156906366348266602e-01 -1.509012430906295776e-01 8.338791877031326294e-02
-1.408103406429290771e-01 -2.021695226430892944e-01 8.364757150411605835e-02
4.639876782894134521e-01 1.389189157634973526e-02 -3.575133904814720154e-02
5.415569543838500977e-01 1.597247272729873657e-01 -4.512508213520050049e-02
3.708943724632263184e-01 -8.830876648426055908e-02 2.860837802290916443e-02
2.796532213687896729e-01 -3.225282952189445496e-02 -7.338930666446685791e-02
-3.675960302352905273e-01 -4.087636470794677734e-01 -2.044420875608921051e-02
5.084081292152404785e-01 2.891959846019744873e-01 5.647500976920127869e-02
-4.166360944509506226e-02 -1.069211810827255249e-01 9.296096861362457275e-02
-2.344264984130859375e-01 -2.354637384414672852e-01 7.934441417455673218e-02
3.755454719066619873e-01 -5.442202091217041016e-02 -4.303147643804550171e-02
3.230209648609161377e-01 2.711460292339324951e-01 -7.203257828950881958e-02
-1.856139600276947021e-01 -3.145487904548645020e-01 -5.982729420065879822e-02
-4.336965978145599365e-01 -9.000403434038162231e-02 -6.980407983064651489e-02
-1.660259068012237549e-01 -3.537406027317047119e-01 3.527098149061203003e-02
-2.648138105869293213e-01 1.238428428769111633e-01 5.210617184638977051e-02
-4.958087801933288574e-01 -1.083218976855278015e-01 -5.836597084999084473e-02
5.604004263877868652e-01 2.686024308204650879e-01 -4.341126233339309692e-02
4.048603475093841553e-01 3.014457225799560547e-01 6.540320813655853271e-02
5.027027055621147156e-02 1.454234421253204346e-01 -8.976919203996658325e-02
-3.674309849739074707e-01 -3.239916563034057617e-01 5.920136719942092896e-02
-3.059913516044616699e-01 2.035068161785602570e-02 -7.550718635320663452e-02
-2.058803737163543701e-01 1.798084825277328491e-01 4.401026293635368347e-02
-6.448419392108917236e-02 -2.158443927764892578e-01 -7.827072590589523315e-02
-6.533259153366088867e-02 1.783538311719894409e-01 -7.519192993640899658e-02
1.170148625969886780e-01 1.128096207976341248e-01 -9.363651275634765625e-02
-7.925213128328323364e-02 -1.907470077276229858e-02 -9.747724235057830811e-02
-1.758774816989898682e-01 -3.724844753742218018e-01 1.983719877898693085e-02
-4.001661017537117004e-02 1.003784760832786560e-01 9.021145105361938477e-02
-2.083722949028015137e-01 -3.734807670116424561e-01 2.790131047368049622e-02
-6.147683262825012207e-01 -2.441189885139465332e-01 -3.417276218533515930e-02
-2.874615788459777832e-01 -1.180175691843032837e-01 -8.927873522043228149e-02
1.417593508958816528e-01 3.190549463033676147e-02 9.505472332239151001e-02
-4.336211979389190674e-01 -3.160001635551452637e-01 5.736441537737846375e-02
-1.945138424634933472e-01 -3.541909158229827881e-01 3.989135101437568665e-02
-3.147424459457397461e-01 -1.510998606681823730e-01 -8.700364083051681519e-02
-2.831910848617553711e-01 -3.348813951015472412e-01 5.599342659115791321e-02
6.005371734499931335e-02 -3.232560679316520691e-02 -9.533089399337768555e-02
-4.162115752696990967e-01 -1.489236950874328613e-01 7.235600054264068604e-02
4.562545418739318848e-01 4.098563790321350098e-01 1.645631529390811920e-02
4.975007101893424988e-02 -2.523818612098693848e-01 4.948072135448455811e-02
3.546418845653533936e-01 -8.838961273431777954e-02 -3.438375890254974365e-02
1.636221706867218018e-01 -1.495186053216457367e-02 -8.998908102512359619e-02
1.587305516004562378e-01 3.391865491867065430e-01 -4.477950558066368103e-02
-2.517432570457458496e-01 -2.457096427679061890e-01 -8.031756430864334106e-02
2.402444779872894287e-01 3.661710321903228760e-01 -3.956469520926475525e-02
-1.961842551827430725e-02 -2.794630527496337891e-01 5.070546269416809082e-02
-3.148295581340789795e-01 -2.091519385576248169e-01 8.025721460580825806e-02
4.123948514461517334e-01 -6.999703496694564819e-02 -1.886546029709279537e-03
4.564169645309448242e-01 2.905010581016540527e-01 -5.930445715785026550e-02
-6.468280553817749023e-01 -2.907165884971618652e-01 -2.698618452996015549e-03
3.786022961139678955e-01 3.561026453971862793e-01 -4.904106631875038147e-02
-1.088534966111183167e-01 1.881194412708282471e-01 6.413049995899200439e-02
-3.418513536453247070e-01 -1.027689054608345032e-01 -8.419821411371231079e-02
-5.945267155766487122e-02 8.204913884401321411e-02 -9.234350919723510742e-02
-2.489485889673233032e-01 -1.599920094013214111e-01 8.709702640771865845e-02
-6.058617830276489258e-01 -2.102646678686141968e-01 2.928487397730350494e-02
-1.409257948398590088e-01 -2.187429666519165039e-01 8.081870526075363159e-02
-3.585274219512939453e-01 -3.529047667980194092e-01 5.046197399497032166e-02
-2.707976698875427246e-01 -1.054799556732177734e-01 8.720923960208892822e-02
-4.670211970806121826e-01 -2.422612905502319336e-01 -6.869471818208694458e-02
5.366826057434082031e-01 3.973607718944549561e-01 -4.449214786291122437e-03
-5.307972431182861328e-01 -2.282352894544601440e-01 -5.896649137139320374e-02
-3.807263672351837158e-01 -3.501489460468292236e-01 5.103743448853492737e-02
-2.453653141856193542e-02 2.494423687458038330e-01 -5.792165920138359070e-02
-4.153713956475257874e-02 -1.755700409412384033e-01 8.399431407451629639e-02
-3.403679132461547852e-01 -3.376027345657348633e-01 5.579382553696632385e-02
1.172084361314773560e-01 2.303437143564224243e-01 -7.830130308866500854e-02
3.687996566295623779e-01 3.763491809368133545e-01 -4.069233313202857971e-02
-6.272022724151611328e-01 -1.973476558923721313e-01 1.232854276895523071e-02
1.400918960571289062e-01 2.721029222011566162e-01 -6.931263208389282227e-02
4.203842580318450928e-01 -6.009428575634956360e-02 -1.046947389841079712e-02
3.364072740077972412e-01 1.318800300359725952e-01 -8.137892931699752808e-02
-2.363101392984390259e-01 -1.045041531324386597e-01 -9.238312393426895142e-02
-3.671655654907226562e-01 -2.196503430604934692e-02 6.801694631576538086e-02
-1.554223448038101196e-01 2.301360964775085449e-01 -3.215961158275604248e-02
-1.174755319952964783e-01 -8.757302910089492798e-02 9.445788711309432983e-02
1.947815865278244019e-01 -1.455131024122238159e-01 6.216793134808540344e-02
3.317120969295501709e-01 2.031550556421279907e-01 8.223292231559753418e-02
4.065052568912506104e-01 9.172782301902770996e-02 7.291144877672195435e-02
-1.705732047557830811e-01 -1.861722618341445923e-01 8.630207926034927368e-02
-2.673054933547973633e-01 2.274519763886928558e-02 -8.093013614416122437e-02
1.714919656515121460e-01 3.447950780391693115e-01 4.411545768380165100e-02
-4.454258680343627930e-01 1.120948512107133865e-02 -4.107532650232315063e-02
1.127438098192214966e-01 1.575817763805389404e-01 9.013777226209640503e-02
4.908290505409240723e-01 1.819958686828613281e-01 6.409771740436553955e-02
-5.381155014038085938e-01 -2.298618406057357788e-01 -5.741263553500175476e-02
1.742510348558425903e-01 2.840390503406524658e-01 -6.797268241643905640e-02
-1.944204121828079224e-01 -1.930381655693054199e-01 -8.767436444759368896e-02
-1.796181052923202515e-01 -4.169610887765884399e-02 9.220059216022491455e-02
5.194785594940185547e-01 3.124966025352478027e-01 -4.676857963204383850e-02
-1.523600369691848755e-01 -3.069284558296203613e-01 5.779209360480308533e-02
4.093627333641052246e-01 2.693411111831665039e-01 7.027361541986465454e-02
2.699228525161743164e-01 3.024529218673706055e-01 6.781729310750961304e-02
2.313642948865890503e-01 2.214313149452209473e-01 8.333279192447662354e-02
-2.259266674518585205e-01 7.130149751901626587e-02 -7.814679294824600220e-02
-4.173047542572021484e-01 -8.427738398313522339e-02 -7.216778397560119629e-02
5.205734372138977051e-01 2.280517965555191040e-01 5.872590094804763794e-02
-5.345235466957092285e-01 -2.796703875064849854e-01 4.967595636844635010e-02
-4.304058551788330078e-01 -2.168507501482963562e-02 5.290114879608154297e-02
3.216386437416076660e-01 2.922559678554534912e-01 -6.806112080812454224e-02
-1.646094918251037598e-01 -2.411131858825683594e-01 7.726474851369857788e-02
