1.892187148332595825e-01 1.614632159471511841e-01 -4.195541143417358398e-02
-2.967925667762756348e-01 -2.826191671192646027e-02 1.516946852207183838e-01
-3.062717318534851074e-01 5.325374752283096313e-02 -1.375925689935684204e-01
1.388713419437408447e-01 -7.625545561313629150e-02 1.605185419321060181e-01
6.308152526617050171e-02 1.099946796894073486e-01 1.474786996841430664e-01
-4.617154300212860107e-01 -4.717126116156578064e-02 -8.515687286853790283e-02
-5.637419968843460083e-02 1.583718210458755493e-01 -7.916756719350814819e-02
-3.294383585453033447e-01 -1.278053671121597290e-01 -7.699754834175109863e-02
-3.991216719150543213e-01 -7.852535694837570190e-03 1.256961524486541748e-01
2.819469869136810303e-01 -7.338371127843856812e-02 1.400350481271743774e-01
2.084717303514480591e-01 1.656429655849933624e-02 1.696414947509765625e-01
-8.405068516731262207e-02 1.780641078948974609e-01 2.593119442462921143e-02
1.212216615676879883e-01 -1.430177837610244751e-01 -1.178625822067260742e-01
-1.493428498506546021e-01 1.672689765691757202e-01 5.700789391994476318e-02
5.983769660815596581e-04 1.763376593589782715e-01 4.740836471319198608e-02
1.294400990009307861e-01 1.421575844287872314e-01 1.086357906460762024e-01
-1.390643417835235596e-01 -8.397229015827178955e-02 1.558611989021301270e-01
4.120852351188659668e-01 -1.239902824163436890e-01 -3.346791118383407593e-02
1.795316673815250397e-02 -1.318301260471343994e-01 1.279740631580352783e-01
4.605854153633117676e-01 1.984954252839088440e-02 9.714373946189880371e-02
-2.400429397821426392e-01 -1.571612656116485596e-01 -6.103407591581344604e-02
-8.503980189561843872e-02 -1.748715043067932129e-01 5.466686561703681946e-02
3.892177343368530273e-01 1.241174638271331787e-01 5.556561052799224854e-03
-3.817060589790344238e-01 -1.285261660814285278e-01 2.926689013838768005e-02
3.597483932971954346e-01 1.054436340928077698e-02 1.384068727493286133e-01
3.719278052449226379e-02 -1.349311023950576782e-01 -1.318606734275817871e-01
-1.258152127265930176e-01 5.476533900946378708e-03 1.794334053993225098e-01
4.454749822616577148e-02 1.628741472959518433e-01 8.374544978141784668e-02
-2.499115020036697388e-01 -2.805329672992229462e-02 1.610212922096252441e-01
8.138790726661682129e-03 1.605764180421829224e-01 -7.649175077676773071e-02
-4.261648654937744141e-01 -1.108483821153640747e-01 3.027210757136344910e-02
-3.124927282333374023e-01 -1.459791362285614014e-01 3.992827609181404114e-02
1.234795674681663513e-01 -1.496281027793884277e-01 1.006640493869781494e-01
-1.914270371198654175e-01 1.686308681964874268e-01 2.904906868934631348e-02
2.755199372768402100e-01 1.100857704877853394e-01 -1.049838885664939880e-01
-3.646086454391479492e-01 1.237300485372543335e-01 6.084644049406051636e-02
-1.450055390596389771e-01 -1.532124429941177368e-01 8.950804919004440308e-02
-5.004374384880065918e-01 -6.819449365139007568e-02 2.553927153348922729e-02
1.653658449649810791e-01 1.077141165733337402e-01 1.392647624015808105e-01
-3.024539649486541748e-01 -5.552802607417106628e-02 -1.428346186876296997e-01
1.032132729887962341e-01 -1.818488091230392456e-01 -4.038138315081596375e-02
-1.269427388906478882e-01 8.823442459106445312e-02 1.577708125114440918e-01
3.174731731414794922e-01 -2.328906767070293427e-02 1.482779383659362793e-01
-5.887977778911590576e-02 7.434985786676406860e-02 1.687841713428497314e-01
1.920436322689056396e-01 -1.388307958841323853e-01 1.041670739650726318e-01
-2.463003098964691162e-01 9.659836441278457642e-02 1.353679448366165161e-01
-7.846837863326072693e-03 1.018175482749938965e-01 1.550551354885101318e-01
1.339504122734069824e-02 1.057598665356636047e-01 -1.425414085388183594e-01
-2.366056293249130249e-01 3.308265656232833862e-02 1.637092083692550659e-01
4.208337664604187012e-01 -1.240879893302917480e-01 3.161350730806589127e-03
4.009276032447814941e-01 -1.211081519722938538e-01 4.664928093552589417e-02
-9.332242608070373535e-02 1.214256510138511658e-01 1.369163095951080322e-01
1.654210127890110016e-02 1.657498776912689209e-01 7.906840741634368896e-02
4.870149195194244385e-01 -9.047000110149383545e-02 7.592702284455299377e-03
2.641347944736480713e-01 -7.932666689157485962e-02 -1.448166668415069580e-01
-5.086764693260192871e-01 4.793797060847282410e-02 4.757984355092048645e-02
4.893337562680244446e-02 1.409616470336914062e-01 -1.062155812978744507e-01
-5.480392277240753174e-02 -1.091529950499534607e-01 -1.513579487800598145e-01
-2.548211514949798584e-01 1.022512912750244141e-01 -1.190151944756507874e-01
5.201314687728881836e-01 -6.458587199449539185e-02 3.387338714674115181e-03
6.508526951074600220e-02 -1.214537546038627625e-01 1.362555027008056641e-01
1.292014122009277344e-02 -1.653726398944854736e-01 8.304056525230407715e-02
-5.792956426739692688e-02 1.501901745796203613e-01 1.061359271407127380e-01
1.390523090958595276e-02 -1.253290623426437378e-01 1.341979205608367920e-01
2.002698630094528198e-01 -1.713216453790664673e-01 -4.671408608555793762e-02
1.729690730571746826e-01 -7.752521336078643799e-02 1.562580615282058716e-01
-2.421873807907104492e-01 -1.636807769536972046e-01 -3.724186867475509644e-02
4.040168523788452148e-01 1.086693182587623596e-01 5.332652851939201355e-02
4.065436124801635742e-01 -1.208600774407386780e-01 4.203679040074348450e-02
3.213392794132232666e-01 1.247754395008087158e-01 7.807881385087966919e-02
3.686378002166748047e-01 -1.344200074672698975e-01 4.131499677896499634e-02
4.172534346580505371e-01 -1.243696361780166626e-02 -1.186995208263397217e-01
-2.807241976261138916e-01 1.323836296796798706e-01 8.857084065675735474e-02
-2.988952398300170898e-01 -1.527083814144134521e-01 -3.373730927705764771e-02
-7.256909459829330444e-02 9.970761835575103760e-02 -1.452110558748245239e-01
2.295527458190917969e-01 -4.794799536466598511e-02 1.600054055452346802e-01
2.825651764869689941e-01 1.367762237787246704e-01 -6.360721588134765625e-02
1.238117441534996033e-01 6.172844022512435913e-02 -1.629370599985122681e-01
1.457583308219909668e-01 1.431298255920410156e-01 -9.266693890094757080e-02
-2.609101310372352600e-02 -1.866688430309295654e-01 -2.270044013857841492e-02
-2.400476485490798950e-01 1.090117692947387695e-01 1.269300729036331177e-01
-1.888605803251266479e-01 1.703186184167861938e-01 8.884102106094360352e-03
3.780507668852806091e-02 6.581430137157440186e-02 -1.657946109771728516e-01
2.727946341037750244e-01 8.041871339082717896e-02 1.379839777946472168e-01
8.461287245154380798e-03 -1.698784977197647095e-01 7.414070516824722290e-02
2.236803174018859863e-01 -1.016604974865913391e-01 -1.397944986820220947e-01
-5.318867564201354980e-01 -3.825432434678077698e-02 1.132676191627979279e-02
-4.729503095149993896e-01 -3.183211013674736023e-02 -8.449588716030120850e-02
-3.555022776126861572e-01 -6.827588379383087158e-02 -1.223735287785530090e-01
2.062651328742504120e-04 8.714205771684646606e-02 -1.552648395299911499e-01
1.738061904907226562e-01 -7.643543928861618042e-02 -1.603517234325408936e-01
2.880486547946929932e-01 1.312640756368637085e-01 -7.172459363937377930e-02
2.811168730258941650e-01 -1.285926103591918945e-01 -1.025765985250473022e-01
7.409764081239700317e-02 1.164791658520698547e-01 -1.313793659210205078e-01
2.044604867696762085e-01 -1.587297171354293823e-01 6.954455375671386719e-02
-3.090628683567047119e-01 -4.186912998557090759e-02 1.453575342893600464e-01
3.697091639041900635e-01 -2.561137080192565918e-08 -1.347048580646514893e-01
-1.766879670321941376e-02 1.621113866567611694e-01 8.720616251230239868e-02
3.473614752292633057e-01 5.773795023560523987e-02 1.298096030950546265e-01
-1.930200755596160889e-01 -1.578112989664077759e-01 -7.791728526353836060e-02
-3.647077679634094238e-01 -1.332045644521713257e-01 -3.901636227965354919e-02
2.609691321849822998e-01 -1.474080979824066162e-01 -8.194262534379959106e-02
-3.105502724647521973e-01 -3.439983725547790527e-02 -1.463577598333358765e-01
-4.961128830909729004e-01 7.147741317749023438e-02 -1.903935149312019348e-02
8.255579322576522827e-02 5.037701129913330078e-02 1.757034063339233398e-01
-1.548073142766952515e-01 8.836522698402404785e-02 -1.459171921014785767e-01
3.130665123462677002e-01 -8.928509801626205444e-02 1.228531822562217712e-01
5.099078416824340820e-01 6.034432351589202881e-02 1.281495764851570129e-02
-3.587117791175842285e-01 1.097878664731979370e-01 8.758443593978881836e-02
-1.500059664249420166e-01 3.832442313432693481e-02 1.738986968994140625e-01
2.675946950912475586e-01 -6.082740426063537598e-02 1.487399637699127197e-01
2.691676914691925049e-01 -1.599429994821548462e-01 -4.797172173857688904e-02
2.084965556859970093e-01 8.469609916210174561e-02 -1.405621320009231567e-01
-4.036939442157745361e-01 -2.168638166040182114e-03 1.243994534015655518e-01
3.511826694011688232e-01 3.134229406714439392e-02 1.376625895500183105e-01
9.352602064609527588e-02 -8.327780291438102722e-03 -1.798322349786758423e-01
4.803366959095001221e-01 7.561752945184707642e-02 3.725297376513481140e-02
-3.991656005382537842e-01 -4.218431934714317322e-02 1.177810579538345337e-01
-2.019573450088500977e-01 8.254118263721466064e-02 -1.431991010904312134e-01
-2.702179551124572754e-01 -4.560199379920959473e-02 1.527360081672668457e-01
-4.224742054939270020e-01 2.358749974519014359e-03 -1.135034933686256409e-01
1.026426404714584351e-01 -1.850983947515487671e-01 3.404638962820172310e-03
4.121082127094268799e-01 -3.704668954014778137e-02 1.161377802491188049e-01
2.684535980224609375e-01 1.300706863403320312e-01 -8.132316172122955322e-02
1.975947916507720947e-01 -2.813156321644783020e-02 -1.695762127637863159e-01
-4.694707095623016357e-01 1.888205856084823608e-02 9.306199848651885986e-02
-2.329888492822647095e-01 -1.676515787839889526e-01 -2.221496030688285828e-02
3.478051126003265381e-01 1.335464715957641602e-01 -2.588247135281562805e-02
-4.471748173236846924e-01 2.744800969958305359e-02 1.032494902610778809e-01
1.264672428369522095e-01 -1.644409000873565674e-01 -8.538529276847839355e-02
1.763992160558700562e-01 -1.015405450016260147e-02 1.739934086799621582e-01
-1.460013389587402344e-01 1.615211814641952515e-01 7.396548241376876831e-02
-4.577477276325225830e-02 1.784773916006088257e-01 -1.860925555229187012e-02
-1.748507469892501831e-01 -1.519504636526107788e-01 8.542263507843017578e-02
-4.494424462318420410e-01 -1.696669496595859528e-03 -1.015117615461349487e-01
5.182176828384399414e-01 -5.359138920903205872e-02 3.573663532733917236e-02
2.293136417865753174e-01 1.141344755887985229e-01 -1.124017536640167236e-01
-3.675765097141265869e-01 -8.161582052707672119e-02 1.076715439558029175e-01
-2.418957799673080444e-01 9.111262857913970947e-02 1.399774700403213501e-01
3.750197589397430420e-01 1.284473538398742676e-01 -5.227150395512580872e-03
-2.998529374599456787e-01 -1.483600139617919922e-01 4.220810160040855408e-02
1.269822120666503906e-01 1.258144229650497437e-01 -1.173931732773780823e-01
-1.292891800403594971e-01 -1.781147271394729614e-01 -4.056793823838233948e-02
-1.019012331962585449e-01 2.285265922546386719e-02 1.801047176122665405e-01
1.943959891796112061e-01 1.628415584564208984e-01 4.745858535170555115e-02
-1.610623151063919067e-01 7.879609614610671997e-02 -1.508644372224807739e-01
-3.779309988021850586e-02 1.798307299613952637e-01 2.355593815445899963e-02
-1.507745236158370972e-01 -2.509068697690963745e-03 -1.746251434087753296e-01
4.745653569698333740e-01 -4.642689600586891174e-02 -8.390697836875915527e-02
-3.371569514274597168e-01 1.428321450948715210e-01 -6.081484025344252586e-04
5.228524208068847656e-01 -1.174640841782093048e-02 -5.485286936163902283e-02
-1.592899411916732788e-01 -1.128686517477035522e-01 -1.391238719224929810e-01
1.102185994386672974e-01 -1.813970357179641724e-01 -4.048378765583038330e-02
-1.998002231121063232e-01 -1.711995601654052734e-01 -3.356780484318733215e-02
1.319255232810974121e-01 2.806152217090129852e-03 -1.767308264970779419e-01
-3.600753247737884521e-01 5.552746728062629700e-02 1.286488771438598633e-01
4.811861366033554077e-02 7.130924612283706665e-02 -1.629663407802581787e-01
1.877381056547164917e-01 1.670692414045333862e-01 3.020107373595237732e-02
-3.125304877758026123e-01 6.883377581834793091e-02 -1.283864527940750122e-01
-3.575356304645538330e-02 1.771680116653442383e-01 -2.755361795425415039e-02
-4.047304987907409668e-01 1.654641702771186829e-02 1.234114244580268860e-01
1.826430112123489380e-01 -1.005568355321884155e-02 -1.722622513771057129e-01
-1.222630590200424194e-02 1.739001125097274780e-01 -4.237087815999984741e-02
-3.789923489093780518e-01 1.277840137481689453e-01 -2.203199267387390137e-02
4.272095263004302979e-01 5.709050223231315613e-02 9.878467768430709839e-02
-1.516544371843338013e-01 1.445445716381072998e-01 1.040142104029655457e-01
-4.390070140361785889e-01 5.684955976903438568e-04 -1.063895225524902344e-01
-1.976692527532577515e-01 5.633842572569847107e-02 1.636604368686676025e-01
5.417410656809806824e-02 -6.813135743141174316e-02 1.694254577159881592e-01
-2.633861303329467773e-01 1.586452871561050415e-01 2.018416672945022583e-02
2.671692669391632080e-01 -1.192961856722831726e-01 1.094950661063194275e-01
1.733246743679046631e-01 -1.631765067577362061e-01 6.862588971853256226e-02
-4.650387465953826904e-01 8.455199748277664185e-02 -3.830178454518318176e-02
-3.136152923107147217e-01 1.483758985996246338e-01 -4.683923441916704178e-03
1.894041448831558228e-01 -1.507708877325057983e-01 8.780829608440399170e-02
4.416513442993164062e-01 -9.418004751205444336e-02 -6.727974116802215576e-02
1.403040438890457153e-01 -1.420980095863342285e-01 1.084456443786621094e-01
2.991759777069091797e-01 -4.307429492473602295e-02 1.481711566448211670e-01
-1.014752835035324097e-01 1.706194728612899780e-01 5.841250345110893250e-02
4.280770719051361084e-01 1.068186759948730469e-01 2.747935429215431213e-02
3.557332977652549744e-02 -1.550913900136947632e-01 -1.083883866667747498e-01
-3.130832910537719727e-01 -9.891872853040695190e-02 -1.162414699792861938e-01
-4.623676538467407227e-01 -3.031806461513042450e-02 9.277990460395812988e-02
-3.593196570873260498e-01 -1.325467675924301147e-01 4.072057455778121948e-02
9.098947793245315552e-02 5.188008397817611694e-02 -1.691209673881530762e-01
-1.206561475992202759e-01 -1.109943091869354248e-01 1.399165987968444824e-01
1.208214610815048218e-01 -1.745111048221588135e-01 5.256791040301322937e-02
2.872570753097534180e-01 1.023736223578453064e-01 1.181571334600448608e-01
-2.209212779998779297e-01 -1.696912944316864014e-01 -2.154670283198356628e-02
3.457663580775260925e-02 -1.662083715200424194e-01 -9.066492319107055664e-02
4.856948852539062500e-01 -4.384995624423027039e-02 7.529865950345993042e-02
-2.891861796379089355e-01 1.541383862495422363e-01 1.069565024226903915e-02
1.780015677213668823e-01 -5.253719910979270935e-02 1.657240390777587891e-01
7.077226787805557251e-02 1.702607125043869019e-01 6.225999444723129272e-02
1.739167124032974243e-01 -7.188205420970916748e-02 1.587973237037658691e-01
2.755278944969177246e-01 1.413010805845260620e-02 -1.561367213726043701e-01
-6.366036832332611084e-02 -8.588805794715881348e-02 1.604083031415939331e-01
1.027770414948463440e-01 -1.185446381568908691e-01 -1.428125053644180298e-01
9.199754893779754639e-02 1.651396453380584717e-01 7.288627326488494873e-02
1.478671841323375702e-02 -5.548993498086929321e-02 1.748729050159454346e-01
-2.711180038750171661e-02 8.902186155319213867e-02 -1.538851708173751831e-01
3.984501361846923828e-01 5.038758367300033569e-02 1.151782050728797913e-01
-1.451188921928405762e-01 8.370833098888397217e-02 1.584455072879791260e-01
-1.880422830581665039e-01 1.207750439643859863e-01 -1.147889047861099243e-01
-4.096360504627227783e-01 -1.156024634838104248e-01 3.740246593952178955e-02
-2.141253501176834106e-01 1.217457503080368042e-01 -1.088050156831741333e-01
-3.258831799030303955e-01 -1.008690893650054932e-01 -1.103754341602325439e-01
-1.073189228773117065e-01 1.495760679244995117e-01 -8.962822705507278442e-02
-5.271669626235961914e-01 4.371514916419982910e-02 1.653701439499855042e-02
4.308812022209167480e-01 -7.729533314704895020e-02 8.634144067764282227e-02
1.357041150331497192e-01 2.703474834561347961e-02 1.767190396785736084e-01
3.033793866634368896e-01 -1.431056559085845947e-01 6.334238499402999878e-02
7.750291377305984497e-02 -3.323208168148994446e-02 -1.792318522930145264e-01
-3.870974853634834290e-02 1.379002034664154053e-01 1.230287253856658936e-01
2.937071323394775391e-01 -1.598990708589553833e-01 -2.412872388958930969e-02
-3.789453804492950439e-01 2.985678147524595261e-03 -1.294932365417480469e-01
-3.050645887851715088e-01 -1.175352856516838074e-01 -1.012033522129058838e-01
4.889306724071502686e-01 -6.911440938711166382e-02 -5.675806477665901184e-02
-2.649723887443542480e-01 1.527431905269622803e-01 -3.684335201978683472e-02
-1.897880584001541138e-01 -1.358536481857299805e-01 1.054491549730300903e-01
-8.513722568750381470e-03 -1.794955581426620483e-01 -5.957162752747535706e-02
-1.583258658647537231e-01 -1.242183372378349304e-01 1.237308382987976074e-01
2.290939539670944214e-02 -1.397657245397567749e-01 1.195104122161865234e-01
1.269171088933944702e-01 -1.835467517375946045e-01 2.618963830173015594e-03
-4.304824173450469971e-01 3.387687355279922485e-02 -1.035380139946937561e-01
3.943243622779846191e-02 -1.220866590738296509e-01 -1.431564092636108398e-01
3.179546594619750977e-01 -1.376455128192901611e-01 6.687313318252563477e-02
-3.057291507720947266e-01 1.255459934473037720e-01 -7.718713581562042236e-02
8.939112722873687744e-02 -8.655057102441787720e-02 1.591023057699203491e-01
8.262464404106140137e-02 -1.578999906778335571e-01 -1.017522662878036499e-01
1.141883507370948792e-01 1.761724352836608887e-01 8.786871097981929779e-03
3.012254536151885986e-01 4.608689248561859131e-02 1.467594802379608154e-01
-2.895703315734863281e-01 1.465223282575607300e-01 5.447162315249443054e-02
1.247995346784591675e-01 1.124855205416679382e-01 1.405391842126846313e-01
-3.195623680949211121e-02 1.585844755172729492e-01 -7.999661564826965332e-02
-2.227553278207778931e-01 -1.700935661792755127e-01 -1.230138912796974182e-02
6.878062337636947632e-02 -8.833051472902297974e-02 -1.634037345647811890e-01
-2.516952808946371078e-04 1.534473299980163574e-01 -8.945045620203018188e-02
-1.213641613721847534e-01 -1.733880192041397095e-01 5.106073617935180664e-02
3.909279778599739075e-02 4.904494155198335648e-03 -1.813020408153533936e-01
-5.905649065971374512e-02 -3.069145604968070984e-02 -1.798452287912368774e-01
4.253644347190856934e-01 2.611029520630836487e-02 -1.097529977560043335e-01
-2.884398400783538818e-01 -1.257237792015075684e-01 -9.738252311944961548e-02
-2.793679200112819672e-02 -1.679698824882507324e-01 7.711359113454818726e-02
-1.423306465148925781e-01 6.861225515604019165e-02 -1.580861061811447144e-01
-2.978449165821075439e-01 -5.507028847932815552e-02 1.433444321155548096e-01
-1.286884099245071411e-01 -1.795158684253692627e-01 -3.328436240553855896e-02
-1.977031826972961426e-01 1.231483072042465210e-01 1.220675632357597351e-01
1.046492159366607666e-01 -1.745638847351074219e-01 -6.597723811864852905e-02
8.742741495370864868e-02 -1.177173107862472534e-01 1.381670087575912476e-01
8.777666836977005005e-02 -3.268502280116081238e-02 -1.788026690483093262e-01
3.057643175125122070e-01 1.387773901224136353e-01 -4.592507332563400269e-02
-4.878354072570800781e-01 7.980216294527053833e-02 -9.709081612527370453e-03
-4.427774995565414429e-02 -2.915489114820957184e-02 1.808720678091049194e-01
2.262140214443206787e-01 1.630294620990753174e-01 1.380433049052953720e-02
1.043032407760620117e-01 1.272239387035369873e-01 1.292880028486251831e-01
2.786445617675781250e-01 -1.934028696268796921e-04 1.585477888584136963e-01
-8.966156840324401855e-02 4.886110872030258179e-02 1.760751605033874512e-01
-3.965742588043212891e-01 -9.520659595727920532e-02 8.192326128482818604e-02
1.050517335534095764e-01 -1.664112322032451630e-02 -1.790637373924255371e-01
-4.775610938668251038e-02 1.472151428461074829e-01 -9.808789193630218506e-02
1.191923394799232483e-01 -1.751547455787658691e-01 -6.148798018693923950e-02
-3.262504637241363525e-01 -6.488426029682159424e-02 1.316137611865997314e-01
-7.723302394151687622e-02 -1.460437178611755371e-01 1.086491271853446960e-01
-5.318934917449951172e-01 -1.154004596173763275e-02 3.902827203273773193e-02
1.589170992374420166e-01 7.196500897407531738e-02 -1.546970009803771973e-01
4.608237743377685547e-01 -9.648094326257705688e-02 -4.571707546710968018e-02
-3.600680530071258545e-01 -1.321755200624465942e-01 -4.714940115809440613e-02
-2.689246535301208496e-01 -1.240650266408920288e-01 -1.057712882757186890e-01
-2.501078248023986816e-01 -1.070147603750228882e-01 -1.269612610340118408e-01
7.958085834980010986e-02 2.695834077894687653e-02 1.806494593620300293e-01
2.475895732641220093e-01 -2.528794575482606888e-03 1.642469316720962524e-01
-3.022022843360900879e-01 -1.346957087516784668e-01 7.239640504121780396e-02
2.878871858119964600e-01 -1.610516607761383057e-01 1.454043481498956680e-02
1.879876852035522461e-01 -2.103219274431467056e-03 -1.714151203632354736e-01
1.656752377748489380e-01 9.307307749986648560e-02 1.495409309864044189e-01
1.778123080730438232e-01 8.555182814598083496e-02 -1.445866078138351440e-01
-4.716643989086151123e-01 -8.129483461380004883e-02 -4.515110328793525696e-02
4.246787428855895996e-01 9.890387207269668579e-02 -4.668978974223136902e-02
-2.802254557609558105e-01 1.555319577455520630e-01 1.901856064796447754e-02
-1.604642421007156372e-01 -1.783824414014816284e-01 -1.396639738231897354e-02
-3.679650723934173584e-01 7.145144045352935791e-02 1.179873794317245483e-01
-1.698201000690460205e-01 -4.485419765114784241e-02 1.685413122177124023e-01
1.739477664232254028e-01 1.065741255879402161e-01 1.389003545045852661e-01
-4.711159169673919678e-01 -3.141904622316360474e-02 8.720724284648895264e-02
-4.076161384582519531e-01 -1.227357313036918640e-01 7.727938238531351089e-03
3.181953728199005127e-01 9.241592884063720703e-02 1.172719746828079224e-01
-3.125143349170684814e-01 -1.076989397406578064e-01 -1.087611541152000427e-01
3.513612598180770874e-02 -1.543429642915725708e-01 1.006726846098899841e-01
-2.483166903257369995e-01 -1.218840554356575012e-01 1.083033382892608643e-01
2.186104357242584229e-01 -9.064000099897384644e-02 1.425110250711441040e-01
-1.687196940183639526e-01 -1.638953387737274170e-01 -7.208851724863052368e-02
3.125647455453872681e-02 1.115471348166465759e-01 1.476369053125381470e-01
-2.457092851400375366e-01 -1.599845290184020996e-01 4.110626876354217529e-02
2.659472823143005371e-01 -1.664305776357650757e-01 -8.908219635486602783e-03
2.169740945100784302e-02 1.449224352836608887e-01 1.144302859902381897e-01
8.624368906021118164e-02 -1.081025078892707825e-01 -1.513586491346359253e-01
3.457402586936950684e-01 2.357173338532447815e-02 -1.378815025091171265e-01
2.948406636714935303e-01 8.549679070711135864e-02 -1.218228116631507874e-01
-1.775038242340087891e-01 -1.673019081354141235e-01 5.132645368576049805e-02
1.319968402385711670e-01 -1.393774598836898804e-01 1.127861663699150085e-01
2.582793831825256348e-01 -1.320375502109527588e-01 -1.051196008920669556e-01
-5.214777961373329163e-02 -5.784322321414947510e-02 1.731812655925750732e-01
4.076713621616363525e-01 -2.506127394735813141e-02 1.207678094506263733e-01
-2.612258307635784149e-02 -1.313688755035400391e-01 1.280270069837570190e-01
-2.199779152870178223e-01 1.366823613643646240e-01 -8.840129524469375610e-02
2.531424462795257568e-01 -1.202857494354248047e-01 1.119843572378158569e-01
1.041892170906066895e-01 -7.689513266086578369e-02 -1.665237098932266235e-01
-1.520705074071884155e-01 1.742199659347534180e-01 9.823871776461601257e-03
-3.553469479084014893e-01 8.611962199211120605e-02 -1.031963452696800232e-01
-3.740699291229248047e-01 9.510387480258941650e-02 -8.707669377326965332e-02
-1.141868382692337036e-01 -1.095730140805244446e-01 1.416420489549636841e-01
3.349026739597320557e-01 -1.474006921052932739e-01 -3.926307335495948792e-02
3.355069458484649658e-01 -1.171061545610427856e-01 8.997755497694015503e-02
-5.713396240025758743e-03 6.623821705579757690e-02 1.730273067951202393e-01
-1.497277170419692993e-01 -1.760247051715850830e-01 -4.086288437247276306e-02
-6.935352832078933716e-02 5.460106208920478821e-02 -1.691540181636810303e-01
1.506014019250869751e-01 -1.317353844642639160e-01 -1.264868825674057007e-01
4.558139443397521973e-01 -1.086231395602226257e-01 1.817471231333911419e-03
-3.208717107772827148e-01 -1.427872478961944580e-01 4.322050139307975769e-02
-1.766851991415023804e-01 -1.064448282122612000e-01 -1.413136720657348633e-01
-5.006271973252296448e-02 5.311833694577217102e-02 -1.704523563385009766e-01
-1.346613280475139618e-04 1.656715273857116699e-01 -6.567457318305969238e-02
3.291635811328887939e-01 9.474106878042221069e-02 -1.036364808678627014e-01
-3.072963654994964600e-01 1.496992856264114380e-01 1.998377591371536255e-02
-1.969892233610153198e-01 1.541066020727157593e-01 7.710709422826766968e-02
1.607272326946258545e-01 -1.779869049787521362e-01 -3.692174330353736877e-02
2.428289055824279785e-01 -1.691776514053344727e-01 -2.522516623139381409e-02
-2.487761229276657104e-01 5.745870620012283325e-02 1.551780253648757935e-01
-3.487328886985778809e-01 -1.008120104670524597e-01 9.806449711322784424e-02
-4.184531867504119873e-01 -1.158030182123184204e-01 2.408811450004577637e-02
-1.861781030893325806e-01 -1.018801331520080566e-01 1.385784447193145752e-01
-1.949381828308105469e-01 1.228643059730529785e-01 -1.113276407122612000e-01
2.375149726867675781e-01 -1.097482889890670776e-01 1.252001374959945679e-01
-4.242068827152252197e-01 -3.191050514578819275e-02 1.111231148242950439e-01
2.833768725395202637e-01 -7.390618324279785156e-02 -1.432600617408752441e-01
3.773170411586761475e-01 1.265585422515869141e-01 -1.512880343943834305e-02
2.277391999959945679e-01 -6.834351271390914917e-02 -1.560247242450714111e-01
-2.854448258876800537e-01 1.248383074998855591e-01 -8.583465963602066040e-02
-1.690063625574111938e-01 -1.401767432689666748e-01 1.039832383394241333e-01
8.198601752519607544e-02 -1.684414893388748169e-01 -8.330910652875900269e-02
-2.086338549852371216e-01 2.773399464786052704e-02 1.688095778226852417e-01
-3.204573988914489746e-01 1.059653386473655701e-01 1.075506135821342468e-01
-1.458325684070587158e-01 -8.049570024013519287e-02 -1.600116789340972900e-01
-4.512786120176315308e-02 -1.765397936105728149e-02 -1.813697069883346558e-01
-4.324886202812194824e-01 -1.806827820837497711e-02 -1.086892783641815186e-01
4.881078004837036133e-01 5.759267881512641907e-02 -5.155412107706069946e-02
2.721621096134185791e-01 1.174457073211669922e-01 1.073266118764877319e-01
-3.901200294494628906e-01 1.357276551425457001e-02 -1.245711520314216614e-01
-3.687409162521362305e-01 4.082380607724189758e-02 1.310299187898635864e-01
1.091279983520507812e-01 5.982608348131179810e-02 1.710545867681503296e-01
4.576064348220825195e-01 -9.950216114521026611e-02 3.702786192297935486e-02
5.169801712036132812e-01 1.751108095049858093e-02 5.700430646538734436e-02
-1.145498678088188171e-01 -1.829712986946105957e-01 -3.599334973841905594e-03
-8.665844053030014038e-02 1.747186928987503052e-01 -3.099292889237403870e-02
-9.707380831241607666e-02 -5.447995290160179138e-02 1.720768213272094727e-01
5.443180203437805176e-01 -3.748432267457246780e-03 -2.107200771570205688e-02
1.926336884498596191e-01 1.517443954944610596e-01 -6.657111644744873047e-02
1.680606789886951447e-02 1.218814998865127563e-01 -1.286365687847137451e-01
-1.753817051649093628e-01 1.134168952703475952e-01 -1.240398511290550232e-01
-4.974740147590637207e-01 -9.323593229055404663e-03 -7.230346649885177612e-02
-1.583174914121627808e-01 -1.594894677400588989e-01 7.552982866764068604e-02
1.451738774776458740e-01 1.290641576051712036e-01 -1.113665252923965454e-01
3.044455870985984802e-02 -4.766434803605079651e-02 1.770389378070831299e-01
9.001143276691436768e-02 -1.482778042554855347e-01 1.059622392058372498e-01
9.459106251597404480e-03 -8.534250408411026001e-02 1.622615754604339600e-01
2.999943792819976807e-01 1.289500892162322998e-01 8.111479133367538452e-02
-2.675126679241657257e-02 6.239955127239227295e-02 -1.674714833498001099e-01
2.298319190740585327e-01 1.463288515806198120e-01 -6.561566144227981567e-02
2.003488689661026001e-01 1.633607298135757446e-01 4.159254580736160278e-02
1.963149458169937134e-01 -1.876852102577686310e-02 1.707780808210372925e-01
1.814297288656234741e-01 1.187515109777450562e-01 1.271240264177322388e-01
-4.375868737697601318e-01 -1.040862575173377991e-01 -3.858915716409683228e-02
4.270264133810997009e-02 1.770431697368621826e-01 4.012057557702064514e-02
4.989457428455352783e-01 6.800513714551925659e-02 1.966882124543190002e-02
-4.138339459896087646e-01 1.122486814856529236e-01 -3.231167048215866089e-02
-3.484932780265808105e-01 -3.178376471623778343e-03 -1.390202343463897705e-01
9.515245258808135986e-02 -1.716719567775726318e-01 -7.472397387027740479e-02
-4.641572535037994385e-01 3.237747121602296829e-03 -9.360393136739730835e-02
6.341665983200073242e-02 -6.832170486450195312e-02 1.690072417259216309e-01
-4.724663794040679932e-01 9.016998112201690674e-02 -5.115007050335407257e-03
-2.954152226448059082e-01 -1.385963410139083862e-01 -7.505613565444946289e-02
4.201178848743438721e-01 1.020057946443557739e-01 5.264091491699218750e-02
-1.889816075563430786e-01 1.587989777326583862e-01 6.864342093467712402e-02
4.408199489116668701e-01 6.925436854362487793e-02 8.210579305887222290e-02
8.822122961282730103e-02 -1.781534403562545776e-02 -1.799862980842590332e-01
4.655623733997344971e-01 6.242514401674270630e-02 -6.596773862838745117e-02
-1.192587912082672119e-01 1.671402007341384888e-01 6.534234434366226196e-02
-3.074721395969390869e-01 1.081133633852005005e-01 -9.893182665109634399e-02
3.421317338943481445e-01 1.272489130496978760e-01 -5.066629126667976379e-02
4.558237791061401367e-01 3.255119174718856812e-02 -9.268453717231750488e-02
2.786228954792022705e-01 7.662571966648101807e-02 -1.319524049758911133e-01
-5.202222466468811035e-01 1.059723086655139923e-02 -5.058767646551132202e-02
-1.480727493762969971e-01 -1.349906176328659058e-01 1.137904971837997437e-01
-4.429789632558822632e-02 9.371608495712280273e-02 1.595162004232406616e-01
-3.384795486927032471e-01 6.651603430509567261e-02 1.303300708532333374e-01
2.175161689519882202e-01 1.415188759565353394e-01 9.051578491926193237e-02
2.706645727157592773e-01 -1.251837909221649170e-01 -1.095227226614952087e-01
4.359048306941986084e-01 1.023171320557594299e-01 -2.336631342768669128e-02
-1.098646670579910278e-01 5.394115671515464783e-02 1.733895987272262573e-01
2.528732717037200928e-01 1.178381517529487610e-01 -1.025797352194786072e-01
4.741895198822021484e-01 4.766510333865880966e-03 -9.073637425899505615e-02
-1.684944331645965576e-01 8.041576296091079712e-02 -1.490637660026550293e-01
-2.104856520891189575e-01 1.528972536325454712e-01 7.544894516468048096e-02
3.316977024078369141e-01 -1.130315437912940979e-01 9.614269435405731201e-02
-2.795969545841217041e-01 -1.404254883527755737e-01 7.207912951707839966e-02
-1.725457459688186646e-01 1.660328060388565063e-01 5.290870741009712219e-02
2.428220063447952271e-01 1.497209630906581879e-02 -1.618854254484176636e-01
-4.274936914443969727e-01 7.702913135290145874e-02 -7.809036225080490112e-02
-1.270231008529663086e-01 1.142782717943191528e-01 -1.293795108795166016e-01
-1.145968064665794373e-01 -1.827628165483474731e-01 3.507730085402727127e-03
-3.531790077686309814e-01 3.564211353659629822e-02 1.371851861476898193e-01
-1.863257028162479401e-02 -1.853224486112594604e-01 -3.438226133584976196e-02
-1.400157213211059570e-01 1.670686900615692139e-01 -4.594065248966217041e-02
2.071630060672760010e-01 1.146284341812133789e-01 1.262741982936859131e-01
-3.726746439933776855e-01 -5.689256638288497925e-02 -1.217415258288383484e-01
-3.457586765289306641e-01 1.073936931788921356e-02 1.428259760141372681e-01
1.465187668800354004e-01 -1.692860722541809082e-01 -7.108781486749649048e-02
3.662979975342750549e-02 -1.633288562297821045e-01 8.626890182495117188e-02
2.423834651708602905e-01 -1.542927622795104980e-01 -7.562329620122909546e-02
-3.800215125083923340e-01 -5.107106175273656845e-03 1.324676722288131714e-01
-8.947784081101417542e-03 -1.868549287319183350e-01 1.301851589232683182e-02
3.312678933143615723e-01 -5.468402430415153503e-02 1.364039480686187744e-01
-1.648918911814689636e-02 1.534228324890136719e-01 -8.942848443984985352e-02
2.532838284969329834e-01 -1.218782216310501099e-01 -1.174189671874046326e-01
-1.518832147121429443e-01 1.408609896898269653e-01 -9.644086658954620361e-02
-5.860942602157592773e-02 -1.639646440744400024e-01 8.272425830364227295e-02
5.061511993408203125e-01 3.773286193609237671e-02 -5.322398617863655090e-02
1.960354894399642944e-01 -1.629571616649627686e-01 -7.262472063302993774e-02
-1.184679195284843445e-02 -1.394980847835540771e-01 1.197571977972984314e-01
5.134692788124084473e-01 5.579542368650436401e-02 -1.426234189420938492e-02
-1.254964768886566162e-01 -1.032609194517135620e-01 -1.498765051364898682e-01
-1.088033691048622131e-01 -1.714810878038406372e-01 -6.894090771675109863e-02
-3.489174246788024902e-01 7.385560870170593262e-02 1.230947524309158325e-01
-1.212245747447013855e-01 -1.209953799843788147e-01 -1.373772472143173218e-01
-4.443494975566864014e-01 1.387517713010311127e-02 1.069651767611503601e-01
-1.834086775779724121e-01 -1.743117421865463257e-01 -2.791383862495422363e-02
-3.777100443840026855e-01 8.258847147226333618e-02 1.066477596759796143e-01
1.404118165373802185e-02 1.623412370681762695e-01 -7.276106625795364380e-02
-1.501226127147674561e-01 -7.543801516294479370e-02 1.590864807367324829e-01
5.680217966437339783e-02 -1.098813340067863464e-01 -1.515682935714721680e-01
-3.627114295959472656e-01 -1.094124838709831238e-01 -8.643809705972671509e-02
5.278272628784179688e-01 -3.565452247858047485e-02 3.924375772476196289e-02
-1.680257618427276611e-01 5.445382092148065567e-03 -1.723500490188598633e-01
2.163367569446563721e-01 -1.369684338569641113e-01 1.014922782778739929e-01
1.252443939447402954e-01 1.685266047716140747e-01 -4.159844294190406799e-02
1.301912069320678711e-01 -1.825613230466842651e-01 1.259140949696302414e-02
1.883009970188140869e-01 -1.772726923227310181e-01 9.478352963924407959e-03
3.775182962417602539e-01 -1.319706588983535767e-01 -4.834215715527534485e-02
-3.301717340946197510e-01 1.029812544584274292e-01 -9.654959291219711304e-02
-2.022717595100402832e-01 1.460683643817901611e-01 9.099510312080383301e-02
3.634155094623565674e-01 1.011602431535720825e-01 9.122160822153091431e-02
2.444060891866683960e-01 1.587592959403991699e-01 2.784296497702598572e-02
8.414236456155776978e-02 8.984933048486709595e-02 -1.510158628225326538e-01
6.332167983055114746e-02 -1.499389708042144775e-01 -1.141560748219490051e-01
1.965333372354507446e-01 -1.763808131217956543e-01 -1.914772018790245056e-02
-2.717182934284210205e-01 2.251085080206394196e-02 1.590256094932556152e-01
-1.026946604251861572e-01 1.777622103691101074e-01 -1.689209602773189545e-03
4.345666468143463135e-01 1.307773962616920471e-02 1.110984236001968384e-01
-2.699414789676666260e-01 -1.112379133701324463e-01 -1.184145137667655945e-01
-2.129131108522415161e-01 6.362731009721755981e-02 -1.514846384525299072e-01
-1.135326176881790161e-01 -1.152772977948188782e-01 -1.427207887172698975e-01
1.170456409454345703e-01 -6.352982483804225922e-03 -1.783118098974227905e-01
-1.117044389247894287e-01 1.389267891645431519e-01 1.168904304504394531e-01
-3.222190216183662415e-02 -1.708771139383316040e-01 -8.045360445976257324e-02
-4.065738320350646973e-01 1.188493743538856506e-01 3.019224852323532104e-02
1.233348101377487183e-01 -1.399492919445037842e-01 1.131148934364318848e-01
-2.907767593860626221e-01 9.953475743532180786e-02 1.224992647767066956e-01
-2.275322526693344116e-01 -1.027594655752182007e-01 1.307070106267929077e-01
-4.284812808036804199e-01 -3.026626445353031158e-02 -1.083615720272064209e-01
3.682644665241241455e-01 1.303261220455169678e-01 1.854818314313888550e-02
5.829010903835296631e-02 1.393093168735504150e-02 -1.797974407672882080e-01
8.484050631523132324e-02 6.101134419441223145e-02 -1.659513115882873535e-01
8.438076823949813843e-02 -7.416072487831115723e-02 1.655132621526718140e-01
2.321840077638626099e-01 1.267607063055038452e-01 -9.702870249748229980e-02
-2.587222456932067871e-01 1.598533987998962402e-01 1.441175211220979691e-02
6.350544840097427368e-02 -1.678380221128463745e-01 7.630478590726852417e-02
2.096490561962127686e-01 -4.660640656948089600e-02 1.633961647748947144e-01
1.638809144496917725e-01 -4.940372705459594727e-02 1.682874560356140137e-01
-3.331815898418426514e-01 1.414948105812072754e-01 3.360256180167198181e-02
2.232778966426849365e-01 5.893391370773315430e-02 1.578709334135055542e-01
1.578710675239562988e-01 1.434357315301895142e-01 -9.000860154628753662e-02
3.688341006636619568e-02 1.759067773818969727e-01 -3.195863217115402222e-02
4.995289742946624756e-01 5.626605078577995300e-02 -4.016165062785148621e-02
-3.906694650650024414e-01 -3.392024710774421692e-02 1.237218379974365234e-01
7.100602239370346069e-02 -2.950858511030673981e-02 1.799032539129257202e-01
-5.351611375808715820e-01 -2.859649620950222015e-02 1.963412016630172729e-02
-6.843826919794082642e-02 1.734506189823150635e-01 5.436587333679199219e-02
-5.125863552093505859e-01 7.468225900083780289e-03 6.333085894584655762e-02
3.987248986959457397e-02 1.040306687355041504e-01 -1.432828307151794434e-01
-2.053214460611343384e-01 -8.831925690174102783e-02 -1.480812430381774902e-01
3.301897943019866943e-01 -8.475311100482940674e-02 1.210378482937812805e-01
-3.525925278663635254e-01 8.771602809429168701e-02 1.123771965503692627e-01
3.118962645530700684e-01 -1.424055993556976318e-01 6.047198921442031860e-02
-1.213279739022254944e-01 -2.240085788071155548e-02 -1.768855601549148560e-01
-2.600690424442291260e-01 -1.053542643785476685e-01 1.214719861745834351e-01
-5.218020081520080566e-01 1.901527121663093567e-02 -4.595528915524482727e-02
5.020696520805358887e-01 4.747067578136920929e-04 7.366014271974563599e-02
-8.286064118146896362e-02 -1.445202380418777466e-01 1.101016774773597717e-01
-3.553728759288787842e-01 -6.001139990985393524e-04 1.402390897274017334e-01
2.485831379890441895e-01 1.592051237821578979e-01 1.523373834788799286e-02
3.397414088249206543e-01 1.057624071836471558e-01 -8.770666271448135376e-02
4.397022128105163574e-01 9.637048095464706421e-02 4.409582167863845825e-02
-4.591270685195922852e-01 5.739492550492286682e-02 -7.565832883119583130e-02
-9.663119167089462280e-02 1.368094980716705322e-01 1.208876669406890869e-01
9.245331585407257080e-02 1.808280870318412781e-02 -1.776569485664367676e-01
5.599415674805641174e-02 -9.113712608814239502e-02 -1.625070124864578247e-01
-2.163551300764083862e-01 -1.456209123134613037e-01 -9.264614433050155640e-02
2.300079762935638428e-01 -6.923156976699829102e-02 1.520046591758728027e-01
4.106336534023284912e-01 -1.007357314229011536e-01 -7.981408387422561646e-02
-4.392028152942657471e-01 -4.084691405296325684e-02 1.009148806333541870e-01
-3.591788113117218018e-01 -8.082970976829528809e-02 1.113954856991767883e-01
3.379479348659515381e-01 2.378130890429019928e-02 -1.399512737989425659e-01
-1.610479950904846191e-01 -1.516388952732086182e-01 8.893814682960510254e-02
4.034423828125000000e-01 1.039475277066230774e-01 -5.490763857960700989e-02
1.425539888441562653e-02 -4.505546391010284424e-02 1.779603511095046997e-01
3.102058768272399902e-01 1.206299662590026855e-01 8.968582749366760254e-02
5.153564810752868652e-01 -6.798244267702102661e-02 -1.540310587733983994e-02
-3.343642130494117737e-02 -4.252380505204200745e-02 1.782801300287246704e-01
-3.995316028594970703e-01 -1.144772469997406006e-01 -5.496395379304885864e-02
2.428013980388641357e-01 -1.347672790288925171e-01 9.793646633625030518e-02
4.205676317214965820e-01 8.783116191625595093e-02 -6.805866211652755737e-02
-1.285391896963119507e-01 7.322897762060165405e-02 -1.571445018053054810e-01
2.341812551021575928e-01 -3.821497410535812378e-02 1.618776470422744751e-01
-4.322901964187622070e-01 -9.537118673324584961e-02 -6.136847659945487976e-02
-1.295480411499738693e-03 1.802769452333450317e-01 2.134689316153526306e-02
1.727747321128845215e-01 -1.430527269840240479e-01 -1.106311380863189697e-01
1.984841972589492798e-01 -1.379454135894775391e-01 -1.121120750904083252e-01
4.463766515254974365e-02 1.443223208189010620e-01 1.142559200525283813e-01
1.873709857463836670e-01 -9.168779104948043823e-02 -1.513971984386444092e-01
2.559691965579986572e-01 3.211887553334236145e-02 1.597689539194107056e-01
-1.119836717844009399e-01 -1.208343543112277985e-02 1.797985285520553589e-01
4.453490376472473145e-01 -9.976459294557571411e-02 4.971733689308166504e-02
-4.098373949527740479e-01 1.199078038334846497e-01 1.230385061353445053e-02
-3.219684213399887085e-02 1.692043691873550415e-01 -5.626057460904121399e-02
-1.942231059074401855e-01 9.280982613563537598e-02 -1.377205550670623779e-01
2.488307356834411621e-01 -3.286013752222061157e-02 -1.614212393760681152e-01
3.515678942203521729e-01 -1.348692476749420166e-01 -6.164781004190444946e-02
4.790318310260772705e-01 3.613738343119621277e-02 8.019878715276718140e-02
1.777433454990386963e-01 -4.819215834140777588e-02 -1.687582731246948242e-01
-1.518310606479644775e-01 8.187007904052734375e-02 1.586824208498001099e-01
4.072487354278564453e-01 1.005360186100006104e-01 -5.815389752388000488e-02
2.426647096872329712e-01 1.547656208276748657e-01 4.907398670911788940e-02
2.359389327466487885e-02 -1.839600801467895508e-01 3.213379532098770142e-02
-4.782510697841644287e-01 3.228083625435829163e-02 8.403418958187103271e-02
2.177164405584335327e-01 -8.091858774423599243e-02 -1.523761302232742310e-01
-1.053156778216362000e-01 6.255632638931274414e-02 -1.639250367879867554e-01
-3.143775761127471924e-01 -1.518526524305343628e-01 -1.068846415728330612e-02
2.909553945064544678e-01 -3.029633685946464539e-02 1.530381739139556885e-01
-7.898352295160293579e-02 -1.581636220216751099e-01 -9.959340840578079224e-02
1.125537678599357605e-01 -1.644064635038375854e-01 7.781776785850524902e-02
-2.564477622509002686e-01 5.473235622048377991e-02 -1.477979123592376709e-01
2.568575143814086914e-01 9.768351167440414429e-02 -1.215535849332809448e-01
-2.577433921396732330e-02 -2.261640504002571106e-02 1.823149025440216064e-01
-3.851862549781799316e-01 -2.434142120182514191e-02 -1.264038383960723877e-01
1.809009723365306854e-02 -8.240721188485622406e-03 -1.822289079427719116e-01
2.653490193188190460e-02 1.236055940389633179e-01 -1.267562955617904663e-01
8.805301040410995483e-02 1.705674380064010620e-01 5.808063223958015442e-02
-4.093549549579620361e-01 1.194980144500732422e-01 -7.511961273849010468e-03
-3.475916385650634766e-01 1.337135583162307739e-01 -3.581119701266288757e-02
-8.341389894485473633e-02 -1.718919128179550171e-01 -7.257233560085296631e-02
-1.556419283151626587e-01 -1.755343824625015259e-01 -4.013856872916221619e-02
-2.641751468181610107e-01 -1.051721815019845963e-02 1.609285175800323486e-01
-7.534815371036529541e-02 8.434672653675079346e-02 1.633989512920379639e-01
6.582102924585342407e-02 7.953170686960220337e-02 -1.580625027418136597e-01
-1.160051450133323669e-01 -5.554720386862754822e-02 1.703725457191467285e-01
3.491168022155761719e-01 -1.467089205980300903e-01 1.364362705498933792e-02
-1.911802291870117188e-01 1.337333172559738159e-01 -9.904258698225021362e-02
2.819615900516510010e-01 9.856777265667915344e-03 -1.554789692163467407e-01
-3.558152019977569580e-01 -1.024650782346725464e-01 9.341368824243545532e-02
3.982830643653869629e-01 7.397519797086715698e-02 1.010352522134780884e-01
-4.488977789878845215e-01 -1.024916991591453552e-01 2.102972567081451416e-02
-4.079612791538238525e-01 -9.556123055517673492e-03 1.222549676895141602e-01
-1.547719091176986694e-01 1.317250728607177734e-01 -1.078841835260391235e-01
-2.082244157791137695e-01 3.583680838346481323e-02 -1.620901226997375488e-01
6.048061698675155640e-02 -1.787256896495819092e-01 4.937804862856864929e-02
-4.061629995703697205e-02 4.064854979515075684e-02 -1.746977716684341431e-01
3.793613910675048828e-01 -4.359623417258262634e-02 1.259692907333374023e-01
6.393667310476303101e-02 -1.713509112596511841e-01 -7.878707349300384521e-02
-3.641800880432128906e-01 -1.055033355951309204e-01 8.620730787515640259e-02
2.279301136732101440e-01 1.460681557655334473e-01 7.878339290618896484e-02
4.786632955074310303e-01 5.631877109408378601e-02 6.648726016283035278e-02
-1.899449229240417480e-01 -5.734694376587867737e-02 -1.632275581359863281e-01
-6.270347535610198975e-02 -9.796646982431411743e-02 1.533652096986770630e-01
9.145148843526840210e-02 1.366864144802093506e-01 -1.085505411028862000e-01
-1.495300680398941040e-01 1.184568554162979126e-01 1.339801996946334839e-01
-2.516628801822662354e-01 1.202208176255226135e-01 1.133158057928085327e-01
3.536720871925354004e-01 1.012360975146293640e-01 9.559728205204010010e-02
8.320169895887374878e-02 5.761441960930824280e-02 1.735075861215591431e-01
-2.650454044342041016e-01 -5.546823143959045410e-02 -1.511823087930679321e-01
1.677954345941543579e-01 -5.912129953503608704e-02 -1.670847833156585693e-01
3.680887222290039062e-01 -1.409113109111785889e-01 -2.494803816080093384e-02
2.390742897987365723e-01 -1.435137689113616943e-01 8.662465959787368774e-02
-5.273454189300537109e-01 -3.726189583539962769e-02 -2.649293094873428345e-02
3.643994927406311035e-01 1.437487453222274780e-02 1.366487890481948853e-01
4.351977705955505371e-01 7.657898217439651489e-02 -7.218345254659652710e-02
4.557859525084495544e-02 -1.811987310647964478e-01 4.228352755308151245e-02
4.674727618694305420e-01 8.839873224496841431e-02 2.133021876215934753e-02
-2.392569631338119507e-01 9.577513486146926880e-02 1.373784840106964111e-01
-4.391809105873107910e-01 -7.944640517234802246e-02 7.383926212787628174e-02
-1.183348894119262695e-01 -1.313116550445556641e-01 1.217006891965866089e-01
-1.800658851861953735e-01 1.644326597452163696e-01 -4.102168232202529907e-02
3.372418880462646484e-01 1.192332711070775986e-03 1.450971215963363647e-01
-2.480051219463348389e-01 -5.438470095396041870e-02 -1.548186838626861572e-01
3.841006159782409668e-01 3.055934794247150421e-02 -1.241135671734809875e-01
-4.707194864749908447e-01 -7.335057109594345093e-02 -5.775646492838859558e-02
-3.284974992275238037e-01 8.588454127311706543e-02 -1.125230789184570312e-01
3.296916186809539795e-01 -2.429140917956829071e-02 1.450999379158020020e-01
-2.951083146035671234e-02 -1.814401596784591675e-01 -5.143912881612777710e-02
2.905825376510620117e-01 1.398102939128875732e-01 6.392702460289001465e-02
4.648583829402923584e-01 4.344742000102996826e-02 -8.169931918382644653e-02
5.355895757675170898e-01 -4.546425864100456238e-02 4.599900916218757629e-03
3.579570353031158447e-01 -1.402859985828399658e-01 -4.172497615218162537e-02
4.275772869586944580e-01 1.237139664590358734e-02 -1.123571097850799561e-01
-7.012481987476348877e-02 -6.858644634485244751e-02 -1.707284003496170044e-01
-4.711605608463287354e-01 -1.328033022582530975e-02 -8.946631848812103271e-02
-4.338024556636810303e-02 5.667234212160110474e-02 -1.693544834852218628e-01
-2.498877495527267456e-01 -3.479873761534690857e-02 1.595637053251266479e-01
-4.196582734584808350e-02 1.506881974637508392e-02 1.834036260843276978e-01
3.879148066043853760e-01 1.241803020238876343e-01 -5.025329533964395523e-03
1.972001045942306519e-01 -1.553264856338500977e-01 7.817386835813522339e-02
3.731374442577362061e-01 1.271687000989913940e-01 2.967379987239837646e-02
3.581985235214233398e-01 4.933878034353256226e-02 1.299618035554885864e-01
4.716661274433135986e-01 -8.596191182732582092e-03 -9.328556060791015625e-02
4.309497475624084473e-01 2.639118023216724396e-02 -1.072241514921188354e-01
3.062331378459930420e-01 -1.386154145002365112e-01 7.059465348720550537e-02
4.895137846469879150e-01 -2.258079592138528824e-03 -8.208923786878585815e-02
