9.487964957952499390e-02 -5.761720538139343262e-01 -5.033072829246520996e-01
3.762414678931236267e-02 1.423034369945526123e-01 7.904451489448547363e-01
1.161001622676849365e-01 -3.067452907562255859e-01 -7.751829028129577637e-01
-1.069646179676055908e-01 1.702734231948852539e-01 7.548053264617919922e-01
5.810189247131347656e-01 7.427123188972473145e-02 1.952566653490066528e-01
-3.679532706737518311e-01 2.773952484130859375e-02 6.761661171913146973e-01
5.979828834533691406e-01 4.422050714492797852e-02 1.347672343254089355e-01
-4.980263113975524902e-02 -5.900991559028625488e-01 -4.979374706745147705e-01
-1.496116816997528076e-01 -5.671399831771850586e-01 -5.100761651992797852e-01
-1.618285924196243286e-01 1.071844995021820068e-01 -7.010294795036315918e-01
-1.829548627138137817e-01 4.508265852928161621e-02 -7.301544547080993652e-01
-2.038819789886474609e-01 -5.802952051162719727e-01 -4.511424303054809570e-01
-2.870040237903594971e-01 -1.780757308006286621e-01 7.729244232177734375e-01
5.734352469444274902e-01 7.017025351524353027e-02 -2.118883728981018066e-01
-5.371953845024108887e-01 -2.132785618305206299e-01 4.392265081405639648e-01
1.738839596509933472e-02 4.403871595859527588e-01 2.770201563835144043e-01
3.312203288078308105e-01 2.827130854129791260e-01 -4.091947376728057861e-01
-5.215757526457309723e-03 -2.512361705303192139e-01 -8.099818229675292969e-01
3.759045004844665527e-01 3.406227529048919678e-01 2.379861176013946533e-01
4.163791239261627197e-01 -6.636717170476913452e-02 6.385281085968017578e-01
2.531211376190185547e-01 2.428290843963623047e-01 -5.464857816696166992e-01
5.631070137023925781e-01 -3.231613934040069580e-01 -1.204793527722358704e-01
-5.355049967765808105e-01 1.302923262119293213e-01 -6.937289983034133911e-02
-7.905599474906921387e-02 4.085280597209930420e-01 -2.628287374973297119e-01
3.139832913875579834e-01 -2.266514599323272705e-01 -7.026429772377014160e-01
3.653427064418792725e-01 3.586162626743316650e-01 1.776839047670364380e-01
-1.151884645223617554e-01 2.252742052078247070e-01 -6.096009612083435059e-01
5.549062490463256836e-01 -1.052865609526634216e-01 -3.751034736633300781e-01
2.026597410440444946e-01 -3.500968217849731445e-01 -7.169772386550903320e-01
5.891036391258239746e-01 1.505661010742187500e-02 2.326280027627944946e-01
1.869184523820877075e-01 -3.973484933376312256e-01 6.889967918395996094e-01
2.439312785863876343e-01 -3.769468963146209717e-01 6.703065633773803711e-01
1.622011661529541016e-01 -4.061975777149200439e-01 6.939513087272644043e-01
-4.656440615653991699e-01 2.206671833992004395e-01 -1.090099290013313293e-01
-5.067641735076904297e-01 9.172335267066955566e-03 -3.837207853794097900e-01
-3.732714951038360596e-01 -2.986567020416259766e-01 -6.092393994331359863e-01
-3.273323178291320801e-01 -6.085752248764038086e-01 -1.919661164283752441e-01
4.274016618728637695e-01 -7.823199033737182617e-03 -5.857478976249694824e-01
-1.458954215049743652e-01 -5.210056304931640625e-01 5.889266133308410645e-01
4.798415303230285645e-01 -8.831150084733963013e-02 5.463145375251770020e-01
-4.673924148082733154e-01 -5.201525688171386719e-01 6.521599739789962769e-02
-2.805350124835968018e-01 -6.423518657684326172e-01 1.246869936585426331e-01
5.228690430521965027e-02 2.461725473403930664e-01 6.974145174026489258e-01
-1.881649494171142578e-01 2.601444125175476074e-01 6.207093000411987305e-01
-5.251594781875610352e-01 -9.718795120716094971e-02 -4.010340869426727295e-01
5.827252268791198730e-01 -6.191112101078033447e-03 2.771659195423126221e-01
5.008755326271057129e-01 -4.367750883102416992e-01 3.360733389854431152e-03
1.370158195495605469e-01 4.530698359012603760e-01 3.288411349058151245e-02
4.572296440601348877e-01 -3.814297020435333252e-01 3.858059346675872803e-01
-1.990269720554351807e-01 -1.379429548978805542e-01 8.270173668861389160e-01
-5.354833602905273438e-01 -3.494034409523010254e-01 3.254064321517944336e-01
-3.659217059612274170e-01 -5.978965759277343750e-01 1.190302893519401550e-01
4.994401633739471436e-01 1.407276988029479980e-01 3.905979096889495850e-01
-1.006190385669469833e-02 4.368103444576263428e-01 -1.807815581560134888e-01
-3.180503249168395996e-01 -6.228297948837280273e-01 1.400254517793655396e-01
-4.541237354278564453e-01 -2.713445425033569336e-01 -5.149826407432556152e-01
1.500049829483032227e-01 -6.596834659576416016e-01 -2.004963755607604980e-01
-4.750320613384246826e-01 -2.856044769287109375e-01 -4.729367494583129883e-01
3.446979820728302002e-01 -2.864025533199310303e-01 -6.498382687568664551e-01
5.405227541923522949e-01 3.796251118183135986e-02 -3.581086993217468262e-01
-3.301045671105384827e-02 1.240704953670501709e-01 8.020577430725097656e-01
-4.836662113666534424e-01 -1.703809946775436401e-02 -4.502289593219757080e-01
2.544499337673187256e-01 1.475178599357604980e-01 7.069367170333862305e-01
-4.878524541854858398e-01 -3.007219433784484863e-01 4.918918311595916748e-01
3.680148348212242126e-02 -6.131380796432495117e-01 4.269464313983917236e-01
3.007399290800094604e-02 4.543348252773284912e-01 -7.534600049257278442e-02
2.209963202476501465e-01 1.892780661582946777e-01 -6.288880705833435059e-01
-2.971721887588500977e-01 -2.374283224344253540e-02 7.597742676734924316e-01
1.721584498882293701e-01 -3.641133904457092285e-01 7.260613441467285156e-01
-2.527149021625518799e-01 -4.527343809604644775e-01 -6.035897135734558105e-01
-1.412199735641479492e-01 -6.354933977127075195e-01 3.499070703983306885e-01
1.294089257717132568e-01 -2.510635852813720703e-01 8.126297593116760254e-01
-4.142635464668273926e-01 -5.621325969696044922e-01 1.280216574668884277e-01
-1.960399001836776733e-01 -5.781956017017364502e-02 -7.639938592910766602e-01
2.326595485210418701e-01 4.221288859844207764e-01 -9.014461934566497803e-02
-5.861516594886779785e-01 2.994430065155029297e-02 -1.244253851473331451e-02
-1.512367129325866699e-01 4.255665242671966553e-01 2.050774991512298584e-01
-2.102203667163848877e-01 -5.076576024293899536e-02 8.187199234962463379e-01
5.511605143547058105e-01 -1.341909468173980713e-01 -3.821602761745452881e-01
3.494756221771240234e-01 2.092934548854827881e-01 -5.033230781555175781e-01
-3.484179973602294922e-01 3.379790484905242920e-01 -2.276002429425716400e-02
1.404004245996475220e-01 -6.129721999168395996e-01 -3.927640616893768311e-01
2.355318367481231689e-01 -6.008052825927734375e-01 -3.215153813362121582e-01
1.951213777065277100e-01 1.181032955646514893e-01 -7.026228904724121094e-01
-1.945089697837829590e-01 -4.184961616992950439e-01 -6.724778413772583008e-01
4.412862360477447510e-01 1.839120686054229736e-01 4.584579765796661377e-01
2.989476025104522705e-01 1.529335677623748779e-01 6.686401367187500000e-01
8.246394991874694824e-02 -6.144134998321533203e-01 -4.249184727668762207e-01
4.306753575801849365e-01 -4.266047179698944092e-01 3.662918210029602051e-01
5.378529429435729980e-01 -3.505067825317382812e-01 -2.012586593627929688e-01
-3.554703593254089355e-01 2.437382340431213379e-01 -3.570243120193481445e-01
2.638812065124511719e-01 -2.735342979431152344e-01 7.306770682334899902e-01
4.709755182266235352e-01 -4.667389690876007080e-01 -1.179989501833915710e-01
5.559805035591125488e-01 4.265210032463073730e-02 -3.098702132701873779e-01
-5.814141035079956055e-02 -6.361671686172485352e-01 3.753548860549926758e-01
4.293734431266784668e-01 -5.159403085708618164e-01 2.017155289649963379e-02
1.162910312414169312e-01 -1.415565609931945801e-01 -8.138651251792907715e-01
1.443245857954025269e-01 -1.339719891548156738e-01 -8.065461516380310059e-01
-5.619729757308959961e-01 -2.409958839416503906e-02 -2.576542198657989502e-01
-3.724652230739593506e-01 2.962890863418579102e-01 2.868550419807434082e-01
-6.325532495975494385e-02 4.414042532444000244e-01 -1.177260652184486389e-01
-1.112174689769744873e-01 4.400402009487152100e-01 -5.098521709442138672e-02
1.372371464967727661e-01 3.495670258998870850e-01 5.209791064262390137e-01
-5.567042827606201172e-01 1.038969904184341431e-01 4.110267385840415955e-02
3.062414564192295074e-02 -5.588971376419067383e-01 5.419560670852661133e-01
4.627196192741394043e-01 -4.827818572521209717e-01 -1.421911455690860748e-02
3.747093379497528076e-01 1.627623438835144043e-01 -5.293751955032348633e-01
2.861858010292053223e-01 3.380820453166961670e-01 -3.438977897167205811e-01
6.642272323369979858e-02 -6.855524778366088867e-01 -1.411064416170120239e-01
4.459376335144042969e-01 -2.892655134201049805e-01 5.159648060798645020e-01
3.247654736042022705e-01 2.192761898040771484e-01 5.790380835533142090e-01
-5.094287395477294922e-01 -3.476938307285308838e-01 4.003497660160064697e-01
4.057967960834503174e-01 1.981180906295776367e-02 6.345811486244201660e-01
-6.163782253861427307e-02 2.015029191970825195e-01 7.384487390518188477e-01
-5.859689116477966309e-01 -2.625759243965148926e-01 -1.807801872491836548e-01
-2.274945378303527832e-01 4.011820256710052490e-01 -6.245904415845870972e-02
-1.574319303035736084e-01 -5.553351044654846191e-01 -5.265592932701110840e-01
6.195837855339050293e-01 -1.264693737030029297e-01 2.575800195336341858e-02
4.524291753768920898e-01 2.024753689765930176e-01 4.092751741409301758e-01
-3.336842358112335205e-01 -4.869569540023803711e-01 -4.838466942310333252e-01
-1.949401348829269409e-01 -3.120889663696289062e-01 -7.404688596725463867e-01
5.724872350692749023e-01 -3.008753657341003418e-01 1.092778369784355164e-01
-3.010731041431427002e-01 -6.388409137725830078e-01 5.615552514791488647e-02
3.570164740085601807e-01 -4.492119550704956055e-01 -4.800026118755340576e-01
3.675726056098937988e-02 -7.120923697948455811e-02 -8.188818693161010742e-01
6.866519153118133545e-02 -6.369991302490234375e-01 3.472997546195983887e-01
6.059449911117553711e-01 -1.140101552009582520e-01 1.859543621540069580e-01
-5.385734513401985168e-02 3.812807798385620117e-02 8.420001864433288574e-01
1.477164626121520996e-01 4.434108734130859375e-02 8.165022134780883789e-01
-3.341397941112518311e-01 3.427616357803344727e-01 -7.033184915781021118e-02
-5.739102959632873535e-01 3.397610783576965332e-02 -1.179641559720039368e-01
-3.378264904022216797e-01 -5.052773952484130859e-01 4.689118266105651855e-01
-2.350516021251678467e-01 -2.817829847335815430e-01 7.697269320487976074e-01
1.759589016437530518e-01 -6.261211633682250977e-01 -3.169123530387878418e-01
-2.493547052145004272e-01 -6.053617000579833984e-01 3.482789397239685059e-01
2.520130872726440430e-01 -4.999404400587081909e-02 7.872471213340759277e-01
-4.574186503887176514e-01 -5.306934118270874023e-01 -3.325036913156509399e-02
4.203600883483886719e-01 -3.900508582592010498e-02 6.308203935623168945e-01
2.797791659832000732e-01 -5.577785968780517578e-01 -3.796787261962890625e-01
-4.049971103668212891e-01 -5.543327331542968750e-02 -5.888189673423767090e-01
1.447306573390960693e-02 4.414187371730804443e-01 -1.634580194950103760e-01
1.589500010013580322e-01 4.421686232089996338e-01 1.797961741685867310e-01
-8.042682707309722900e-02 2.025676667690277100e-01 -6.478019356727600098e-01
3.651207387447357178e-01 2.543492615222930908e-01 4.800990521907806396e-01
-5.544698834419250488e-01 -3.799148499965667725e-01 1.795386075973510742e-01
8.146207779645919800e-02 -5.738033056259155273e-01 4.978149831295013428e-01
5.924261212348937988e-01 -2.635049819946289062e-01 -1.740061305463314056e-02
-4.918962419033050537e-01 1.439542770385742188e-01 -2.392428070306777954e-01
-5.941303372383117676e-01 1.017399132251739502e-02 3.880482912063598633e-02
-2.234238088130950928e-01 3.631364405155181885e-01 -2.624972462654113770e-01
-3.864251971244812012e-01 -5.643664002418518066e-01 2.297357320785522461e-01
4.722785949707031250e-02 4.084822833538055420e-01 -3.007990717887878418e-01
3.487516045570373535e-01 2.409663200378417969e-01 -4.592514634132385254e-01
2.914090752601623535e-01 2.958805263042449951e-01 5.032736659049987793e-01
6.116248369216918945e-01 -4.742454737424850464e-02 1.426214724779129028e-01
1.790944188833236694e-01 -3.174093961715698242e-01 7.563769817352294922e-01
3.493398055434226990e-02 3.263345360755920410e-01 -4.956755340099334717e-01
4.542031586170196533e-01 -9.823239594697952271e-02 5.864846706390380859e-01
-2.938386201858520508e-01 -5.798446536064147949e-01 3.640373349189758301e-01
5.171725749969482422e-01 -3.914896398782730103e-02 4.728223979473114014e-01
-1.754767149686813354e-01 2.257974445819854736e-02 8.156153559684753418e-01
4.876317381858825684e-01 -4.500933885574340820e-01 6.289197504520416260e-02
-1.686619818210601807e-01 -5.724587440490722656e-01 4.905692040920257568e-01
4.474363476037979126e-02 -2.128979563713073730e-02 -8.065685033798217773e-01
-2.152273952960968018e-01 2.724338769912719727e-01 -4.806384742259979248e-01
1.184846609830856323e-01 3.207024931907653809e-01 -4.940274059772491455e-01
3.673952519893646240e-01 1.971234679222106934e-01 -4.981002509593963623e-01
-1.889920830726623535e-01 4.103201329708099365e-01 2.270404547452926636e-01
-3.386580348014831543e-01 -4.730369746685028076e-01 -4.973405301570892334e-01
-4.514581561088562012e-01 -2.981243133544921875e-01 -5.055984854698181152e-01
-4.944313764572143555e-01 -2.845795452594757080e-01 -4.370296001434326172e-01
5.721548199653625488e-01 -3.069542646408081055e-01 -1.003018170595169067e-01
8.930172026157379150e-02 4.378037750720977783e-01 2.766389548778533936e-01
1.923573762178421021e-02 2.917745411396026611e-01 -5.524517297744750977e-01
-1.843586266040802002e-01 -6.245872974395751953e-01 3.541817665100097656e-01
-9.056924283504486084e-02 3.473492860794067383e-01 5.277659893035888672e-01
-4.802107214927673340e-01 -4.810813367366790771e-01 -1.862335503101348877e-01
-4.448330104351043701e-01 -6.114855036139488220e-02 6.135833859443664551e-01
-1.204269453883171082e-01 2.675804197788238525e-01 -5.513058304786682129e-01
6.644080579280853271e-02 2.630652189254760742e-01 6.757792830467224121e-01
-4.480116367340087891e-01 -1.471925079822540283e-01 -5.485908389091491699e-01
5.102642178535461426e-01 1.959202587604522705e-01 -2.105912417173385620e-01
-2.709831893444061279e-01 2.542896568775177002e-01 -4.558423459529876709e-01
-3.093163967132568359e-01 3.637802302837371826e-01 -1.437659002840518951e-02
5.074946880340576172e-01 6.440269947052001953e-02 -4.142127931118011475e-01
2.461852282285690308e-01 4.098496735095977783e-01 -1.434462815523147583e-01
-4.004910588264465332e-01 2.891087532043457031e-01 2.085292637348175049e-01
1.244797185063362122e-01 4.463850557804107666e-01 -9.368696808815002441e-02
-3.182521164417266846e-01 -3.105917870998382568e-01 -6.579838991165161133e-01
-4.091233909130096436e-01 -5.157834291458129883e-01 -3.062021732330322266e-01
3.169062435626983643e-01 3.686479628086090088e-01 -1.964173167943954468e-01
1.684102267026901245e-01 2.300451993942260742e-01 6.820695400238037109e-01
5.800207853317260742e-01 1.022391021251678467e-01 -9.946551173925399780e-02
-3.137464076280593872e-02 3.867114484310150146e-01 -3.537697792053222656e-01
-7.610914856195449829e-02 -6.898869276046752930e-01 -1.506420969963073730e-01
-3.300719559192657471e-01 -5.448337197303771973e-01 -3.864755332469940186e-01
-3.347392678260803223e-01 -6.120397448539733887e-01 -1.472506374120712280e-01
2.010241895914077759e-01 -6.073861122131347656e-01 3.217701017856597900e-01
-5.598179101943969727e-01 -2.726788520812988281e-01 3.382925987243652344e-01
7.785830646753311157e-02 -6.391054391860961914e-01 -3.579405844211578369e-01
-5.029468536376953125e-01 -3.112298250198364258e-02 5.046553015708923340e-01
1.288396120071411133e-01 -6.712672710418701172e-01 1.286917924880981445e-01
-2.620803415775299072e-01 3.571203649044036865e-01 -2.166079580783843994e-01
6.034155488014221191e-01 -2.101118117570877075e-01 -9.758726507425308228e-02
3.714350461959838867e-01 -4.283370822668075562e-02 -6.591501832008361816e-01
6.855329871177673340e-02 -4.772219657897949219e-01 6.534128785133361816e-01
-1.938192099332809448e-01 -6.752345561981201172e-01 8.965779840946197510e-02
-3.048266172409057617e-01 -6.383800506591796875e-01 1.627641543745994568e-02
3.006424307823181152e-01 -6.076959371566772461e-01 7.405336201190948486e-02
2.613314688205718994e-01 -4.249329268932342529e-01 6.063985228538513184e-01
5.534133911132812500e-01 1.724458932876586914e-01 2.668336033821105957e-02
1.753517836332321167e-01 -5.222427845001220703e-01 -5.533018112182617188e-01
5.908452868461608887e-01 -1.711405068635940552e-01 -2.325104922056198120e-01
9.558730572462081909e-02 4.532662928104400635e-01 -5.969472229480743408e-02
-3.049522638320922852e-01 -5.941258668899536133e-01 3.047386109828948975e-01
1.723981201648712158e-01 -5.885176062583923340e-01 4.062325954437255859e-01
5.537599325180053711e-01 -3.484157621860504150e-01 6.977247446775436401e-02
2.079539895057678223e-01 1.584373414516448975e-01 -6.646618843078613281e-01
1.582956463098526001e-01 -6.661566495895385742e-01 1.010543331503868103e-01
5.457546710968017578e-01 1.824344694614410400e-01 8.378867805004119873e-02
8.952677249908447266e-02 -4.400917291641235352e-01 -6.898026466369628906e-01
2.804147899150848389e-01 2.609178125858306885e-01 -4.992585480213165283e-01
-5.023323297500610352e-01 -4.395170211791992188e-01 -2.213767766952514648e-01
-6.040624380111694336e-01 -2.336946576833724976e-01 1.647573262453079224e-01
-1.042636483907699585e-01 -2.941948473453521729e-01 8.105200529098510742e-01
5.736836194992065430e-01 -2.997756004333496094e-01 -1.157639250159263611e-01
-6.051475405693054199e-01 -1.562325656414031982e-01 2.101982235908508301e-01
3.217018544673919678e-01 3.603923022747039795e-01 2.989404797554016113e-01
2.688875794410705566e-01 -6.172115802764892578e-01 1.409260630607604980e-01
-1.780535727739334106e-01 4.093770682811737061e-01 -1.407161355018615723e-01
-3.770053386688232422e-01 7.631614804267883301e-03 -5.944619178771972656e-01
3.164827227592468262e-01 3.498026430606842041e-01 -2.668123841285705566e-01
-1.213924214243888855e-01 1.962583661079406738e-01 -6.397606134414672852e-01
3.891206681728363037e-01 2.429982721805572510e-01 4.617250263690948486e-01
3.553030490875244141e-01 2.154563367366790771e-01 -4.884342849254608154e-01
6.409710645675659180e-02 -2.032805234193801880e-01 -8.174912333488464355e-01
4.660989940166473389e-01 -1.921172887086868286e-01 5.447095036506652832e-01
4.263662695884704590e-01 2.089013159275054932e-01 4.508267045021057129e-01
4.643140435218811035e-01 -4.699340760707855225e-01 1.206720471382141113e-01
-1.525669544935226440e-01 3.565430641174316406e-01 4.701650440692901611e-01
-1.089745387434959412e-01 -6.940026283264160156e-01 4.086268320679664612e-02
-1.594489961862564087e-01 -3.228871226310729980e-01 7.800700664520263672e-01
5.007874369621276855e-01 -3.553800582885742188e-01 -3.323685824871063232e-01
3.256067633628845215e-01 -5.892179012298583984e-01 1.084272414445877075e-01
-4.531577229499816895e-02 -6.039950847625732422e-01 -4.698599278926849365e-01
-4.750522971153259277e-01 -5.486106127500534058e-02 -4.851450026035308838e-01
3.385046422481536865e-01 -5.376497507095336914e-01 -3.292000591754913330e-01
2.500475645065307617e-01 -1.579787731170654297e-01 7.829225063323974609e-01
5.268451571464538574e-01 1.975518167018890381e-01 -1.251449435949325562e-01
3.749173283576965332e-01 -5.264022350311279297e-01 -2.760939896106719971e-01
6.028685569763183594e-01 1.393601298332214355e-02 1.497684121131896973e-01
-6.110681965947151184e-02 -1.858340799808502197e-01 8.561363816261291504e-01
5.069529414176940918e-01 2.166091501712799072e-01 2.117630839347839355e-01
-4.732545912265777588e-01 -4.795222282409667969e-01 2.489349842071533203e-01
-6.132530570030212402e-01 -2.227517813444137573e-01 4.525916278362274170e-02
2.766280770301818848e-01 4.135815203189849854e-01 1.047962065786123276e-02
4.549219608306884766e-01 -2.968189120292663574e-01 -4.997665584087371826e-01
7.857401669025421143e-02 1.242332756519317627e-01 7.965575456619262695e-01
4.083639383316040039e-01 -3.142881393432617188e-02 6.446664929389953613e-01
-3.477852325886487961e-03 -6.530106067657470703e-01 3.204151391983032227e-01
4.224103093147277832e-01 3.216426670551300049e-01 -6.915669888257980347e-02
-6.401098519563674927e-02 3.389528691768646240e-01 5.541909933090209961e-01
3.087692856788635254e-01 1.483514606952667236e-01 -6.085355281829833984e-01
8.929219096899032593e-02 4.428590834140777588e-01 2.486134469509124756e-01
-1.689644455909729004e-01 -4.507282078266143799e-01 6.702451109886169434e-01
-3.881458640098571777e-01 2.946520447731018066e-01 2.363553196191787720e-01
-3.636657893657684326e-01 -5.743931531906127930e-01 -2.405351251363754272e-01
2.224850952625274658e-01 3.792132437229156494e-01 -3.011839091777801514e-01
-5.325106978416442871e-01 6.933976709842681885e-02 -2.425848692655563354e-01
-5.650848150253295898e-01 -2.957053184509277344e-01 -2.375189512968063354e-01
-5.189671516418457031e-01 1.532299816608428955e-02 -3.490092158317565918e-01
-2.196696251630783081e-01 2.815692722797393799e-01 5.643944740295410156e-01
-1.379386484622955322e-01 -5.931747555732727051e-01 4.616197645664215088e-01
1.623122990131378174e-01 -6.652662754058837891e-01 -1.286507099866867065e-01
-2.502672970294952393e-01 3.895708024501800537e-01 -7.444807887077331543e-02
-5.337026119232177734e-01 -3.125781416893005371e-01 3.773342967033386230e-01
1.295420527458190918e-01 -2.828912734985351562e-01 -7.817624807357788086e-01
1.053831800818443298e-01 1.218173056840896606e-01 7.921650409698486328e-01
2.002735733985900879e-01 3.283072710037231445e-01 5.256944298744201660e-01
8.103269338607788086e-02 -6.792218685150146484e-01 1.468544900417327881e-01
-1.078773662447929382e-01 -1.798835545778274536e-01 8.501890301704406738e-01
-6.124356985092163086e-01 -1.497891992330551147e-01 -7.594266533851623535e-02
4.932710826396942139e-01 -4.163811802864074707e-01 1.980616897344589233e-01
4.319756925106048584e-01 -4.698761701583862305e-01 -2.854051291942596436e-01
-4.020303785800933838e-01 -3.671274781227111816e-01 5.689833760261535645e-01
4.912664294242858887e-01 8.831413090229034424e-02 4.630775451660156250e-01
-5.341393947601318359e-01 1.445283293724060059e-01 7.527060061693191528e-02
-4.715259671211242676e-01 -5.168979167938232422e-01 4.546475410461425781e-02
-1.972392052412033081e-01 4.101958572864532471e-01 2.062237858772277832e-01
5.526080131530761719e-01 5.826158821582794189e-02 3.344043791294097900e-01
4.555876851081848145e-01 -4.307861626148223877e-01 -3.153505921363830566e-01
5.136493444442749023e-01 2.331741154193878174e-01 2.596204914152622223e-02
-3.889777362346649170e-01 -4.760456979274749756e-01 4.479527175426483154e-01
-8.064235001802444458e-02 3.433031737804412842e-01 -4.379043877124786377e-01
-4.066124930977821350e-02 -3.154338598251342773e-01 -7.838762402534484863e-01
-2.493957728147506714e-01 -5.506049394607543945e-01 -4.702295362949371338e-01
-2.457089126110076904e-01 -3.382292389869689941e-02 -7.284640073776245117e-01
-3.703840076923370361e-01 4.182353615760803223e-02 6.660767197608947754e-01
4.877445697784423828e-01 3.055787086486816406e-02 -4.766433835029602051e-01
3.554553985595703125e-01 1.268402785062789917e-01 -5.846604704856872559e-01
-4.304813146591186523e-01 -5.519765615463256836e-01 -8.088739216327667236e-02
4.640483856201171875e-02 1.289421468973159790e-01 7.983170151710510254e-01
4.069178104400634766e-01 -5.082067251205444336e-01 2.137132287025451660e-01
5.378355383872985840e-01 -1.390319615602493286e-01 4.219657480716705322e-01
-2.833957374095916748e-01 3.799459934234619141e-01 1.061415225267410278e-01
-2.616378664970397949e-01 -4.082278162240982056e-02 -7.200374007225036621e-01
5.916622281074523926e-01 -2.559779882431030273e-01 8.080774545669555664e-02
-1.991867423057556152e-01 -6.770081520080566406e-01 3.383180499076843262e-02
-1.112956330180168152e-01 -6.065851449966430664e-01 -4.480929970741271973e-01
-5.640531778335571289e-01 -8.157730847597122192e-02 3.730100691318511963e-01
2.270140945911407471e-01 -1.802943497896194458e-01 -7.700565457344055176e-01
2.433177232742309570e-01 -4.212857782840728760e-01 -6.331421732902526855e-01
-3.075386583805084229e-01 -2.950991392135620117e-01 -6.743373870849609375e-01
4.700702428817749023e-01 1.789577901363372803e-01 4.068109691143035889e-01
4.597791433334350586e-01 2.935669720172882080e-01 -2.160184085369110107e-03
-5.371461156755685806e-03 4.049904644489288330e-01 -3.072895109653472900e-01
6.722994148731231689e-02 2.834972441196441650e-01 -5.635847449302673340e-01
3.089583516120910645e-01 -5.761746764183044434e-01 -2.668045163154602051e-01
-4.299674332141876221e-01 -5.557222366333007812e-01 -3.931281715631484985e-02
-2.581976354122161865e-01 -6.331429481506347656e-01 2.351888865232467651e-01
2.795093953609466553e-01 1.483439207077026367e-01 6.880255341529846191e-01
1.624431610107421875e-01 4.343619048595428467e-01 -1.345266401767730713e-01
-5.561277642846107483e-02 -2.367553710937500000e-01 -8.093628287315368652e-01
-1.029702872037887573e-01 1.469766795635223389e-01 7.740274071693420410e-01
-5.587210059165954590e-01 6.724560260772705078e-02 2.292590737342834473e-01
-7.546219974756240845e-02 -6.804078817367553711e-01 1.977050602436065674e-01
3.092876672744750977e-01 -2.022774517536163330e-01 -7.130332589149475098e-01
4.813401103019714355e-01 -1.235007122159004211e-01 -5.274643301963806152e-01
-2.095809876918792725e-01 -6.535198688507080078e-01 -2.232175171375274658e-01
-5.753581523895263672e-01 -4.236026853322982788e-02 3.110342919826507568e-01
-2.108757793903350830e-01 5.803613364696502686e-02 -7.075514197349548340e-01
3.334285914897918701e-01 3.397157788276672363e-01 3.447116911411285400e-01
6.014592573046684265e-02 -6.141089200973510742e-01 4.161109328269958496e-01
-5.160603523254394531e-01 1.460310518741607666e-01 -1.347816437482833862e-01
3.034720420837402344e-01 -8.486932516098022461e-02 -7.242473959922790527e-01
-4.410369396209716797e-01 -5.078895092010498047e-01 -2.423038333654403687e-01
2.587463259696960449e-01 -5.508556365966796875e-01 4.015941619873046875e-01
-3.157742321491241455e-01 2.083130180835723877e-03 -6.601712107658386230e-01
-1.868320405483245850e-01 -5.835641622543334961e-01 4.570546448230743408e-01
-3.330427110195159912e-01 -5.011285543441772461e-01 -4.631083607673645020e-01
-3.269608020782470703e-01 -3.690473437309265137e-01 6.485215425491333008e-01
4.242620170116424561e-01 6.695960462093353271e-02 -5.508105158805847168e-01
-5.982273817062377930e-01 -7.998273521661758423e-02 2.291724979877471924e-01
2.051574289798736572e-01 -5.983785986900329590e-01 -3.702247738838195801e-01
-5.066243410110473633e-01 -5.417719483375549316e-03 -3.954216539859771729e-01
-3.804912865161895752e-01 2.361920773983001709e-01 4.339866340160369873e-01
3.916679620742797852e-01 -4.400603175163269043e-01 4.203144311904907227e-01
-1.519171893596649170e-01 8.754818141460418701e-02 -7.192639112472534180e-01
3.998166024684906006e-01 -5.029171705245971680e-01 -2.820867896080017090e-01
-1.940845549106597900e-01 3.871527612209320068e-01 -2.191865891218185425e-01
-5.651444196701049805e-01 6.533530354499816895e-02 -9.234498441219329834e-02
-1.735242642462253571e-02 4.568668305873870850e-01 -1.843735016882419586e-02
1.455647349357604980e-01 -5.431126803159713745e-02 -7.978520393371582031e-01
1.754472404718399048e-01 4.063483774662017822e-01 3.475229442119598389e-01
4.069063961505889893e-01 -1.421976387500762939e-01 6.443303227424621582e-01
-1.866739988327026367e-02 1.222321391105651855e-01 -7.318165898323059082e-01
-4.245052337646484375e-01 -5.612124204635620117e-01 -1.995196379721164703e-02
-5.472730100154876709e-02 -6.647380590438842773e-01 2.778897881507873535e-01
3.405317366123199463e-01 -2.478830069303512573e-01 -6.720325946807861328e-01
3.345119059085845947e-01 -3.236134648323059082e-01 -6.369984745979309082e-01
4.323109984397888184e-01 -4.092743992805480957e-01 3.941508233547210693e-01
-3.614848852157592773e-01 -5.671744346618652344e-01 2.838093340396881104e-01
1.415137946605682373e-01 3.418342173099517822e-01 -4.460112452507019043e-01
-4.254267215728759766e-01 -3.139352798461914062e-02 6.318019032478332520e-01
2.877687811851501465e-01 2.752093672752380371e-01 -4.699238240718841553e-01
-2.750943601131439209e-01 3.812631666660308838e-01 1.536665111780166626e-01
3.456598520278930664e-02 2.660007476806640625e-01 6.756843328475952148e-01
-3.842767477035522461e-01 2.804892957210540771e-01 -1.954596489667892456e-01
-9.479199349880218506e-02 -1.193665415048599243e-01 8.602044582366943359e-01
-6.897214800119400024e-02 -3.701665997505187988e-01 7.679847478866577148e-01
-3.337447345256805420e-01 1.155360192060470581e-01 6.548084020614624023e-01
-5.069668889045715332e-01 -4.261186718940734863e-01 2.750102281570434570e-01
-2.435465455055236816e-01 -6.235376596450805664e-01 -2.973436713218688965e-01
6.178324222564697266e-01 -2.869808673858642578e-02 -1.093727163970470428e-02
-2.499518543481826782e-01 3.706248402595520020e-01 -1.860503405332565308e-01
5.301647782325744629e-01 -3.796248435974121094e-01 1.273826956748962402e-01
1.918051093816757202e-01 3.608095943927764893e-01 -3.769413232803344727e-01
4.842440485954284668e-01 -2.661134004592895508e-01 -4.698565602302551270e-01
3.388892710208892822e-01 -2.288908511400222778e-01 6.897205114364624023e-01
1.045933961868286133e-01 6.636771559715270996e-02 8.208127021789550781e-01
3.878078758716583252e-01 -5.180575847625732422e-01 -2.674548625946044922e-01
5.288482308387756348e-01 1.628077924251556396e-01 -2.207090556621551514e-01
6.014990806579589844e-01 -7.015946507453918457e-02 -2.042619884014129639e-01
-4.914281070232391357e-01 -4.440534114837646484e-01 2.846231460571289062e-01
-1.647764444351196289e-01 2.329798340797424316e-01 6.693703532218933105e-01
-3.016225099563598633e-01 3.562855422496795654e-01 -1.170724257826805115e-01
2.188716530799865723e-01 4.345712363719940186e-01 5.015154182910919189e-02
-5.274579301476478577e-02 1.505927443504333496e-01 -7.041072249412536621e-01
1.060182321816682816e-02 1.939715445041656494e-02 8.509008884429931641e-01
-6.055245995521545410e-01 -1.039962172508239746e-01 -1.148997470736503601e-01
3.929216563701629639e-01 1.755676865577697754e-01 -4.923636019229888916e-01
-3.105730563402175903e-02 -4.813263118267059326e-01 -6.597097516059875488e-01
2.799373865127563477e-01 -3.591982126235961914e-01 6.573211550712585449e-01
-3.221969902515411377e-01 -5.830768346786499023e-01 3.105137348175048828e-01
-4.130451977252960205e-01 -3.639419376850128174e-02 -5.711837410926818848e-01
-2.053281664848327637e-01 -6.349711418151855469e-01 -3.054685592651367188e-01
6.119794398546218872e-02 2.143010795116424561e-01 7.293886542320251465e-01
6.017552614212036133e-01 -1.790761500597000122e-01 -1.644177883863449097e-01
-5.076726675033569336e-01 -1.078198030591011047e-01 5.169648528099060059e-01
-1.795914471149444580e-01 -6.269986629486083984e-01 -3.558855354785919189e-01
-5.644929409027099609e-01 4.238432645797729492e-02 -1.549445539712905884e-01
4.790877401828765869e-01 -6.933480501174926758e-02 5.474880337715148926e-01
-9.255582094192504883e-02 -6.967358589172363281e-01 -1.565186865627765656e-02
5.176451206207275391e-01 -1.874860823154449463e-01 4.489632248878479004e-01
-2.330009192228317261e-01 3.042444586753845215e-01 -4.040318429470062256e-01
-2.845995724201202393e-01 -6.460118293762207031e-01 6.139224022626876831e-02
-2.305651605129241943e-01 -5.136851072311401367e-01 5.562284588813781738e-01
-1.433618515729904175e-01 -4.808095693588256836e-01 -6.349328160285949707e-01
1.924382895231246948e-01 2.735746502876281738e-01 6.174665093421936035e-01
-1.708552092313766479e-01 2.369802296161651611e-01 -5.660638809204101562e-01
1.217483356595039368e-01 -3.743593990802764893e-01 7.399551272392272949e-01
2.963478267192840576e-01 -4.475558400154113770e-01 -5.569018721580505371e-01
-4.262289777398109436e-02 -4.128524661064147949e-01 -7.232123613357543945e-01
5.956352949142456055e-01 -2.482573986053466797e-01 -6.603319197893142700e-02
-3.909628689289093018e-01 -5.864802598953247070e-01 -3.975013643503189087e-02
-9.555009007453918457e-02 3.887968361377716064e-01 4.249833524227142334e-01
-3.490230739116668701e-01 1.445995867252349854e-01 6.113994717597961426e-01
-5.329548940062522888e-02 -5.402646660804748535e-01 5.792747139930725098e-01
-4.648050963878631592e-01 -4.492859542369842529e-02 -4.982984960079193115e-01
-1.641215831041336060e-01 3.269604146480560303e-01 -4.208837151527404785e-01
-2.636461146175861359e-02 2.862839102745056152e-01 6.473018527030944824e-01
2.809137701988220215e-01 -4.472216963768005371e-01 -5.726706981658935547e-01
-3.636913299560546875e-01 1.483089923858642578e-01 -4.926849305629730225e-01
-1.559529304504394531e-01 4.185290038585662842e-01 2.443384975194931030e-01
-5.092023015022277832e-01 -2.940768599510192871e-01 -3.999717533588409424e-01
-4.130233228206634521e-01 -5.242013931274414062e-01 2.956595122814178467e-01
-4.403301775455474854e-01 1.750856339931488037e-01 -3.191955387592315674e-01
-5.769595131278038025e-02 4.443713724613189697e-01 2.146218717098236084e-01
2.924880683422088623e-01 -6.140285730361938477e-01 -8.258849382400512695e-02
-3.400731459259986877e-02 4.169388711452484131e-01 -2.570488750934600830e-01
1.826798319816589355e-01 1.780031323432922363e-01 7.245638966560363770e-01
-1.005837246775627136e-01 -5.170286893844604492e-01 -6.051256060600280762e-01
5.647249221801757812e-01 -2.836823165416717529e-01 2.066241353750228882e-01
-2.749700248241424561e-01 -1.939866542816162109e-01 -7.263706922531127930e-01
7.354387640953063965e-02 3.262091577053070068e-01 5.840537548065185547e-01
2.369740605354309082e-01 2.336595654487609863e-01 6.388537287712097168e-01
-5.139769520610570908e-03 -3.895379602909088135e-02 8.641827702522277832e-01
1.388187855482101440e-01 -6.490805149078369141e-01 2.436650842428207397e-01
-1.339188814163208008e-01 -2.950275242328643799e-01 8.032763600349426270e-01
-2.526918351650238037e-01 -6.420520544052124023e-01 -2.039344310760498047e-01
-1.866750866174697876e-01 3.754634857177734375e-01 3.846814334392547607e-01
-2.778876125812530518e-01 2.251108586788177490e-01 -4.941521584987640381e-01
-4.479439556598663330e-01 -5.108121633529663086e-01 2.346028834581375122e-01
2.710875272750854492e-01 -4.363403320312500000e-01 5.836641788482666016e-01
-3.913493752479553223e-01 -3.930404782295227051e-02 -5.995881557464599609e-01
9.510678797960281372e-02 3.230765461921691895e-01 -4.955367147922515869e-01
-5.453492999076843262e-01 -2.415289431810379028e-01 4.043957591056823730e-01
-3.056006133556365967e-01 -6.236999034881591797e-01 -1.732273101806640625e-01
6.196472048759460449e-01 -1.265154927968978882e-01 -1.848914287984371185e-02
-4.938036799430847168e-01 9.940831363201141357e-02 -3.134548366069793701e-01
-1.863354071974754333e-02 -6.982964277267456055e-01 4.043688252568244934e-02
-5.387987494468688965e-01 -4.045624136924743652e-01 1.941348016262054443e-01
-1.087869033217430115e-01 -6.105057001113891602e-01 4.323309361934661865e-01
-5.577225983142852783e-02 -5.223431587219238281e-01 -6.072207689285278320e-01
-2.077005058526992798e-01 -6.545917987823486328e-01 2.139280438423156738e-01
3.673883676528930664e-01 -3.361617028713226318e-01 -5.925187468528747559e-01
-2.836208343505859375e-01 -5.117589235305786133e-01 5.168004035949707031e-01
4.496254920959472656e-01 1.083694994449615479e-01 5.230934619903564453e-01
2.810845077037811279e-01 3.956917226314544678e-01 -1.465340554714202881e-01
4.937535822391510010e-01 2.434431612491607666e-01 1.733293086290359497e-01
4.110432863235473633e-01 7.386712729930877686e-02 -5.630622506141662598e-01
-4.991929233074188232e-01 -2.556936144828796387e-01 5.003088712692260742e-01
2.298444658517837524e-01 -2.809888422489166260e-01 7.496289610862731934e-01
-5.670179128646850586e-01 7.910425961017608643e-02 1.073097884654998779e-01
2.410284429788589478e-01 -5.859141349792480469e-01 -3.597111403942108154e-01
-3.400282561779022217e-01 -5.288519263267517090e-01 4.207530915737152100e-01
-4.529816210269927979e-01 -5.324150323867797852e-01 -6.825564056634902954e-02
5.922051072120666504e-01 -2.369471192359924316e-01 -1.411377489566802979e-01
3.656094670295715332e-01 -5.667325258255004883e-01 -9.158086776733398438e-02
-4.630779623985290527e-01 1.589840054512023926e-01 -2.932979762554168701e-01
1.075481101870536804e-01 4.261884391307830811e-01 -2.208399474620819092e-01
4.001108109951019287e-01 4.444751143455505371e-02 -5.944435000419616699e-01
-4.442790448665618896e-01 1.854428648948669434e-01 3.951147198677062988e-01
3.563103377819061279e-01 2.820527553558349609e-01 -3.762403726577758789e-01
4.076694548130035400e-01 1.161673218011856079e-01 -5.342569351196289062e-01
-6.234047189354896545e-02 -2.939381599426269531e-01 8.166756629943847656e-01
-1.762895286083221436e-01 3.376140892505645752e-01 4.945152401924133301e-01
-2.488173693418502808e-01 3.283165097236633301e-01 4.394533038139343262e-01
2.113006860017776489e-01 -5.409141778945922852e-01 -4.947745501995086670e-01
1.544262021780014038e-01 1.328944861888885498e-01 -7.068443894386291504e-01
-4.830646812915802002e-01 2.099034190177917480e-01 -5.084474384784698486e-02
2.929812967777252197e-01 3.066116273403167725e-01 4.817612767219543457e-01
1.521440297365188599e-01 2.751974463462829590e-01 6.355181932449340820e-01
3.769454360008239746e-01 -2.029066979885101318e-01 6.611421108245849609e-01
-9.725748561322689056e-03 3.913798034191131592e-01 -3.467518389225006104e-01
1.186321675777435303e-01 1.052344143390655518e-01 7.981522083282470703e-01
-4.945310950279235840e-01 -4.345873892307281494e-01 -2.602915465831756592e-01
-3.968277573585510254e-01 -1.843236386775970459e-01 6.747453212738037109e-01
5.088314414024353027e-01 -4.208740592002868652e-01 -9.835135936737060547e-02
5.140186548233032227e-01 -3.759501874446868896e-01 -2.454834729433059692e-01
4.188998043537139893e-01 -5.218883752822875977e-01 7.449930906295776367e-02
1.274287104606628418e-01 -4.728410542011260986e-01 6.371457576751708984e-01
2.835096418857574463e-01 -6.148978471755981445e-01 9.799566864967346191e-02
2.626743316650390625e-01 -2.209443897008895874e-01 7.561045885086059570e-01
-5.286329388618469238e-01 1.137054711580276489e-01 -1.674760580062866211e-01
3.300203382968902588e-01 3.480947315692901611e-01 -2.477072626352310181e-01
3.295476138591766357e-01 2.527723014354705811e-01 -4.631940424442291260e-01
1.826345920562744141e-01 3.592639267444610596e-01 4.744093716144561768e-01
-3.311018943786621094e-01 3.424595296382904053e-01 2.050535678863525391e-01
5.018258690834045410e-01 -3.976830542087554932e-01 2.184276580810546875e-01
-3.383906185626983643e-01 -2.403070926666259766e-01 -6.661330461502075195e-01
-1.746217012405395508e-01 -1.352207660675048828e-01 -7.851762771606445312e-01
-1.901691257953643799e-01 -6.731832027435302734e-01 1.212115287780761719e-01
-1.707764416933059692e-01 -4.698314368724822998e-01 6.476407051086425781e-01
-1.539263576269149780e-01 -6.639273166656494141e-01 2.320329099893569946e-01
-5.533629059791564941e-01 4.364395141601562500e-02 3.012153804302215576e-01
2.905425429344177246e-01 -5.078269839286804199e-01 -4.721461534500122070e-01
4.805952310562133789e-01 1.464498639106750488e-01 -3.827690482139587402e-01
-3.787659704685211182e-01 1.993095576763153076e-01 5.023586750030517578e-01
4.230211079120635986e-01 1.596805453300476074e-01 5.181235074996948242e-01
3.998021483421325684e-01 -3.143790960311889648e-01 5.644662380218505859e-01
-8.329189568758010864e-02 -5.547232031822204590e-01 -5.546433329582214355e-01
-3.032899796962738037e-01 -6.289248466491699219e-01 1.491897255182266235e-01
-6.090520024299621582e-01 -9.050308167934417725e-02 1.571200788021087646e-01
5.397962927818298340e-01 -3.759278059005737305e-01 5.030903220176696777e-02
2.596358656883239746e-01 -3.295766115188598633e-01 6.977038383483886719e-01
4.996698498725891113e-01 -3.262935876846313477e-01 3.655343949794769287e-01
-2.104496583342552185e-02 4.179051220417022705e-01 3.656466007232666016e-01
-4.714482724666595459e-01 1.945187151432037354e-01 -1.814434975385665894e-01
2.797358334064483643e-01 -4.440146088600158691e-01 5.653553605079650879e-01
3.207859992980957031e-01 -5.306624174118041992e-01 3.561162054538726807e-01
-5.528704524040222168e-01 -3.771063089370727539e-01 1.978046447038650513e-01
1.746337115764617920e-01 -5.606945753097534180e-01 -4.869620501995086670e-01
9.051726013422012329e-02 -6.595939397811889648e-01 -2.738618850708007812e-01
-4.715963602066040039e-01 -5.166619420051574707e-01 -2.355313487350940704e-02
-3.397656083106994629e-01 -3.756066858768463135e-01 6.309208273887634277e-01
4.016749188303947449e-02 -6.321299076080322266e-01 3.748209476470947266e-01
-1.002639383077621460e-01 -6.839790344238281250e-01 1.617405563592910767e-01
6.668923050165176392e-02 4.015465080738067627e-01 -3.206326663494110107e-01
-2.008947134017944336e-01 -4.854950010776519775e-01 -6.014277935028076172e-01
2.723768949508666992e-01 3.857866227626800537e-01 -2.120150923728942871e-01
-5.669803172349929810e-02 -4.523212909698486328e-01 6.945307850837707520e-01
1.008291766047477722e-01 2.118596136569976807e-01 -6.485420465469360352e-01
-3.252941966056823730e-01 3.564988374710083008e-01 6.949637830257415771e-02
-1.123772487044334412e-01 3.556964993476867676e-01 4.990475177764892578e-01
3.278001546859741211e-01 -4.078743159770965576e-01 -5.701249241828918457e-01
-4.052060842514038086e-01 -5.416873693466186523e-01 -2.422595471143722534e-01
2.792709767818450928e-01 -6.199405193328857422e-01 -9.972842037677764893e-02
-5.568099617958068848e-01 8.489616215229034424e-02 1.902679353952407837e-01
-1.076204888522624969e-02 1.060596108436584473e-01 -7.440125942230224609e-01
-3.387428224086761475e-01 -3.861411511898040771e-01 -5.895894765853881836e-01
3.437495231628417969e-01 -5.261528491973876953e-01 3.241439163684844971e-01
-5.237337350845336914e-01 -2.390264570713043213e-01 -3.971426188945770264e-01
-1.467603594064712524e-01 -3.105976581573486328e-01 -7.615818977355957031e-01
2.577876746654510498e-01 -2.860785126686096191e-01 -7.204418778419494629e-01
-5.198510289192199707e-01 1.668603122234344482e-01 2.536150440573692322e-02
-6.097885966300964355e-01 -2.451062202453613281e-01 2.980899065732955933e-02
1.037842780351638794e-01 4.288034737110137939e-01 3.118270039558410645e-01
-7.445217669010162354e-02 -6.914757490158081055e-01 1.181200146675109863e-01
4.658618867397308350e-01 1.717745661735534668e-01 -3.779111206531524658e-01
-4.630127549171447754e-01 -3.461475372314453125e-01 4.973379075527191162e-01
-4.642945900559425354e-02 -6.849321126937866211e-01 1.773324310779571533e-01
2.927038669586181641e-01 -3.440388292074203491e-02 7.572641968727111816e-01
-5.728264451026916504e-01 5.912683904170989990e-02 -4.561824351549148560e-02
-2.075299918651580811e-01 -6.600121259689331055e-01 -1.912335157394409180e-01
-7.050503790378570557e-02 8.816926181316375732e-02 8.176605105400085449e-01
-4.251566231250762939e-01 1.536791026592254639e-02 6.120997071266174316e-01
-7.435160130262374878e-02 -2.445420771837234497e-01 -8.043264150619506836e-01
5.793881416320800781e-01 -8.185408264398574829e-02 -2.996208965778350830e-01
-1.944802254438400269e-01 3.490843772888183594e-01 4.507827162742614746e-01
5.481954663991928101e-02 2.909586131572723389e-01 6.410695314407348633e-01
4.758784770965576172e-01 -2.002249062061309814e-01 5.243706703186035156e-01
-3.720889091491699219e-01 -3.268358111381530762e-02 6.952710151672363281e-01
-4.128735959529876709e-01 -1.618980318307876587e-01 -5.965110063552856445e-01
-1.471483409404754639e-01 2.378864288330078125e-01 6.724403500556945801e-01
1.113674268126487732e-01 -4.031441211700439453e-01 7.188416123390197754e-01
-3.060024678707122803e-01 -5.534973740577697754e-01 4.128633737564086914e-01
-1.905179023742675781e-01 -6.363534927368164062e-01 -3.163922429084777832e-01
-5.118405222892761230e-01 7.005442678928375244e-02 -3.061314821243286133e-01
7.696225494146347046e-02 4.009979069232940674e-01 4.196202456951141357e-01
-3.591695427894592285e-01 -3.561947345733642578e-01 -5.906935930252075195e-01
-4.047011435031890869e-01 -2.898929119110107422e-01 6.242250800132751465e-01
5.556346178054809570e-01 -3.479211330413818359e-01 4.368821531534194946e-02
-6.041636466979980469e-01 -5.806140974164009094e-02 1.617658138275146484e-01
-1.456569582223892212e-01 -5.982813239097595215e-01 4.467012882232666016e-01
1.269309520721435547e-01 -6.181100606918334961e-01 3.655517101287841797e-01
-3.015332818031311035e-01 -1.879872530698776245e-01 7.606759667396545410e-01
4.753432273864746094e-01 -4.186027050018310547e-01 -2.832075953483581543e-01
3.856912851333618164e-01 -3.262943625450134277e-01 5.729858279228210449e-01
-1.486148778349161148e-02 2.388441562652587891e-01 7.068797945976257324e-01
5.647044777870178223e-01 -3.117198050022125244e-01 1.353047192096710205e-01
-5.105287209153175354e-02 -3.958287537097930908e-01 -7.352223992347717285e-01
2.044123597443103790e-02 3.364588320255279541e-01 5.714781880378723145e-01
-5.053822994232177734e-01 1.608027219772338867e-01 -1.402181982994079590e-01
4.719847738742828369e-01 2.559997439384460449e-01 -1.718885153532028198e-01
2.257307171821594238e-01 -2.978417277336120605e-01 7.424142956733703613e-01
1.805836856365203857e-01 -6.422783434391021729e-02 -7.881286740303039551e-01
3.842052817344665527e-01 2.882329821586608887e-01 -3.159488737583160400e-01
-4.832964539527893066e-01 -4.720873534679412842e-01 2.348653227090835571e-01
1.152691543102264404e-01 -5.307364463806152344e-01 5.599562525749206543e-01
2.450496852397918701e-01 -6.090316772460937500e-01 -2.747854590415954590e-01
-5.817452073097229004e-01 -3.171096146106719971e-01 -1.179771348834037781e-01
-2.359917312860488892e-01 -6.599053144454956055e-01 -1.251979172229766846e-01
-5.966040492057800293e-01 -1.410818397998809814e-01 2.594687342643737793e-01
-1.243448853492736816e-01 3.901561796665191650e-01 -2.903230786323547363e-01
-4.460247978568077087e-02 2.060130238533020020e-01 7.370443940162658691e-01
-5.042273402214050293e-01 -4.487993419170379639e-01 -1.875034272670745850e-01
6.608462333679199219e-02 -5.081605911254882812e-01 6.132191419601440430e-01
-6.085162758827209473e-01 -1.235867887735366821e-01 -1.033421456813812256e-01
2.617809176445007324e-01 1.655890047550201416e-01 6.876720786094665527e-01
-4.016121383756399155e-03 -1.443463861942291260e-01 8.654331564903259277e-01
3.222959041595458984e-01 3.372417092323303223e-01 3.716754317283630371e-01
7.586991041898727417e-02 3.478748202323913574e-01 5.445458292961120605e-01
-4.708152413368225098e-01 1.941015124320983887e-01 2.939686179161071777e-01
1.725265681743621826e-01 1.546543836593627930e-02 -7.681643366813659668e-01
-2.918995916843414307e-01 -6.063790321350097656e-01 2.846969962120056152e-01
5.190492868423461914e-01 1.626141071319580078e-01 -2.564364373683929443e-01
-2.258903533220291138e-01 -6.694734096527099609e-01 2.433520182967185974e-02
1.303661465644836426e-01 -6.532700061798095703e-01 -2.624843418598175049e-01
-2.223077565431594849e-01 -1.554013788700103760e-01 8.143918514251708984e-01
3.956126794219017029e-02 9.282274544239044189e-02 -7.541775703430175781e-01
-1.306125372648239136e-01 -1.770156025886535645e-01 8.454149961471557617e-01
-5.227887630462646484e-01 -2.957165241241455078e-01 4.216678738594055176e-01
-1.417037378996610641e-02 -5.516210794448852539e-01 5.607717633247375488e-01
-2.198505252599716187e-01 4.067536294460296631e-01 -3.764205425977706909e-02
1.285978108644485474e-01 3.867870271205902100e-01 4.394493401050567627e-01
-4.159952402114868164e-01 -3.616777062416076660e-01 -5.151100754737854004e-01
1.530858874320983887e-01 2.498760223388671875e-01 6.666272878646850586e-01
5.394466519355773926e-01 -3.232581317424774170e-01 -2.566880285739898682e-01
-2.757218182086944580e-01 3.828599154949188232e-01 -9.033801034092903137e-03
-1.915087401866912842e-01 3.565243184566497803e-01 4.345898330211639404e-01
4.262512624263763428e-01 2.348959445953369141e-01 -3.504294753074645996e-01
3.732576966285705566e-01 -4.180093407630920410e-01 4.854811728000640869e-01
-5.043455362319946289e-01 1.897777318954467773e-01 5.460513383150100708e-02
-4.313406944274902344e-01 2.734736800193786621e-01 5.820398032665252686e-02
-4.458687305450439453e-01 -5.030314326286315918e-01 2.673261761665344238e-01
