-3.927962779998779297e-01 -5.485305190086364746e-02 -3.374625444412231445e-01
2.736575901508331299e-01 -1.686330586671829224e-01 -1.221782565116882324e-01
-3.364621847867965698e-02 1.699056178331375122e-01 -1.534081995487213135e-01
-5.658028721809387207e-01 -1.309543699026107788e-01 7.963553071022033691e-02
3.123190402984619141e-01 -1.736773252487182617e-01 9.173925966024398804e-02
5.910792350769042969e-01 -1.528823822736740112e-01 3.622030839323997498e-02
1.096131503582000732e-01 1.793225258588790894e-01 4.722508788108825684e-02
-5.523341894149780273e-01 1.365804374217987061e-01 1.758632361888885498e-01
-4.163691997528076172e-01 1.232106462121009827e-01 2.727127671241760254e-01
4.404544234275817871e-01 1.278914362192153931e-01 2.171322852373123169e-01
-6.210111975669860840e-01 -1.036215499043464661e-01 -1.448340117931365967e-01
4.543692767620086670e-01 1.396123319864273071e-01 1.620739400386810303e-01
-8.127487301826477051e-01 -6.501487642526626587e-02 1.065613999962806702e-01
5.591461062431335449e-02 1.803216040134429932e-01 5.924296379089355469e-02
6.335586309432983398e-01 1.105958744883537292e-01 -1.577032655477523804e-01
-5.243192315101623535e-01 -9.502638131380081177e-02 2.653414607048034668e-01
-2.305027395486831665e-01 1.659601777791976929e-01 -1.546861380338668823e-01
8.027074337005615234e-01 3.652044385671615601e-02 2.098385542631149292e-01
3.878517448902130127e-02 1.796502023935317993e-01 7.556779682636260986e-02
-5.434249043464660645e-01 1.105653420090675354e-01 2.584217190742492676e-01
-4.747727513313293457e-01 -1.695434749126434326e-02 3.708762228488922119e-01
2.231470793485641479e-01 -1.747144758701324463e-01 -8.846852928400039673e-02
2.349985688924789429e-01 -5.392101034522056580e-02 4.039422869682312012e-01
-2.372676879167556763e-01 -1.026553213596343994e-01 -3.063015937805175781e-01
-2.626069188117980957e-01 -1.406943500041961670e-01 2.366186082363128662e-01
-2.145951688289642334e-01 -2.279018610715866089e-02 4.176491200923919678e-01
-7.587921619415283203e-02 1.829603314399719238e-01 -1.982013508677482605e-02
1.778269559144973755e-01 -8.570315688848495483e-02 -3.567303121089935303e-01
4.725521206855773926e-01 8.134777098894119263e-02 3.129248619079589844e-01
-6.425539255142211914e-01 -8.798940479755401611e-02 2.150984853506088257e-01
3.213419616222381592e-01 1.529583781957626343e-01 1.668682098388671875e-01
-3.837544322013854980e-01 -1.495796740055084229e-01 -1.009498015046119690e-01
-6.763846278190612793e-01 -1.062638312578201294e-01 -6.788593530654907227e-02
-7.191483378410339355e-01 1.154648065567016602e-01 1.284229010343551636e-01
-7.401459813117980957e-01 -8.773459494113922119e-02 1.178724318742752075e-01
7.096153497695922852e-02 -1.815640926361083984e-01 -1.021748594939708710e-02
-5.562115311622619629e-01 1.339242309331893921e-01 -1.632518917322158813e-01
-4.728609025478363037e-01 1.487566977739334106e-01 1.668030619621276855e-01
4.346503615379333496e-01 -3.275912627577781677e-02 -3.664142787456512451e-01
-2.799516022205352783e-01 -1.014633998274803162e-01 -2.995475530624389648e-01
2.863454818725585938e-01 -1.479222923517227173e-01 -2.152882218360900879e-01
6.122422814369201660e-01 -1.502162367105484009e-01 -9.053543210029602051e-03
3.542078435420989990e-01 -1.229467540979385376e-01 -2.726808190345764160e-01
1.257742643356323242e-01 -2.598536573350429535e-02 -4.057896435260772705e-01
1.577648073434829712e-01 -1.741399317979812622e-01 -1.043515056371688843e-01
-7.023455202579498291e-02 1.795759201049804688e-01 -7.965171337127685547e-02
-5.917814970016479492e-01 1.268236488103866577e-01 -1.671952605247497559e-01
-1.702468991279602051e-01 -1.305948644876480103e-01 2.885611951351165771e-01
-2.784458547830581665e-02 -1.794198006391525269e-01 -2.756235376000404358e-02
-1.964395195245742798e-01 -1.029377281665802002e-01 -3.131464421749114990e-01
6.593455672264099121e-01 6.312034279108047485e-02 2.634113729000091553e-01
-6.784805059432983398e-01 -7.854662090539932251e-02 2.134687155485153198e-01
-5.445126816630363464e-02 1.649165749549865723e-01 1.902613937854766846e-01
9.542438983917236328e-01 -4.010460153222084045e-02 -1.582371070981025696e-03
-6.115162968635559082e-01 1.460900902748107910e-01 4.467082396149635315e-02
-3.583580255508422852e-01 -7.218582928180694580e-02 3.574691414833068848e-01
5.420929938554763794e-02 -1.725053638219833374e-01 -1.178790479898452759e-01
2.543596625328063965e-01 -1.793249100446701050e-01 1.970867812633514404e-02
1.424526423215866089e-01 1.379740685224533081e-01 -2.613629698753356934e-01
-2.629736065864562988e-01 -1.662798374891281128e-01 8.439917862415313721e-02
-1.826925203204154968e-03 1.520975232124328613e-01 -2.298992723226547241e-01
2.386359572410583496e-01 -1.277628988027572632e-01 -2.787540256977081299e-01
-6.173246502876281738e-01 2.154682204127311707e-02 -2.982168197631835938e-01
6.038888096809387207e-01 -1.338987350463867188e-01 -1.502909809350967407e-01
-3.372235298156738281e-01 4.661773890256881714e-02 -3.691561818122863770e-01
5.477827787399291992e-01 1.355862170457839966e-01 -1.055805757641792297e-01
-5.334762334823608398e-01 1.089802160859107971e-01 -2.436621785163879395e-01
1.708566844463348389e-01 -1.696594953536987305e-01 1.625501811504364014e-01
-8.506540060043334961e-01 -1.400623936206102371e-02 1.729360520839691162e-01
1.890033483505249023e-02 1.140206381678581238e-01 3.371089100837707520e-01
-6.488651037216186523e-02 1.642836630344390869e-01 1.932829469442367554e-01
-6.881099343299865723e-01 1.334015280008316040e-01 2.749332692474126816e-03
-6.312942504882812500e-02 7.755421102046966553e-02 -3.745014071464538574e-01
2.069304585456848145e-01 1.663267463445663452e-01 -1.305513232946395874e-01
3.188596963882446289e-01 1.543129533529281616e-01 -1.552270054817199707e-01
-1.810503751039505005e-02 -7.337618619203567505e-02 3.979521393775939941e-01
6.136612892150878906e-01 1.111188381910324097e-01 -1.712459474802017212e-01
1.282079219818115234e-01 -1.555772572755813599e-01 2.321749329566955566e-01
3.212048411369323730e-01 -1.505403220653533936e-01 2.240410298109054565e-01
-2.878957986831665039e-01 8.732867240905761719e-02 3.620410859584808350e-01
2.550672888755798340e-01 -9.230355918407440186e-02 3.640132844448089600e-01
9.162169098854064941e-01 -3.634183667600154877e-04 1.314640045166015625e-01
7.674281299114227295e-02 1.133522987365722656e-01 3.351001739501953125e-01
-6.082733869552612305e-01 6.362748891115188599e-02 3.057478964328765869e-01
-1.395365297794342041e-01 7.333743572235107422e-02 -3.746359050273895264e-01
-8.139944076538085938e-01 2.544221095740795135e-02 -1.847137808799743652e-01
-3.967111408710479736e-01 1.516513377428054810e-01 1.880401372909545898e-01
-5.219223499298095703e-01 1.392751783132553101e-01 -1.622983217239379883e-01
4.373746514320373535e-01 -1.649806350469589233e-01 -7.341858744621276855e-02
-8.551507592201232910e-01 8.102121204137802124e-02 7.205797731876373291e-02
-7.845357656478881836e-01 7.144354283809661865e-02 1.946276277303695679e-01
5.327398777008056641e-01 1.449341177940368652e-01 -7.301062345504760742e-03
-1.286172866821289062e-01 -1.251294165849685669e-01 3.082886338233947754e-01
-6.996954083442687988e-01 4.763494059443473816e-02 2.779773175716400146e-01
-6.577079892158508301e-01 6.759809702634811401e-02 2.797639966011047363e-01
-8.950634002685546875e-01 -2.731846645474433899e-02 7.302181422710418701e-02
-5.089526772499084473e-01 1.268501300364732742e-02 3.652872145175933838e-01
-4.096604883670806885e-01 -1.502634733915328979e-01 1.079761832952499390e-01
6.396837532520294189e-02 1.397015005350112915e-01 2.751428782939910889e-01
9.056855738162994385e-02 -1.105399355292320251e-01 -3.220314681529998779e-01
8.641489744186401367e-01 -8.054925501346588135e-02 1.107861027121543884e-01
3.887069225311279297e-01 -1.248223260045051575e-01 -2.610944509506225586e-01
-3.430219590663909912e-01 -1.599418669939041138e-01 7.674963772296905518e-02
-2.881169617176055908e-01 1.231951862573623657e-01 3.010344803333282471e-01
3.375523686408996582e-01 1.703868038021028042e-03 4.049584567546844482e-01
4.142031371593475342e-01 -1.708063632249832153e-01 -3.131065517663955688e-03
2.752070128917694092e-01 1.696399450302124023e-01 -5.804397910833358765e-02
2.914020419120788574e-01 1.401608139276504517e-01 -2.244179844856262207e-01
-4.839370846748352051e-01 -1.455731093883514404e-01 3.220910578966140747e-02
-1.521886289119720459e-01 -1.342113763093948364e-01 2.818627357482910156e-01
2.204979956150054932e-01 6.322235614061355591e-02 3.899243175983428955e-01
3.930158913135528564e-01 -3.003858402371406555e-02 3.917371928691864014e-01
-3.993487954139709473e-01 -7.849644124507904053e-02 3.389534652233123779e-01
-2.612029910087585449e-01 -4.183446243405342102e-02 -3.752861320972442627e-01
-5.915465354919433594e-01 1.486725062131881714e-01 -3.219187632203102112e-02
-6.098417639732360840e-01 1.376244872808456421e-01 -1.054637655615806580e-01
2.483589351177215576e-01 1.731621921062469482e-01 -1.920342817902565002e-02
-5.142677426338195801e-01 1.591876596212387085e-01 4.228481650352478027e-02
2.732757478952407837e-02 1.559413522481918335e-01 2.248753309249877930e-01
2.655892372131347656e-01 -8.864405751228332520e-02 3.674527108669281006e-01
-4.570497572422027588e-01 -6.941957026720046997e-02 -3.020630776882171631e-01
-6.472640037536621094e-01 1.914884895086288452e-02 3.154589235782623291e-01
7.913514971733093262e-01 -9.295824915170669556e-02 1.606073826551437378e-01
9.247008562088012695e-01 -6.721119396388530731e-03 -1.159594506025314331e-01
2.075003832578659058e-01 1.266039069741964340e-02 4.207516610622406006e-01
-5.364179611206054688e-01 -1.307807266712188721e-01 1.251219213008880615e-01
-6.173117756843566895e-01 6.771998852491378784e-02 -2.715558707714080811e-01
-3.923924565315246582e-01 1.538629084825515747e-01 -1.626857221126556396e-01
7.197324037551879883e-01 -1.320174783468246460e-01 -1.954479515552520752e-02
2.110680788755416870e-01 -7.700670510530471802e-02 -3.647111356258392334e-01
5.677724480628967285e-01 3.847088292241096497e-02 -3.217785656452178955e-01
-8.543207049369812012e-01 6.468018144369125366e-02 1.326954364776611328e-01
-5.312590673565864563e-02 -1.795043200254440308e-01 -2.939842641353607178e-03
2.351231724023818970e-01 -1.788951009511947632e-01 5.886907503008842468e-02
-1.307618021965026855e-01 -9.757705777883529663e-02 -3.315254151821136475e-01
-2.623576223850250244e-01 1.539417952299118042e-01 -2.015758901834487915e-01
5.916272997856140137e-01 -1.531857997179031372e-01 1.269162632524967194e-03
4.916673302650451660e-01 1.488842666149139404e-01 -5.049372091889381409e-02
-6.254108548164367676e-01 -1.226495876908302307e-01 1.821744255721569061e-02
-1.142251342535018921e-01 1.541886180639266968e-01 2.333687990903854370e-01
-5.644780397415161133e-01 1.512597352266311646e-01 7.057599723339080811e-02
-1.705553084611892700e-01 -1.481654196977615356e-01 2.337345331907272339e-01
-3.047792911529541016e-01 5.151247978210449219e-02 -3.720110356807708740e-01
1.927756704390048981e-03 -1.139231175184249878e-01 -3.139639496803283691e-01
-4.024755656719207764e-01 -7.230927795171737671e-02 -3.147620856761932373e-01
3.907674252986907959e-01 -1.670698672533035278e-01 -8.635734021663665771e-02
7.295186519622802734e-01 -1.243217661976814270e-01 9.772075712680816650e-02
3.026920855045318604e-01 1.268243193626403809e-01 -2.610780298709869385e-01
-1.992610543966293335e-01 1.705691069364547729e-01 1.476697474718093872e-01
6.182360053062438965e-01 6.351596862077713013e-02 2.829801738262176514e-01
5.791568160057067871e-01 -7.444662600755691528e-02 3.115317523479461670e-01
3.784593194723129272e-03 1.026040017604827881e-01 3.574078083038330078e-01
1.070138812065124512e-01 -5.689714103937149048e-02 -3.888500928878784180e-01
-7.294760942459106445e-01 3.137915581464767456e-02 2.714192271232604980e-01
5.160650610923767090e-01 1.441604942083358765e-01 -7.027997821569442749e-02
9.326678514480590820e-01 2.918691188097000122e-02 3.990399837493896484e-02
-2.892140150070190430e-01 1.720559149980545044e-01 1.096270084381103516e-01
-9.914049506187438965e-02 -7.295267283916473389e-02 3.944668173789978027e-01
6.901147365570068359e-01 8.414424210786819458e-02 2.029612511396408081e-01
1.991670578718185425e-01 1.860053092241287231e-02 4.200154244899749756e-01
-1.821801215410232544e-01 6.382969766855239868e-02 3.987440466880798340e-01
-3.340528607368469238e-01 -1.061157360672950745e-01 -2.767319381237030029e-01
-7.088000178337097168e-01 1.110803112387657166e-01 1.575883477926254272e-01
4.325079917907714844e-01 1.572372764348983765e-01 2.347410097718238831e-02
2.919179499149322510e-01 1.231575459241867065e-01 2.809612751007080078e-01
3.663118183612823486e-01 -1.716149896383285522e-01 8.014491945505142212e-02
-2.783830463886260986e-01 6.205818150192499161e-03 4.138698279857635498e-01
1.214925646781921387e-01 -8.505134284496307373e-02 3.840050697326660156e-01
-2.736317813396453857e-01 -1.228892281651496887e-01 2.867561578750610352e-01
4.774558842182159424e-01 -1.423346400260925293e-01 2.039709091186523438e-01
1.149667650461196899e-01 1.797124743461608887e-01 -2.404093742370605469e-02
7.257296442985534668e-01 9.893736988306045532e-02 1.181108877062797546e-01
-8.987042307853698730e-01 -1.597950421273708344e-02 -6.056046485900878906e-02
6.180669069290161133e-01 1.198875084519386292e-01 1.319624781608581543e-01
4.692730009555816650e-01 1.507687270641326904e-01 -6.367878615856170654e-02
-1.486236751079559326e-01 5.480550974607467651e-02 4.083332717418670654e-01
-7.316365242004394531e-01 -9.485889226198196411e-02 8.611349016427993774e-02
4.818816184997558594e-01 7.277793437242507935e-02 3.225267827510833740e-01
2.550236582756042480e-01 -1.766736954450607300e-01 -5.680780112743377686e-02
4.520582258701324463e-01 1.508688032627105713e-01 8.913122117519378662e-02
8.873176574707031250e-01 -4.365830123424530029e-02 -1.462807506322860718e-01
1.787150055170059204e-01 1.105302348732948303e-01 3.296853303909301758e-01
-7.899902462959289551e-01 -7.806104421615600586e-02 7.771001011133193970e-02
4.871587455272674561e-01 4.104775935411453247e-02 -3.445179760456085205e-01
-3.916517496109008789e-01 -9.099635481834411621e-02 3.217450380325317383e-01
5.848032236099243164e-01 -8.613070845603942871e-02 2.944640815258026123e-01
8.650507926940917969e-01 4.973832145333290100e-02 1.204314231872558594e-01
1.048170402646064758e-02 -1.512576341629028320e-01 2.473246902227401733e-01
-2.134761214256286621e-01 -1.565549671649932861e-01 -1.514258980751037598e-01
-5.150294899940490723e-01 -1.384379863739013672e-01 8.651529252529144287e-02
4.265496730804443359e-01 -9.628146886825561523e-02 -3.082176148891448975e-01
2.494439184665679932e-01 1.085682660341262817e-01 -3.124456405639648438e-01
2.349569499492645264e-01 8.568828552961349487e-02 -3.505873084068298340e-01
7.425013780593872070e-01 9.050404280424118042e-02 -1.333094537258148193e-01
1.770862936973571777e-01 -1.742974221706390381e-01 -1.007769033312797546e-01
-6.688484549522399902e-02 -1.786804795265197754e-01 -1.708287931978702545e-02
5.541601181030273438e-01 -5.690287332981824875e-03 3.540247380733489990e-01
-5.589013695716857910e-01 -6.295169889926910400e-02 -2.728273868560791016e-01
-6.298553943634033203e-01 -1.205975487828254700e-01 6.031746044754981995e-02
-6.726850271224975586e-01 4.645302891731262207e-02 -2.638981640338897705e-01
7.596871852874755859e-01 2.447430044412612915e-02 -2.452539801597595215e-01
1.030858159065246582e-01 1.205898746848106384e-01 -3.071229755878448486e-01
-3.730123937129974365e-01 9.178298711776733398e-02 3.412684500217437744e-01
-3.746790587902069092e-01 -1.539473235607147217e-01 -7.334864139556884766e-02
9.096325039863586426e-01 -4.426601901650428772e-02 -1.173732876777648926e-01
-4.818287491798400879e-01 1.626600474119186401e-01 4.357441514730453491e-02
-4.095233380794525146e-01 -1.510377675294876099e-01 -6.373165547847747803e-02
4.377397298812866211e-01 8.393626660108566284e-03 3.836349248886108398e-01
8.602818846702575684e-02 1.042710840702056885e-01 3.505834043025970459e-01
-4.157126545906066895e-01 -1.450343877077102661e-01 1.430888175964355469e-01
-8.078934550285339355e-01 9.598723053932189941e-02 9.562050551176071167e-02
-6.586834788322448730e-01 -1.158931627869606018e-01 1.487855426967144012e-02
-1.524682790040969849e-01 -4.838026314973831177e-02 4.111079871654510498e-01
-7.273897528648376465e-01 -9.790214896202087402e-02 6.661377102136611938e-02
2.787018716335296631e-01 -1.145172342658042908e-01 3.256635069847106934e-01
2.112651467323303223e-01 -1.143669486045837402e-01 -3.096475005149841309e-01
4.868379831314086914e-01 1.082420125603675842e-01 -2.483746111392974854e-01
1.486594378948211670e-01 -1.632537841796875000e-01 1.986489593982696533e-01
-7.747233510017395020e-01 1.073462441563606262e-01 -6.509066373109817505e-02
2.829412221908569336e-01 4.017272964119911194e-02 -3.859867155551910400e-01
-2.513593733310699463e-01 -1.519487649202346802e-01 1.944331228733062744e-01
4.842001199722290039e-02 -1.661126166582107544e-01 1.864378899335861206e-01
4.366034865379333496e-01 1.520302146673202515e-01 -9.135208278894424438e-02
3.691312968730926514e-01 1.506574004888534546e-01 1.549650877714157104e-01
9.200513362884521484e-01 4.075446724891662598e-02 -2.855730243027210236e-03
1.855845302343368530e-01 -1.241012215614318848e-01 3.170981407165527344e-01
3.618753552436828613e-01 -1.412583589553833008e-01 2.456279695034027100e-01
4.092214107513427734e-01 -9.375067800283432007e-02 -3.158243298530578613e-01
4.263767898082733154e-01 1.348725855350494385e-01 -1.932031363248825073e-01
7.086927294731140137e-01 -1.337401717901229858e-01 4.566889628767967224e-02
-6.787612438201904297e-01 9.672793000936508179e-02 2.207677066326141357e-01
-8.944497108459472656e-01 -9.825098328292369843e-03 -8.031456917524337769e-02
-7.748101651668548584e-02 -1.694317609071731567e-01 1.504515409469604492e-01
-7.920996546745300293e-01 1.458161044865846634e-02 2.355829626321792603e-01
-5.007036328315734863e-01 1.367213577032089233e-01 -1.830358058214187622e-01
2.191105335950851440e-01 1.676382683217525482e-02 4.184564650058746338e-01
5.800132751464843750e-01 8.964543789625167847e-02 -2.494826614856719971e-01
-5.571934580802917480e-01 1.046220138669013977e-01 2.654815912246704102e-01
-2.251128405332565308e-01 1.207457631826400757e-01 -2.986161708831787109e-01
-6.360259056091308594e-01 6.833107769489288330e-02 2.889337539672851562e-01
-5.695774555206298828e-01 1.296609789133071899e-01 1.923200339078903198e-01
-3.746908903121948242e-01 1.015092656016349792e-01 -3.059565722942352295e-01
2.480428814888000488e-01 -1.532811671495437622e-01 2.283111065626144409e-01
2.787058651447296143e-01 -1.769079416990280151e-01 6.758729368448257446e-02
5.240879207849502563e-02 -7.483103126287460327e-02 -3.726368546485900879e-01
-5.910540819168090820e-01 1.496227681636810303e-01 3.242651373147964478e-02
3.625636398792266846e-01 -1.718132644891738892e-01 -5.493740737438201904e-02
1.549821048974990845e-01 -6.929776072502136230e-02 3.986680507659912109e-01
-6.858412921428680420e-02 -1.768138706684112549e-01 8.453846722841262817e-02
5.167639255523681641e-01 4.379125684499740601e-02 3.434743583202362061e-01
5.453648567199707031e-01 -1.385034024715423584e-01 -1.656170338392257690e-01
1.754662990570068359e-01 7.330644875764846802e-02 3.848842084407806396e-01
-3.179562687873840332e-01 3.746275976300239563e-02 -3.769046366214752197e-01
2.749670147895812988e-01 8.999096602201461792e-02 -3.386883437633514404e-01
-4.199674129486083984e-01 -1.456958502531051636e-01 -9.854575991630554199e-02
4.567388594150543213e-01 -1.580155640840530396e-01 -1.155117303133010864e-01
5.230971574783325195e-01 -1.000682786107063293e-01 2.945229709148406982e-01
-5.572152137756347656e-01 -1.292517483234405518e-01 -7.301893085241317749e-02
4.480218589305877686e-01 1.416102796792984009e-01 -1.516543775796890259e-01
1.936598308384418488e-02 7.097057253122329712e-02 -3.819656968116760254e-01
-2.722499072551727295e-01 1.755313128232955933e-01 8.246477693319320679e-02
-2.213463187217712402e-01 1.783236563205718994e-01 -5.968585610389709473e-02
-6.186107993125915527e-01 9.300965815782546997e-02 2.607847154140472412e-01
-8.712836503982543945e-01 6.354673206806182861e-02 -7.765156775712966919e-02
-5.838780999183654785e-01 1.300820708274841309e-01 1.821321099996566772e-01
-7.238000035285949707e-01 -1.006890609860420227e-01 1.572829112410545349e-02
-4.775624349713325500e-02 1.766657531261444092e-01 -1.077129766345024109e-01
-9.156234264373779297e-01 -1.578403054736554623e-03 7.807951420545578003e-02
-8.126357197761535645e-02 -1.480066180229187012e-01 2.500398755073547363e-01
5.156543254852294922e-01 1.464524120092391968e-01 -3.694272786378860474e-02
-7.207629680633544922e-01 1.089245378971099854e-01 -1.290008723735809326e-01
-1.992074549198150635e-01 1.304446607828140259e-01 -2.808892428874969482e-01
8.773814141750335693e-02 1.006687358021736145e-01 -3.436062633991241455e-01
-4.193050265312194824e-01 -1.328682899475097656e-01 2.025831490755081177e-01
2.783873081207275391e-01 -1.168011054396629333e-01 -2.978571951389312744e-01
6.277126818895339966e-02 -5.744804441928863525e-02 4.121904075145721436e-01
-3.994928896427154541e-01 -2.873222529888153076e-02 -3.557824492454528809e-01
2.893894910812377930e-03 1.447887569665908813e-01 2.643477022647857666e-01
-3.590931892395019531e-01 1.552960574626922607e-01 -1.689642518758773804e-01
1.635148078203201294e-01 -4.255343228578567505e-02 -3.963504135608673096e-01
-2.268779650330543518e-02 1.335334032773971558e-01 2.960865199565887451e-01
-8.857350945472717285e-01 -1.036359928548336029e-02 -9.481319785118103027e-02
9.454903006553649902e-02 -1.719197630882263184e-01 1.532274484634399414e-01
-6.354278922080993652e-01 1.368072628974914551e-01 1.041165739297866821e-01
4.339920580387115479e-01 -1.186947599053382874e-01 -2.643371224403381348e-01
-7.488615512847900391e-01 -9.393240511417388916e-02 1.360022462904453278e-02
-4.054214060306549072e-01 -1.065332442522048950e-01 2.870391011238098145e-01
-8.849837779998779297e-01 -3.154209628701210022e-02 -4.999929293990135193e-02
-2.008398622274398804e-01 3.481886908411979675e-02 -3.943441510200500488e-01
-4.424011111259460449e-01 1.669900119304656982e-01 2.721171826124191284e-02
2.047745138406753540e-02 -1.594023406505584717e-01 -1.861833035945892334e-01
-2.856734693050384521e-01 9.984327107667922974e-02 3.446829319000244141e-01
5.045996904373168945e-01 1.124846413731575012e-01 2.350601851940155029e-01
8.041417598724365234e-01 -1.854865252971649170e-02 2.387923300266265869e-01
-6.111139431595802307e-03 1.778339967131614685e-02 -4.109986126422882080e-01
6.941987872123718262e-01 9.596520662307739258e-02 1.641489863395690918e-01
-8.215076327323913574e-01 5.367823690176010132e-02 1.885772794485092163e-01
4.139257967472076416e-01 -1.705513149499893188e-01 3.938864916563034058e-02
8.036645650863647461e-01 -1.040156111121177673e-01 1.054243892431259155e-01
5.715740919113159180e-01 -6.967448443174362183e-02 3.193824887275695801e-01
7.782686948776245117e-01 1.897741481661796570e-02 2.444753199815750122e-01
3.039446175098419189e-01 8.638506382703781128e-02 -3.387565314769744873e-01
1.324653923511505127e-01 1.654796153306961060e-01 -1.577839106321334839e-01
-3.634035289287567139e-01 -1.492224782705307007e-01 -1.180802583694458008e-01
-6.767383813858032227e-01 -8.089450001716613770e-02 -1.722739189863204956e-01
6.862995624542236328e-01 1.177813336253166199e-01 3.479463607072830200e-02
-4.062840044498443604e-01 1.677105128765106201e-01 -5.860140174627304077e-02
8.153737187385559082e-01 -1.095238476991653442e-01 3.027876466512680054e-02
-3.203474879264831543e-01 -1.261583715677261353e-01 -2.313440740108489990e-01
3.268114626407623291e-01 1.187626346945762634e-01 -2.750711143016815186e-01
4.904905259609222412e-01 1.364671289920806885e-01 1.536805778741836548e-01
-8.721204996109008789e-01 6.997539848089218140e-02 -5.387856066226959229e-02
-2.034623324871063232e-01 1.618333905935287476e-01 1.937462389469146729e-01
-6.531807184219360352e-01 2.869287133216857910e-02 3.104275465011596680e-01
-1.009969711303710938e-01 -1.116143614053726196e-01 -3.102536499500274658e-01
-1.346472278237342834e-02 -1.642878949642181396e-01 -1.599673330783843994e-01
-8.911234140396118164e-01 4.604424163699150085e-02 1.116258054971694946e-01
4.658269584178924561e-01 -1.666506975889205933e-01 2.866763807833194733e-02
-5.458020046353340149e-02 1.395983844995498657e-01 2.805655896663665771e-01
-8.252874016761779785e-02 -1.755113750696182251e-01 -6.219289451837539673e-02
1.424652636051177979e-01 -1.024882867932319641e-01 -3.345305621623992920e-01
-6.467235088348388672e-01 -1.041440367698669434e-01 -1.185578554868698120e-01
-3.812607824802398682e-01 1.068949028849601746e-01 -2.955045402050018311e-01
-5.013918876647949219e-01 -4.823198914527893066e-02 3.435438275337219238e-01
-7.185493707656860352e-01 -2.415598928928375244e-02 -2.352489978075027466e-01
2.085036486387252808e-01 1.141648963093757629e-01 -3.081399500370025635e-01
5.198255181312561035e-03 1.799354702234268188e-01 -7.064730674028396606e-02
-5.917391180992126465e-01 8.126141875982284546e-02 -2.663924992084503174e-01
-5.585340857505798340e-01 1.476614922285079956e-01 1.116036698222160339e-01
-9.177201390266418457e-01 -1.239534467458724976e-02 3.538765013217926025e-03
5.260818004608154297e-01 -1.589032262563705444e-01 6.963372230529785156e-02
-8.327133655548095703e-01 -6.229405105113983154e-02 -3.601602837443351746e-02
-3.338989615440368652e-01 1.752016842365264893e-01 -8.926110342144966125e-03
-8.013399839401245117e-01 -7.624158263206481934e-02 -1.777684874832630157e-02
-2.922303676605224609e-01 -1.647400259971618652e-01 -3.678062930703163147e-02
-5.873262286186218262e-01 -6.984118372201919556e-02 -2.494456171989440918e-01
-6.583878397941589355e-01 1.187742128968238831e-01 1.721022129058837891e-01
8.302513957023620605e-01 2.566670626401901245e-02 2.002906203269958496e-01
-7.080108523368835449e-01 4.104835167527198792e-02 2.781290411949157715e-01
-2.921292781829833984e-01 1.371540576219558716e-01 2.657777070999145508e-01
-2.250444442033767700e-01 5.944268777966499329e-02 3.984229266643524170e-01
5.439673066139221191e-01 -1.470699906349182129e-01 1.474475264549255371e-01
2.720696628093719482e-01 -1.731180846691131592e-01 -8.842133730649948120e-02
-3.113991022109985352e-01 1.640282124280929565e-01 1.571493446826934814e-01
-4.158822000026702881e-01 1.037883609533309937e-01 3.126861155033111572e-01
1.149016022682189941e-01 1.676875501871109009e-01 1.570527106523513794e-01
8.336997628211975098e-01 7.817938923835754395e-02 3.815521299839019775e-02
-4.451156854629516602e-01 -1.231598407030105591e-01 -1.898948550224304199e-01
-9.896418079733848572e-03 -1.358566731214523315e-01 2.927610278129577637e-01
-2.105746418237686157e-01 1.708426922559738159e-01 1.435651183128356934e-01
6.660493463277816772e-02 1.782499551773071289e-01 8.486436307430267334e-02
-6.592137813568115234e-01 1.355789303779602051e-01 -5.609329789876937866e-02
5.006489753723144531e-01 3.084535710513591766e-03 3.687441945075988770e-01
1.360593289136886597e-01 1.124451234936714172e-01 3.313345313072204590e-01
-4.751798883080482483e-02 -1.473332941532135010e-01 2.561874389648437500e-01
5.066387653350830078e-01 1.313084214925765991e-01 -1.633902043104171753e-01
3.170178532600402832e-01 -2.508343383669853210e-02 -3.894232213497161865e-01
2.603250145912170410e-01 8.404380083084106445e-02 -3.491072058677673340e-01
-1.936005428433418274e-02 1.501327846199274063e-03 4.327371716499328613e-01
-5.489057898521423340e-01 1.493896842002868652e-01 1.083388254046440125e-01
-4.861496686935424805e-01 -1.077029481530189514e-01 2.521210014820098877e-01
5.306199789047241211e-01 -1.351290941238403320e-01 -1.855896115303039551e-01
-6.453214883804321289e-01 7.784096151590347290e-02 2.724896669387817383e-01
6.585838794708251953e-01 -7.390082627534866333e-02 -2.653809189796447754e-01
-8.580483496189117432e-02 1.748064160346984863e-01 -1.213832497596740723e-01
1.829154193401336670e-01 1.538426280021667480e-01 -2.014142721891403198e-01
2.908327281475067139e-01 -1.220225691795349121e-01 3.088948428630828857e-01
7.354661226272583008e-01 9.762464463710784912e-02 -1.093720197677612305e-01
-2.059683054685592651e-01 -1.231685876846313477e-01 3.007141649723052979e-01
5.585935115814208984e-01 -1.368510872125625610e-01 1.854427903890609741e-01
-5.449803471565246582e-01 -5.588587746024131775e-02 -2.876571118831634521e-01
-4.717228934168815613e-02 -1.237119063735008240e-01 -2.903641462326049805e-01
1.568669378757476807e-01 -1.306554824113845825e-01 -2.782162725925445557e-01
-6.598345637321472168e-01 -1.070837453007698059e-01 -8.768948167562484741e-02
-2.477862685918807983e-01 -1.051525250077247620e-01 3.307286798954010010e-01
3.253971040248870850e-01 -4.239571094512939453e-02 -3.807092308998107910e-01
4.622474610805511475e-01 -1.671203672885894775e-01 1.490752212703227997e-02
6.716940999031066895e-01 -5.480137094855308533e-02 2.935824096202850342e-01
3.490670025348663330e-01 -1.747414916753768921e-01 3.940825164318084717e-02
3.516373336315155029e-01 -4.335827007889747620e-02 -3.762612938880920410e-01
-3.081736862659454346e-01 1.205184459686279297e-01 3.033894300460815430e-01
5.463470816612243652e-01 -1.573934406042098999e-01 5.792757496237754822e-02
-6.958654522895812988e-01 1.293213814496994019e-01 6.915993988513946533e-02
4.264478981494903564e-01 5.208954215049743652e-02 -3.513070940971374512e-01
-1.092871278524398804e-01 -1.727940738201141357e-01 1.133195757865905762e-01
1.105088293552398682e-01 1.222299635410308838e-01 3.140629529953002930e-01
-3.092908859252929688e-01 -9.986630082130432129e-02 3.274696469306945801e-01
-3.260445892810821533e-01 1.573168039321899414e-01 -1.710090041160583496e-01
-4.337448999285697937e-02 -9.074509888887405396e-02 3.766687512397766113e-01
-4.424495249986648560e-02 1.564440280199050903e-01 -2.149536013603210449e-01
7.632420659065246582e-01 -1.210231930017471313e-01 -4.498031735420227051e-02
8.289475440979003906e-01 -9.900254756212234497e-02 -7.588668167591094971e-02
5.843029618263244629e-01 1.052157431840896606e-01 2.138787508010864258e-01
-2.205133810639381409e-02 -1.680671125650405884e-01 -1.379314363002777100e-01
-6.082948446273803711e-01 1.464920192956924438e-01 -2.564671635627746582e-02
-4.641152620315551758e-01 1.525362879037857056e-01 1.522410511970520020e-01
-8.409759402275085449e-01 -5.522367358207702637e-02 -5.661296099424362183e-02
7.920206189155578613e-01 -8.835878223180770874e-02 -1.586664021015167236e-01
1.825583428144454956e-01 -1.167072169482707977e-02 4.247319996356964111e-01
-7.110583782196044922e-01 5.005089566111564636e-02 2.699937522411346436e-01
4.232171773910522461e-01 1.171491891145706177e-01 2.563783526420593262e-01
3.972331285476684570e-01 -1.281872093677520752e-01 -2.507693767547607422e-01
-4.336473643779754639e-01 1.282309293746948242e-01 2.548287212848663330e-01
9.200241565704345703e-01 1.473538950085639954e-02 1.106435284018516541e-01
-1.636672466993331909e-01 6.805742532014846802e-02 3.963529169559478760e-01
7.516900449991226196e-02 1.291577517986297607e-01 3.015692532062530518e-01
-6.532722711563110352e-01 6.080732122063636780e-02 -2.620123326778411865e-01
3.141517043113708496e-01 1.070390194654464722e-01 3.115996718406677246e-01
6.419895887374877930e-01 5.130543187260627747e-02 2.879558205604553223e-01
-6.961674094200134277e-01 -6.941346824169158936e-02 -1.853057891130447388e-01
-8.714425563812255859e-02 -1.705549806356430054e-01 -1.070633158087730408e-01
3.335030972957611084e-01 1.398627907037734985e-01 2.185102403163909912e-01
5.276538133621215820e-01 1.330957561731338501e-01 1.431109160184860229e-01
1.909372508525848389e-01 -1.285603940486907959e-01 3.067914247512817383e-01
-7.540907859802246094e-01 1.184666976332664490e-01 -2.520065754652023315e-03
1.291045695543289185e-01 1.792362034320831299e-01 -2.211543172597885132e-02
2.570359706878662109e-01 -1.096780747175216675e-01 3.373039364814758301e-01
-3.217633366584777832e-01 -1.272254064679145813e-02 4.055014550685882568e-01
8.844186663627624512e-01 5.781929567456245422e-02 3.882131725549697876e-02
3.863066136837005615e-01 1.600227952003479004e-01 -6.179399043321609497e-02
7.594207525253295898e-01 8.159439265727996826e-02 -1.476282477378845215e-01
-8.308156132698059082e-01 -1.794855110347270966e-02 -1.549251973628997803e-01
-1.752864271402359009e-01 -1.397810131311416626e-01 -2.290972322225570679e-01
-1.852330863475799561e-01 -9.984360635280609131e-02 3.502157926559448242e-01
-4.312209784984588623e-01 1.600926816463470459e-01 -1.081661134958267212e-01
-3.140265047550201416e-01 1.264323592185974121e-01 -2.715337574481964111e-01
6.171886920928955078e-01 1.662973687052726746e-02 -3.166535496711730957e-01
-5.251430869102478027e-01 -1.387055963277816772e-01 -2.270127087831497192e-02
1.730476617813110352e-01 1.751448959112167358e-01 7.281691581010818481e-02
5.414927601814270020e-01 -1.523653566837310791e-01 1.160485222935676575e-01
8.483767509460449219e-02 1.149391308426856995e-01 -3.195641338825225830e-01
-4.077202677726745605e-01 1.058635711669921875e-01 -2.906688451766967773e-01
5.828039646148681641e-01 -4.919939488172531128e-02 -3.182721436023712158e-01
-8.638536334037780762e-01 6.614619493484497070e-02 1.140392795205116272e-01
5.184564590454101562e-01 -1.617372781038284302e-01 2.057353965938091278e-02
7.099262475967407227e-01 3.457320481538772583e-02 2.718021571636199951e-01
2.433991879224777222e-01 -1.382824480533599854e-01 -2.512969970703125000e-01
8.077564835548400879e-01 -1.092838048934936523e-01 6.264555454254150391e-02
-2.884226441383361816e-01 1.477943956851959229e-01 -2.178870141506195068e-01
7.976394891738891602e-01 -5.472906678915023804e-02 2.231217324733734131e-01
-5.727549195289611816e-01 1.525184363126754761e-01 1.404376886785030365e-02
-4.924666881561279297e-01 9.791986644268035889e-02 -2.789505422115325928e-01
8.548552989959716797e-01 7.008552551269531250e-02 -3.954185545444488525e-02
-1.423063725233078003e-01 -8.173724263906478882e-02 3.809541463851928711e-01
-8.060330152511596680e-01 1.011313572525978088e-01 6.449831277132034302e-02
-4.568240046501159668e-01 -1.395095884799957275e-01 1.450363695621490479e-01
3.902021795511245728e-03 1.685040295124053955e-01 1.693732738494873047e-01
3.159986063838005066e-02 -1.115327477455139160e-01 3.467198312282562256e-01
1.165043115615844727e-01 -1.418019682168960571e-01 -2.500721812248229980e-01
-3.441002219915390015e-02 -1.801847815513610840e-01 2.557587251067161560e-02
-4.287657737731933594e-01 8.812652528285980225e-02 3.338294029235839844e-01
-5.732818245887756348e-01 1.470035761594772339e-01 -8.040205389261245728e-02
3.842827975749969482e-01 1.593194901943206787e-01 -7.329037785530090332e-02
4.987463951110839844e-01 -1.615748852491378784e-01 -4.934993758797645569e-02
7.131955027580261230e-01 -1.222632601857185364e-01 1.298728883266448975e-01
1.548422425985336304e-01 1.110568791627883911e-01 3.317855596542358398e-01
5.404254198074340820e-01 -1.078841388225555420e-01 -2.552042603492736816e-01
-5.205392837524414062e-01 -6.998507678508758545e-02 3.118271231651306152e-01
4.021749794483184814e-01 7.422694563865661621e-02 3.434524834156036377e-01
3.741395175457000732e-01 3.333990648388862610e-02 -3.749424815177917480e-01
2.231700867414474487e-01 -8.205283433198928833e-02 3.801157474517822266e-01
-5.559925436973571777e-01 -6.850170344114303589e-02 2.998293042182922363e-01
-4.497629702091217041e-01 -1.136888843029737473e-02 -3.506506383419036865e-01
6.021845936775207520e-01 -4.652595147490501404e-02 -3.135873973369598389e-01
6.917631626129150391e-01 -1.268495321273803711e-01 1.292898356914520264e-01
4.833765029907226562e-01 -1.354400813579559326e-01 -2.040625363588333130e-01
6.160687208175659180e-01 -1.486541777849197388e-01 5.383826047182083130e-02
-4.732027649879455566e-01 -5.446160584688186646e-02 -3.148211836814880371e-01
-7.882829010486602783e-02 2.096750400960445404e-02 4.284732043743133545e-01
2.130025774240493774e-01 7.831120491027832031e-02 3.745533227920532227e-01
1.889765113592147827e-01 2.355166152119636536e-02 4.193541407585144043e-01
-3.407852947711944580e-01 -1.389578580856323242e-01 -1.803329885005950928e-01
6.873125433921813965e-01 1.049562469124794006e-01 1.342954039573669434e-01
-5.812214016914367676e-01 -1.048555597662925720e-01 -1.708474755287170410e-01
-1.470041573047637939e-01 1.780699342489242554e-01 -8.669263869524002075e-02
-4.964444041252136230e-01 -6.199133349582552910e-04 -3.401185870170593262e-01
8.504843711853027344e-01 -7.087791711091995239e-02 -1.425943076610565186e-01
2.190713286399841309e-01 -6.733194738626480103e-02 -3.739396035671234131e-01
1.629578620195388794e-01 -1.526524871587753296e-01 -2.130738645792007446e-01
-4.499988853931427002e-01 8.645758032798767090e-02 -3.084412813186645508e-01
7.523372173309326172e-01 8.732753247022628784e-02 -1.347367018461227417e-01
2.882770076394081116e-02 5.295789241790771484e-02 -3.963280618190765381e-01
-4.647395610809326172e-01 1.622165441513061523e-01 -6.055827438831329346e-02
-4.513904079794883728e-02 3.430026769638061523e-02 4.244361519813537598e-01
-5.084872841835021973e-01 1.167993545532226562e-01 -2.364912033081054688e-01
7.974897027015686035e-01 9.094133228063583374e-02 1.470822002738714218e-02
1.507085263729095459e-01 1.654916554689407349e-01 -1.533637195825576782e-01
-1.125875264406204224e-01 8.489128947257995605e-02 -3.642345964908599854e-01
-1.541223675012588501e-01 5.595076084136962891e-02 -3.876734375953674316e-01
-6.488749384880065918e-01 -9.616704285144805908e-02 1.854219138622283936e-01
-9.151123166084289551e-01 4.452416300773620605e-02 -1.482477411627769470e-02
8.483015894889831543e-01 -9.971345216035842896e-02 1.746376417577266693e-02
3.682629466056823730e-01 8.613521605730056763e-02 3.351351320743560791e-01
7.801918387413024902e-01 9.074308723211288452e-02 7.882316410541534424e-02
7.947844266891479492e-01 8.330096304416656494e-02 -9.487325698137283325e-02
-3.323341608047485352e-01 -1.472016721963882446e-01 1.826398670673370361e-01
4.405378699302673340e-01 -2.195831201970577240e-02 -3.688175678253173828e-01
-6.304585933685302734e-02 -1.741595864295959473e-01 -8.404675126075744629e-02
6.196758747100830078e-01 -1.047720685601234436e-01 -2.297960072755813599e-01
9.532040953636169434e-01 -2.065433189272880554e-02 -5.806697905063629150e-02
-6.664606332778930664e-01 1.189808845520019531e-01 1.648998409509658813e-01
3.521165847778320312e-01 4.826692119240760803e-02 -3.697591125965118408e-01
1.249993294477462769e-01 -1.731186658143997192e-01 -1.143635064363479614e-01
3.628619760274887085e-02 1.245334967970848083e-01 3.148943185806274414e-01
-8.887267708778381348e-01 -2.774965949356555939e-02 8.995375782251358032e-02
-7.587848305702209473e-01 -7.795250415802001953e-02 -9.897984564304351807e-02
-2.467263191938400269e-01 1.571197360754013062e-01 -1.923183351755142212e-01
-3.457793965935707092e-02 -1.399306207895278931e-01 2.800136804580688477e-01
-5.611491203308105469e-01 4.044882208108901978e-02 3.406115174293518066e-01
7.207700014114379883e-01 -1.291677355766296387e-01 -5.633340030908584595e-02
-8.155918717384338379e-01 -6.839935481548309326e-02 8.030930906534194946e-02
-1.078477948904037476e-01 1.715308576822280884e-01 1.531875133514404297e-01
-3.134754672646522522e-02 -1.483650654554367065e-01 2.542587518692016602e-01
4.730255901813507080e-02 3.579344600439071655e-02 -4.055282473564147949e-01
-1.413378715515136719e-01 1.297367811203002930e-01 -2.882062494754791260e-01
-7.874628305435180664e-01 -5.882104486227035522e-02 1.644897907972335815e-01
-3.635161519050598145e-01 -6.381190568208694458e-02 3.657759428024291992e-01
7.123816609382629395e-01 6.308793276548385620e-02 -2.277740538120269775e-01
6.479181051254272461e-01 6.139448657631874084e-02 2.718358933925628662e-01
3.065494447946548462e-02 -1.784604191780090332e-01 9.297262132167816162e-02
-1.372263133525848389e-01 -1.228368058800697327e-01 -2.818552851676940918e-01
-5.613384842872619629e-01 -1.266891658306121826e-01 -8.705774694681167603e-02
6.467117667198181152e-01 -9.599307924509048462e-02 2.515587508678436279e-01
4.413366019725799561e-01 1.556466817855834961e-01 -3.736707568168640137e-02
-7.091312408447265625e-01 1.212133914232254028e-01 1.102742329239845276e-01
3.853145241737365723e-01 -7.160218805074691772e-02 -3.481647968292236328e-01
-2.839219272136688232e-01 1.296853274106979370e-01 2.866955995559692383e-01
-5.368470028042793274e-02 -4.746864363551139832e-02 -3.934462368488311768e-01
3.372476994991302490e-01 8.703541755676269531e-02 -3.314065933227539062e-01
6.509916186332702637e-01 9.471352398395538330e-02 2.018067389726638794e-01
-9.276278018951416016e-01 5.871384870260953903e-03 2.564507536590099335e-03
1.240406036376953125e-01 1.774697154760360718e-01 -6.312848627567291260e-02
8.114915490150451660e-01 -8.224592357873916626e-02 -1.559425145387649536e-01
3.205998539924621582e-01 1.647201627492904663e-01 -7.711355388164520264e-02
1.062131822109222412e-01 1.110824719071388245e-01 3.369183540344238281e-01
-2.622110247611999512e-01 -7.094616536051034927e-03 -3.902547657489776611e-01
5.361447334289550781e-01 3.207463771104812622e-02 -3.362502455711364746e-01
4.588485956192016602e-01 1.512679308652877808e-01 -7.285773009061813354e-02
-5.302605032920837402e-01 4.997385293245315552e-02 -3.188696503639221191e-01
-1.140547692775726318e-01 -1.456549018621444702e-01 2.532754540443420410e-01
2.918516397476196289e-01 1.346160471439361572e-01 -2.419493198394775391e-01
-1.684926077723503113e-02 1.473877280950546265e-01 2.570562362670898438e-01
3.462979793548583984e-01 -1.260623484849929810e-01 -2.669343352317810059e-01
-4.057980775833129883e-01 1.623242050409317017e-01 -1.086130738258361816e-01
-3.640854954719543457e-01 1.300483196973800659e-01 -2.512720227241516113e-01
-3.873668015003204346e-01 1.616350263357162476e-01 -1.235840022563934326e-01
2.119168341159820557e-01 -1.551425755023956299e-01 2.264980375766754150e-01
6.853765994310379028e-02 1.362061798572540283e-01 -2.735669016838073730e-01
-5.049235820770263672e-01 6.718908995389938354e-02 -3.135801255702972412e-01
4.305570386350154877e-03 -8.357477933168411255e-02 3.872671723365783691e-01
2.836459875106811523e-01 2.368111722171306610e-02 -3.933412730693817139e-01
7.740013301372528076e-02 -1.678980588912963867e-01 1.775637865066528320e-01
-8.205674886703491211e-01 -5.969572067260742188e-02 1.155854612588882446e-01
2.916519939899444580e-01 1.631524413824081421e-01 1.182880625128746033e-01
3.244262039661407471e-01 -8.627796918153762817e-02 -3.411075472831726074e-01
-6.428486704826354980e-01 1.100557148456573486e-01 2.100428640842437744e-01
6.368847489356994629e-01 -6.575094908475875854e-02 2.986207008361816406e-01
-1.686799228191375732e-01 5.266270786523818970e-02 4.084767103195190430e-01
6.308837532997131348e-01 -3.489325568079948425e-02 3.225333690643310547e-01
-3.377833664417266846e-01 -8.082026243209838867e-02 3.510187268257141113e-01
6.162004470825195312e-01 -1.491174753755331039e-02 -3.211823105812072754e-01
-1.720916777849197388e-01 1.776923686265945435e-01 9.687118977308273315e-02
4.745211601257324219e-01 1.449354290962219238e-01 1.154492050409317017e-01
-3.072913587093353271e-01 -1.297231912612915039e-01 -2.249593585729598999e-01
-4.173763692378997803e-01 -1.540135443210601807e-01 2.428179606795310974e-02
-3.580363094806671143e-01 -1.598868221044540405e-01 -1.180156320333480835e-02
-7.608529329299926758e-01 -8.853573352098464966e-02 6.609602272510528564e-02
3.573596477508544922e-01 -8.101621270179748535e-02 3.624699413776397705e-01
2.946435809135437012e-01 6.478291004896163940e-02 3.772134780883789062e-01
7.324568033218383789e-01 1.081451326608657837e-01 1.660503819584846497e-02
-7.307519018650054932e-02 -1.412024199962615967e-01 2.727173864841461182e-01
8.605949282646179199e-01 -8.838979154825210571e-02 -7.199594378471374512e-02
4.848093986511230469e-01 6.603216379880905151e-02 3.304219841957092285e-01
-6.133342161774635315e-02 -1.261191517114639282e-01 -2.835337221622467041e-01
-6.316353082656860352e-01 -9.826726466417312622e-02 -1.554035544395446777e-01
-4.546985030174255371e-01 1.233967393636703491e-01 -2.405947744846343994e-01
9.325662255287170410e-01 -4.176983609795570374e-03 -1.022507622838020325e-01
-3.452616930007934570e-01 8.478346467018127441e-02 3.559409379959106445e-01
-4.952026009559631348e-01 8.378161489963531494e-02 -2.984438240528106689e-01
5.124037265777587891e-01 4.874141514301300049e-02 -3.312470316886901855e-01
-6.689471006393432617e-01 3.812894225120544434e-02 2.991907000541687012e-01
7.696095108985900879e-01 -1.115678176283836365e-01 -1.006148830056190491e-01
-2.547786831855773926e-01 1.726190000772476196e-01 1.184561178088188171e-01
3.765917420387268066e-01 -1.734860539436340332e-01 1.464658230543136597e-02
2.848859131336212158e-01 -1.028871983289718628e-01 -3.222693800926208496e-01
-2.197345793247222900e-01 2.762661688029766083e-02 4.168495833873748779e-01
-1.532268971204757690e-01 -1.736963391304016113e-01 -4.367914423346519470e-02
6.873671412467956543e-01 9.182128310203552246e-02 1.835422962903976440e-01
7.005380392074584961e-01 -1.902989111840724945e-02 -2.865311801433563232e-01
-4.237740039825439453e-01 1.596296727657318115e-01 1.332072317600250244e-01
2.047622799873352051e-01 2.273688837885856628e-02 -4.022600352764129639e-01
-8.685498237609863281e-01 5.730076134204864502e-02 1.278546750545501709e-01
-2.396633476018905640e-01 1.486615985631942749e-01 -2.246691584587097168e-01
-2.781475484371185303e-01 1.700422763824462891e-01 1.300257295370101929e-01
-5.622134804725646973e-01 1.272758692502975464e-01 2.046053707599639893e-01
-2.789569497108459473e-01 -6.898307800292968750e-02 -3.476648330688476562e-01
3.187972307205200195e-02 8.306353539228439331e-02 3.839017152786254883e-01
-1.505666673183441162e-01 1.544868946075439453e-01 -2.167510539293289185e-01
-1.425301283597946167e-02 1.755578815937042236e-01 1.249023824930191040e-01
-4.245886206626892090e-01 7.426594197750091553e-02 3.518089652061462402e-01
-2.488845437765121460e-01 -4.537786915898323059e-02 4.021610319614410400e-01
8.336682915687561035e-01 -9.596864879131317139e-02 9.689957648515701294e-02
-5.264919996261596680e-01 -1.395334303379058838e-01 1.012695673853158951e-02
-6.110246777534484863e-01 1.437170505523681641e-01 7.923893630504608154e-02
-5.193507671356201172e-01 1.589787602424621582e-01 3.114801086485385895e-02
-3.988393247127532959e-01 -1.160747334361076355e-01 -2.317921817302703857e-01
-1.922578215599060059e-01 1.497853249311447144e-01 -2.281988114118576050e-01
-2.411290854215621948e-01 1.797574162483215332e-01 -1.108565554022789001e-02
6.129701808094978333e-02 1.763806641101837158e-01 -9.765945374965667725e-02
-8.875514864921569824e-01 2.949005179107189178e-02 1.366491466760635376e-01
-6.185514926910400391e-01 -5.662042275071144104e-02 2.881993055343627930e-01
-2.510736286640167236e-01 -1.695504635572433472e-01 1.506646163761615753e-02
-6.736731529235839844e-01 9.392542392015457153e-02 2.298833578824996948e-01
8.601122498512268066e-01 4.303126409649848938e-02 1.437565535306930542e-01
-5.358893871307373047e-01 -2.310367487370967865e-02 3.498958945274353027e-01
-4.778618514537811279e-01 1.595957577228546143e-01 -7.413762807846069336e-02
-2.619580626487731934e-01 -1.505057215690612793e-01 1.972387880086898804e-01
1.308568865060806274e-01 1.342473328113555908e-01 -2.728312909603118896e-01
-2.314220815896987915e-01 -1.430688202381134033e-01 2.371670305728912354e-01
-5.948881506919860840e-01 -9.612589329481124878e-02 -1.884149760007858276e-01
-8.510856628417968750e-01 4.103386774659156799e-02 1.728770583868026733e-01
1.111072450876235962e-01 9.576145559549331665e-02 3.620617687702178955e-01
-1.037057340145111084e-01 5.671432614326477051e-02 4.092458188533782959e-01
-3.544019460678100586e-01 -1.455884724855422974e-01 1.794077157974243164e-01
-5.169600844383239746e-01 4.394176229834556580e-02 3.526232242584228516e-01
3.383304476737976074e-01 1.655104756355285645e-01 -4.414008930325508118e-02
1.451131403446197510e-01 -1.170894131064414978e-01 3.340601921081542969e-01
