-2.771662473678588867e-01 -1.574775874614715576e-01 1.729528233408927917e-02
-2.865767776966094971e-01 -3.298889100551605225e-02 -1.439058482646942139e-01
-1.379635417833924294e-03 4.029239714145660400e-01 1.787788867950439453e-01
-8.053480833768844604e-02 1.278745234012603760e-01 -4.929990470409393311e-01
2.298611700534820557e-01 -2.303694486618041992e-01 1.268141418695449829e-01
1.866402477025985718e-02 -1.153963804244995117e-01 -5.289049148559570312e-01
-1.533218920230865479e-01 -2.403178960084915161e-01 -3.767926692962646484e-01
-8.493151515722274780e-02 -4.092186689376831055e-01 1.192124746739864349e-02
-3.014260204508900642e-03 1.675562709569931030e-01 -4.870781898498535156e-01
2.445138543844223022e-01 -1.644650846719741821e-01 1.973589062690734863e-01
2.684387266635894775e-01 1.210026293992996216e-01 1.384910643100738525e-01
-5.242942273616790771e-02 1.366266906261444092e-01 -4.994986355304718018e-01
-4.200959205627441406e-02 -4.796747118234634399e-03 -5.431202650070190430e-01
1.435519307851791382e-01 2.975406348705291748e-01 3.078723251819610596e-01
-2.913720607757568359e-01 -7.098922878503799438e-02 5.328516662120819092e-02
-1.616614907979965210e-01 1.316604465246200562e-01 4.435696601867675781e-01
-2.651095390319824219e-01 -4.015680775046348572e-02 -2.515317499637603760e-01
4.253538697957992554e-02 -4.029814898967742920e-01 1.340233236551284790e-01
-1.967355906963348389e-01 3.085177838802337646e-01 -4.007491283118724823e-03
2.607224583625793457e-01 -2.238676697015762329e-02 2.478075772523880005e-01
1.922126859426498413e-01 2.868969440460205078e-01 1.926406025886535645e-01
-1.215739324688911438e-01 3.764910995960235596e-01 -3.514627367258071899e-02
2.003649771213531494e-01 -2.601186633110046387e-01 -1.834551692008972168e-01
-1.192795112729072571e-01 -3.258264660835266113e-01 -3.022887408733367920e-01
-2.592147886753082275e-01 -7.919488847255706787e-02 -2.617917358875274658e-01
2.154508680105209351e-01 2.636232674121856689e-01 -6.594527512788772583e-02
4.286839812994003296e-02 -4.109185934066772461e-01 8.635466545820236206e-02
2.433000504970550537e-01 -2.171792984008789062e-01 1.958886533975601196e-02
2.208516001701354980e-01 1.986255943775177002e-01 2.687841057777404785e-01
2.793033421039581299e-01 -4.165429249405860901e-02 -7.786504924297332764e-02
-9.352787584066390991e-02 -4.062335491180419922e-01 -2.146361954510211945e-02
-6.032240390777587891e-02 -1.383547186851501465e-01 -5.170487761497497559e-01
4.443527758121490479e-02 1.938548237085342407e-01 5.088549256324768066e-01
2.138866186141967773e-01 2.588421404361724854e-01 1.716912984848022461e-01
-8.120226860046386719e-02 -2.424555271863937378e-01 -4.431761801242828369e-01
-1.149995326995849609e-01 -1.146860197186470032e-01 4.942435026168823242e-01
-1.862573921680450439e-01 1.304322332143783569e-01 4.059420228004455566e-01
4.247520118951797485e-02 -1.535542309284210205e-01 -5.069441795349121094e-01
1.763634681701660156e-01 -3.045231997966766357e-01 1.658371388912200928e-01
1.694054603576660156e-01 -1.515886373817920685e-02 -4.254428148269653320e-01
-1.707016676664352417e-01 -3.043681979179382324e-01 -2.496215105056762695e-01
1.690146476030349731e-01 2.897020876407623291e-01 -1.899865567684173584e-01
-3.156507760286331177e-02 -8.482386916875839233e-02 5.493285059928894043e-01
1.132916510105133057e-01 -1.485437601804733276e-01 4.784607291221618652e-01
2.678166329860687256e-01 1.199835315346717834e-01 -8.042916655540466309e-02
2.029884010553359985e-01 2.645967304706573486e-01 -1.333125531673431396e-01
-2.719239890575408936e-01 -1.495134383440017700e-01 -1.343547850847244263e-01
2.061254531145095825e-02 -2.060956954956054688e-01 4.857574105262756348e-01
-1.456392854452133179e-01 -3.389756381511688232e-01 -2.263077348470687866e-01
1.217337846755981445e-01 -3.359406292438507080e-01 -2.352218478918075562e-01
5.775472521781921387e-02 2.679836452007293701e-01 -3.785632550716400146e-01
-2.939581274986267090e-01 1.176611240953207016e-02 6.088260561227798462e-02
-4.462493956089019775e-02 1.645697504281997681e-01 -4.850521981716156006e-01
-1.711176335811614990e-01 3.311408162117004395e-01 -7.092639058828353882e-02
-1.877236664295196533e-01 -2.792734503746032715e-01 2.275617569684982300e-01
-2.803615331649780273e-01 8.542237337678670883e-04 1.782947480678558350e-01
-2.429760992527008057e-01 -1.515971571207046509e-01 2.496030926704406738e-01
-2.100027650594711304e-01 -1.650055795907974243e-01 -3.455618619918823242e-01
2.747693061828613281e-01 8.640960603952407837e-02 -7.220155745744705200e-02
5.953474342823028564e-02 3.110262155532836914e-01 3.837669193744659424e-01
1.173534765839576721e-01 -3.728949427604675293e-01 1.082988753914833069e-01
2.495123296976089478e-01 1.681917756795883179e-01 1.895444840192794800e-01
2.389496192336082458e-02 -2.201758027076721191e-01 4.735266864299774170e-01
1.054364889860153198e-01 -3.749453276395797729e-02 5.278385281562805176e-01
2.459581941366195679e-01 -1.712104976177215576e-01 -1.492418497800827026e-01
-6.208072602748870850e-02 3.233840167522430420e-01 3.587493002414703369e-01
-1.885646134614944458e-01 2.864926457405090332e-01 -1.693606674671173096e-01
1.804121136665344238e-01 -3.130220770835876465e-01 -1.065578907728195190e-01
-1.308114379644393921e-01 -2.141139507293701172e-01 -4.280630946159362793e-01
1.177078038454055786e-01 3.453197181224822998e-01 -1.724679321050643921e-01
2.780539393424987793e-01 -9.400600939989089966e-02 1.423801761120557785e-02
1.160490810871124268e-01 -1.988465040922164917e-01 -4.273778498172760010e-01
-2.591988444328308105e-02 1.954795420169830322e-01 -4.665287137031555176e-01
1.248161047697067261e-01 -3.704552650451660156e-01 -9.758164733648300171e-02
2.167106121778488159e-01 -2.349668890237808228e-01 -1.703322827816009521e-01
-3.063918091356754303e-02 2.960175871849060059e-01 4.149457812309265137e-01
-1.962482482194900513e-01 1.519433259963989258e-01 -3.524134755134582520e-01
2.640992403030395508e-01 6.284929066896438599e-02 -1.659407168626785278e-01
-2.460443973541259766e-01 -2.435266971588134766e-01 -4.831509292125701904e-02
-2.633554637432098389e-01 7.211782783269882202e-02 2.361205816268920898e-01
1.408567428588867188e-01 3.220469951629638672e-01 -1.843396276235580444e-01
2.288397401571273804e-01 2.254029363393783569e-01 1.837034225463867188e-01
-4.539519548416137695e-02 -1.046807467937469482e-01 -5.322003960609436035e-01
-1.950974166393280029e-01 -2.631488740444183350e-01 -2.662944793701171875e-01
-2.216447442770004272e-01 1.455944031476974487e-01 -3.026869595050811768e-01
7.277053594589233398e-02 -3.238843977451324463e-01 -3.297075927257537842e-01
-2.403267771005630493e-01 2.230110168457031250e-01 1.297796368598937988e-01
-2.851259708404541016e-01 -9.889909997582435608e-03 -1.559923142194747925e-01
2.653522193431854248e-01 1.247863546013832092e-01 -9.225755929946899414e-02
-1.491800546646118164e-01 1.275139153003692627e-01 -4.385269582271575928e-01
-4.173933714628219604e-02 -2.940409071743488312e-02 5.593825578689575195e-01
-4.084099829196929932e-02 -3.947315812110900879e-01 -2.097340822219848633e-01
-2.847070991992950439e-02 -2.897702455520629883e-01 -4.133368730545043945e-01
8.217130601406097412e-02 -3.447105586528778076e-01 -2.802685201168060303e-01
-1.530239284038543701e-01 -3.271049559116363525e-01 -2.397219836711883545e-01
1.800923496484756470e-01 -2.035685926675796509e-01 3.429114818572998047e-01
-2.628146708011627197e-01 -1.770900934934616089e-01 1.204593405127525330e-01
4.503663629293441772e-02 1.736939996480941772e-01 5.209121108055114746e-01
9.363618493080139160e-02 -2.948443889617919922e-01 -3.524887263774871826e-01
-1.405701190233230591e-01 2.470028102397918701e-01 -3.418630063533782959e-01
-1.322403252124786377e-01 -1.361625194549560547e-01 4.674457311630249023e-01
2.756703086197376251e-02 -4.141371846199035645e-01 -1.103459298610687256e-01
-2.502550780773162842e-01 1.155735254287719727e-01 -2.455680370330810547e-01
1.994372606277465820e-01 2.865297198295593262e-01 -7.713276147842407227e-02
-1.583213955163955688e-01 -3.271966278553009033e-01 1.947242915630340576e-01
-2.445133477449417114e-01 4.932400211691856384e-02 3.096109926700592041e-01
4.983574897050857544e-02 -1.840495914220809937e-01 -4.878079593181610107e-01
-2.134151570498943329e-02 -2.197685241699218750e-01 4.745621681213378906e-01
-1.974466592073440552e-01 1.360122952610254288e-02 4.195759594440460205e-01
2.841260135173797607e-01 -1.905964314937591553e-02 7.794746011495590210e-02
2.801865935325622559e-01 2.059348113834857941e-02 1.337504833936691284e-01
-1.453825235366821289e-01 2.732259929180145264e-01 -2.971394062042236328e-01
-1.942080706357955933e-01 2.247608304023742676e-01 -2.758525907993316650e-01
2.074651718139648438e-01 1.662196666002273560e-01 3.431888222694396973e-01
9.832761250436306000e-03 1.707109063863754272e-01 5.286847949028015137e-01
-1.726329177618026733e-01 -9.968610107898712158e-02 4.356523454189300537e-01
-1.509823501110076904e-01 -2.170052975416183472e-01 3.844501376152038574e-01
-2.775862514972686768e-01 1.163973063230514526e-01 -9.936951845884323120e-02
1.494824513792991638e-02 2.498404867947101593e-02 -5.402749180793762207e-01
2.019925713539123535e-01 2.769241333007812500e-01 1.773195117712020874e-01
-2.762821018695831299e-01 -1.283747255802154541e-01 1.172629892826080322e-01
1.774013638496398926e-01 -2.733072042465209961e-01 -2.338343411684036255e-01
-1.844219416379928589e-01 2.079738080501556396e-01 -3.188343942165374756e-01
-1.852162331342697144e-01 -1.874784380197525024e-01 -3.759457468986511230e-01
2.340330630540847778e-01 1.577709168195724487e-01 -2.068789899349212646e-01
-1.824893057346343994e-01 -3.009033799171447754e-01 1.941155493259429932e-01
-2.717093229293823242e-01 1.141698583960533142e-01 1.575087457895278931e-01
-1.432841271162033081e-01 8.953224122524261475e-02 4.831927418708801270e-01
8.472421020269393921e-02 -2.835815846920013428e-01 3.750438094139099121e-01
2.520030736923217773e-01 -6.061572209000587463e-02 2.682505846023559570e-01
2.269816584885120392e-02 -2.024722844362258911e-01 -4.865493774414062500e-01
3.807102143764495850e-02 3.928819000720977783e-01 2.073055654764175415e-01
-9.801408648490905762e-02 -3.974334299564361572e-01 -1.139952018857002258e-01
2.639667503535747528e-02 -4.210138618946075439e-01 -2.072375826537609100e-02
1.450251191854476929e-01 -2.477101087570190430e-01 3.513311743736267090e-01
1.297804266214370728e-01 1.306681931018829346e-01 4.879472553730010986e-01
4.826139658689498901e-02 -6.051198765635490417e-02 -5.313557982444763184e-01
-1.112862899899482727e-01 3.858002424240112305e-01 2.411566302180290222e-02
-8.419769257307052612e-02 -1.908432990312576294e-01 4.724080860614776611e-01
1.172142326831817627e-01 3.800586760044097900e-01 6.565275043249130249e-02
-6.128975749015808105e-02 -1.968999803066253662e-01 -4.868245124816894531e-01
-9.675535559654235840e-02 7.392431050539016724e-02 -5.068683028221130371e-01
2.720519602298736572e-01 5.447462573647499084e-02 1.835122257471084595e-01
1.947293989360332489e-02 -5.675901658833026886e-03 -5.424479246139526367e-01
2.424052953720092773e-01 -1.978773027658462524e-01 1.384180486202239990e-01
-2.779958844184875488e-01 -1.430758927017450333e-02 -1.974190026521682739e-01
-2.286409735679626465e-01 4.760026931762695312e-02 3.519136905670166016e-01
-2.462102770805358887e-01 2.089730799198150635e-01 1.315946131944656372e-01
1.817269176244735718e-01 3.223818838596343994e-01 2.247562259435653687e-02
2.291095554828643799e-01 2.421816140413284302e-01 -4.773582518100738525e-02
-5.392216891050338745e-02 -2.476381659507751465e-01 -4.507123529911041260e-01
-2.045066952705383301e-01 1.672332882881164551e-01 3.443627953529357910e-01
2.816968262195587158e-01 -6.573559343814849854e-02 4.616733640432357788e-02
2.149304896593093872e-01 2.754587829113006592e-01 1.426874287426471710e-02
2.489436119794845581e-01 9.533934295177459717e-03 2.963132858276367188e-01
1.324590891599655151e-01 -2.937701046466827393e-01 -2.992345392704010010e-01
-2.402027547359466553e-01 -1.437427699565887451e-01 -2.847321331501007080e-01
-2.249479740858078003e-01 2.589055597782135010e-01 1.063070222735404968e-01
-2.801205515861511230e-01 5.952272936701774597e-02 -1.575060933828353882e-01
2.512317895889282227e-01 -9.920881688594818115e-02 2.456460297107696533e-01
2.181248068809509277e-01 -1.556664854288101196e-01 -2.767996788024902344e-01
-2.923191189765930176e-01 3.511737287044525146e-02 -7.043973356485366821e-02
-2.866396307945251465e-01 9.192322194576263428e-02 -4.315292090177536011e-02
8.872435241937637329e-02 -3.996718823909759521e-01 1.363248564302921295e-03
1.985251903533935547e-01 -2.248092740774154663e-01 -2.540983259677886963e-01
-1.210266873240470886e-01 -3.536559343338012695e-01 2.062168717384338379e-01
4.921802878379821777e-02 -1.647105216979980469e-01 -4.986655414104461670e-01
5.765595287084579468e-02 3.273931741714477539e-01 -2.898876070976257324e-01
-2.767530083656311035e-02 -3.607066273689270020e-01 -3.033361434936523438e-01
-2.117405086755752563e-01 -4.901889339089393616e-02 3.865098059177398682e-01
-2.440434247255325317e-01 1.940172761678695679e-01 1.818612664937973022e-01
-1.438293308019638062e-01 -2.042571604251861572e-01 4.059724807739257812e-01
1.215938031673431396e-01 1.794210821390151978e-01 4.694950580596923828e-01
-1.004769876599311829e-01 -7.500626891851425171e-02 5.202593207359313965e-01
2.311956733465194702e-01 -2.075425237417221069e-01 -1.589113324880599976e-01
-2.557327747344970703e-01 -2.183173000812530518e-01 4.417814314365386963e-02
-2.433166950941085815e-01 -2.320732027292251587e-01 1.078922525048255920e-01
-1.384208053350448608e-01 2.691183090209960938e-01 3.554762303829193115e-01
-2.169848531484603882e-01 -2.961487472057342529e-01 3.782885149121284485e-03
-2.676680386066436768e-01 -1.892703473567962646e-01 1.874118857085704803e-02
-2.156964093446731567e-01 1.160670146346092224e-01 3.553000390529632568e-01
-2.870732843875885010e-01 -1.304284483194351196e-02 -1.424459517002105713e-01
-9.926932305097579956e-02 1.112878248095512390e-01 5.170930027961730957e-01
2.642377912998199463e-01 1.444536298513412476e-01 1.274793446063995361e-01
1.233482807874679565e-01 1.938652480021119118e-03 5.178784728050231934e-01
-8.116170018911361694e-02 -3.447353839874267578e-01 2.818321585655212402e-01
1.138512790203094482e-01 3.526796996593475342e-01 -1.582130938768386841e-01
1.213344186544418335e-01 2.270150482654571533e-01 4.321019351482391357e-01
6.652940995991230011e-03 -2.475848346948623657e-01 4.501777887344360352e-01
-2.632900476455688477e-01 1.833960413932800293e-01 -2.731117419898509979e-02
-3.828361630439758301e-02 4.009418487548828125e-01 -1.011908724904060364e-01
-2.588457167148590088e-01 1.345727890729904175e-01 -1.896876692771911621e-01
-2.464687228202819824e-01 -1.458617299795150757e-01 2.433779537677764893e-01
2.403766065835952759e-01 -9.452219307422637939e-02 -2.518223524093627930e-01
-2.911700010299682617e-01 -6.519252806901931763e-02 6.569284945726394653e-02
-2.891505956649780273e-01 -9.849523007869720459e-02 -4.184643179178237915e-02
8.815149962902069092e-02 -3.614314198493957520e-01 2.212175726890563965e-01
-1.971938163042068481e-01 2.872082889080047607e-01 -1.320859789848327637e-01
1.266866922378540039e-01 1.904072612524032593e-02 5.151917338371276855e-01
7.317081838846206665e-02 3.956595063209533691e-01 1.414452046155929565e-01
8.480310440063476562e-02 3.376162946224212646e-01 -2.440073490142822266e-01
2.627761960029602051e-01 1.638006567955017090e-01 -4.869326949119567871e-04
2.550814449787139893e-01 -1.311714500188827515e-01 1.932270079851150513e-01
-2.957167327404022217e-01 -4.590524360537528992e-03 2.900010719895362854e-02
2.251832783222198486e-01 2.341249287128448486e-01 -1.063697487115859985e-01
-2.265465557575225830e-01 1.186744272708892822e-01 3.273385465145111084e-01
1.668563336133956909e-01 1.354415863752365112e-01 4.402776658535003662e-01
-6.681836396455764771e-02 3.540529310703277588e-01 -2.357299774885177612e-01
-2.084658443927764893e-01 -1.321519762277603149e-01 -3.699382543563842773e-01
2.872764505445957184e-02 2.100228965282440186e-01 5.016769766807556152e-01
3.545171767473220825e-02 -3.461900949478149414e-01 3.048827648162841797e-01
-1.489622890949249268e-01 3.406536579132080078e-01 1.761653423309326172e-01
-2.382915318012237549e-01 -1.421448290348052979e-01 2.736751437187194824e-01
-1.777396351099014282e-02 3.882491588592529297e-01 2.340284585952758789e-01
1.081574112176895142e-01 -9.054983407258987427e-02 -4.871406257152557373e-01
-3.959371894598007202e-02 2.940769195556640625e-01 -3.595941364765167236e-01
-1.002798676490783691e-01 3.483913242816925049e-01 2.668742239475250244e-01
-1.118175163865089417e-01 -2.027696073055267334e-01 4.417283833026885986e-01
2.846890985965728760e-01 -3.324781730771064758e-02 3.674457222223281860e-02
2.076818346977233887e-01 1.321467906236648560e-01 -3.071705996990203857e-01
-1.367815881967544556e-01 -2.472976595163345337e-01 -3.908694684505462646e-01
2.565890550613403320e-01 -8.609677851200103760e-02 -1.936186999082565308e-01
-4.317618161439895630e-02 -3.588346540927886963e-01 -3.028426766395568848e-01
1.114787235856056213e-01 -3.407824039459228516e-02 -4.928148090839385986e-01
1.836407929658889771e-01 -2.621608674526214600e-01 -2.367241382598876953e-01
1.340814530849456787e-01 -3.630637526512145996e-01 9.119950979948043823e-02
2.529285848140716553e-01 1.018097251653671265e-01 -1.895201504230499268e-01
1.223286390304565430e-01 -1.154944449663162231e-01 4.882431328296661377e-01
2.848345041275024414e-01 3.261601924896240234e-02 6.357833743095397949e-03
-2.627347409725189209e-01 -2.047689110040664673e-01 -2.094730734825134277e-03
-1.933971047401428223e-01 2.407514005899429321e-01 -2.528176903724670410e-01
1.127106547355651855e-01 -2.334440946578979492e-01 4.093769192695617676e-01
-7.195880264043807983e-02 -3.350637853145599365e-01 3.087711632251739502e-01
1.620426625013351440e-01 -5.724861845374107361e-02 -4.326953887939453125e-01
1.712205708026885986e-01 -2.753610908985137939e-01 -2.470901608467102051e-01
-3.024404868483543396e-03 -4.131305515766143799e-01 -1.397707760334014893e-01
-2.840921878814697266e-01 -5.819238722324371338e-02 1.392254531383514404e-01
-1.892868727445602417e-01 1.273277103900909424e-01 -3.830858170986175537e-01
2.022704929113388062e-01 -2.552837431430816650e-01 2.008250057697296143e-01
2.442547827959060669e-01 2.059019953012466431e-01 -5.867338180541992188e-02
-1.919987350702285767e-01 -5.047367885708808899e-02 4.221251308917999268e-01
2.322916090488433838e-01 8.152165263891220093e-02 -2.751991748809814453e-01
2.052193135023117065e-01 2.811531424522399902e-01 1.401927918195724487e-01
-8.100742846727371216e-02 -4.032050669193267822e-01 9.033342450857162476e-02
-2.519584298133850098e-01 2.140447199344635010e-01 -2.019293606281280518e-05
-1.762610375881195068e-01 -3.408662378787994385e-01 -1.062850058078765869e-01
-8.283782005310058594e-02 -1.705116182565689087e-01 4.874207675457000732e-01
2.462423294782638550e-01 -1.995521783828735352e-01 -7.468990981578826904e-02
3.993410617113113403e-02 -3.361504375934600830e-01 3.219511806964874268e-01
-9.167497605085372925e-02 -3.494821488857269287e-01 2.604918479919433594e-01
-2.905934751033782959e-01 -8.733541518449783325e-02 -4.501160234212875366e-02
-1.961554884910583496e-01 -2.686107456684112549e-01 -2.536520659923553467e-01
-1.998209953308105469e-01 -3.159246444702148438e-01 -8.761446923017501831e-02
-2.535969018936157227e-01 1.443363726139068604e-01 -2.002945095300674438e-01
1.714953333139419556e-01 -1.638405174016952515e-01 3.964416384696960449e-01
2.488403171300888062e-01 -1.074108332395553589e-01 2.482449263334274292e-01
-2.806642055511474609e-01 -1.327212303876876831e-01 6.458281725645065308e-02
-2.602701485157012939e-01 1.740163117647171021e-01 -1.062401309609413147e-01
-1.184188872575759888e-01 3.319572508335113525e-01 2.764563858509063721e-01
2.250319868326187134e-01 1.129038035869598389e-01 -2.766948342323303223e-01
-2.054649591445922852e-01 -1.524728685617446899e-01 3.479090631008148193e-01
2.340145558118820190e-01 -1.630536615848541260e-01 -2.164234220981597900e-01
-1.056570932269096375e-01 3.359583318233489990e-01 2.881534397602081299e-01
1.665007025003433228e-01 2.006788700819015503e-01 -3.303481638431549072e-01
-1.719865649938583374e-01 9.958525002002716064e-02 4.428275227546691895e-01
2.381138801574707031e-01 -1.883814632892608643e-01 1.863739937543869019e-01
-9.418088942766189575e-03 -2.483653724193572998e-01 4.493804872035980225e-01
-1.555135250091552734e-01 -2.038494497537612915e-01 -4.076139330863952637e-01
-2.807386219501495361e-01 5.021603778004646301e-02 1.613099277019500732e-01
2.179280389100313187e-03 4.040085971355438232e-01 -1.012963578104972839e-01
-2.470009624958038330e-01 2.253754734992980957e-01 1.549362670630216599e-02
-2.752809226512908936e-01 7.560434937477111816e-02 1.765210032463073730e-01
2.256711125373840332e-01 -1.099754124879837036e-01 3.222427666187286377e-01
-1.070014089345932007e-01 3.742839694023132324e-01 -1.091820821166038513e-01
-6.005624681711196899e-02 -3.121220469474792480e-01 3.554363548755645752e-01
8.359179645776748657e-02 -3.930364847183227539e-01 1.059492230415344238e-01
-2.634053230285644531e-01 1.233719661831855774e-01 -1.823292821645736694e-01
8.520212024450302124e-02 3.738785982131958008e-01 2.198690772056579590e-01
-2.372676432132720947e-01 3.891184926033020020e-02 -3.283378183841705322e-01
-1.438787430524826050e-01 -3.756312429904937744e-01 1.193236373364925385e-02
2.189150899648666382e-01 -2.033320367336273193e-01 2.409988194704055786e-01
-2.912878692150115967e-01 -6.355267763137817383e-02 -8.038042485713958740e-02
2.456504851579666138e-01 1.934909224510192871e-01 -8.716887235641479492e-02
1.519374698400497437e-01 -7.207072526216506958e-02 -4.436831474304199219e-01
-2.884418964385986328e-01 -8.728982508182525635e-02 6.793236732482910156e-02
2.153951488435268402e-02 1.325231883674860001e-02 -5.404490828514099121e-01
1.171324588358402252e-02 3.334786593914031982e-01 3.644228279590606689e-01
5.781397223472595215e-02 -4.120749235153198242e-01 -4.452417045831680298e-02
-2.324926108121871948e-01 2.536972761154174805e-01 3.854332491755485535e-02
1.953704208135604858e-01 -2.801824808120727539e-01 -1.516902446746826172e-01
-2.487052232027053833e-01 -2.889803610742092133e-02 -3.066613376140594482e-01
-1.559703648090362549e-01 -3.316777050495147705e-01 -2.207292467355728149e-01
1.882684230804443359e-01 7.398755103349685669e-02 -3.785293698310852051e-01
1.985984295606613159e-01 5.127237364649772644e-02 4.169529080390930176e-01
7.838814705610275269e-02 1.832624375820159912e-01 -4.470064342021942139e-01
1.169013231992721558e-01 3.635872602462768555e-01 -1.102456599473953247e-01
1.468280851840972900e-01 4.007946699857711792e-03 -4.552267491817474365e-01
4.273384809494018555e-02 3.731917142868041992e-01 2.689507603645324707e-01
-2.818710207939147949e-01 -7.211238890886306763e-02 -1.587139815092086792e-01
-1.916872709989547729e-02 4.150037467479705811e-01 -6.434256210923194885e-03
-2.297775894403457642e-01 -1.262938324362039566e-02 -3.550425469875335693e-01
2.122041732072830200e-01 -3.413128852844238281e-02 -3.465719819068908691e-01
1.403779387474060059e-01 1.017792075872421265e-01 -4.376702904701232910e-01
1.855836510658264160e-01 -1.645301878452301025e-01 3.709144294261932373e-01
-1.131705790758132935e-01 1.866740733385086060e-01 4.670483767986297607e-01
-1.372471600770950317e-01 3.534776270389556885e-01 1.645830422639846802e-01
-4.433328658342361450e-02 -2.800874412059783936e-01 -4.211778938770294189e-01
2.794213406741619110e-02 -1.826224289834499359e-02 -5.407811999320983887e-01
9.161514043807983398e-02 -1.367078572511672974e-01 -4.854226112365722656e-01
-2.889219820499420166e-01 -9.458255767822265625e-02 -6.116744875907897949e-02
-3.051715902984142303e-02 -2.271258831024169922e-01 -4.730939567089080811e-01
1.809230297803878784e-01 2.422968745231628418e-01 -2.483005821704864502e-01
-2.015237063169479370e-01 1.066475957632064819e-01 -3.744730651378631592e-01
-6.620862334966659546e-02 -4.051392376422882080e-01 -1.410816460847854614e-01
-2.433363795280456543e-01 -1.998428255319595337e-01 -2.087288647890090942e-01
-6.214141100645065308e-02 -1.264688968658447266e-01 -5.208483338356018066e-01
1.214466989040374756e-01 -2.324690371751785278e-01 -3.926141262054443359e-01
1.739783734083175659e-01 -3.305623531341552734e-01 -2.751162089407444000e-02
-1.361742168664932251e-01 -3.647477030754089355e-01 -1.659893691539764404e-01
1.314394325017929077e-01 -8.584690093994140625e-02 4.920515716075897217e-01
1.830393970012664795e-01 2.402434200048446655e-01 3.175007104873657227e-01
-9.094906598329544067e-02 -1.746696978807449341e-01 4.793619811534881592e-01
-1.865379363298416138e-01 -3.297669887542724609e-01 6.962490081787109375e-02
2.318829447031021118e-01 1.205751299858093262e-01 -2.507864832878112793e-01
1.934434622526168823e-01 -2.969888448715209961e-01 -9.800400584936141968e-02
2.443888038396835327e-01 8.971510827541351318e-02 -2.317781150341033936e-01
3.320411778986454010e-03 2.617916762828826904e-01 4.595105051994323730e-01
-2.056071162223815918e-01 -1.482315827161073685e-02 4.040256738662719727e-01
1.389962881803512573e-01 3.477241098880767822e-01 -1.061997860670089722e-01
9.197868406772613525e-03 -4.058445990085601807e-01 -1.711152791976928711e-01
-2.504260241985321045e-01 -1.837331801652908325e-01 -2.026726007461547852e-01
-4.130279272794723511e-02 -1.729885488748550415e-01 5.048192143440246582e-01
1.702730804681777954e-01 -2.714287936687469482e-01 -2.566853761672973633e-01
-1.704973354935646057e-02 -2.908382415771484375e-01 4.000399410724639893e-01
2.242009490728378296e-01 -6.535281240940093994e-02 -3.116800487041473389e-01
-2.395552024245262146e-02 -4.216935932636260986e-01 4.017149657011032104e-02
-2.176973968744277954e-01 2.748307883739471436e-01 8.394081145524978638e-02
1.442962139844894409e-01 1.638525724411010742e-01 4.544106423854827881e-01
-7.941996306180953979e-02 -3.783402442932128906e-01 -2.290727347135543823e-01
-6.355240941047668457e-02 -2.988310754299163818e-01 -3.916753232479095459e-01
3.630095720291137695e-02 2.148972153663635254e-01 -4.433900713920593262e-01
-1.210779175162315369e-01 -1.686445176601409912e-01 -4.678537249565124512e-01
7.473660260438919067e-02 3.897303342819213867e-01 -9.447239339351654053e-02
-2.271929830312728882e-01 2.470618784427642822e-01 -1.092768535017967224e-01
5.610971152782440186e-02 3.708030283451080322e-01 -1.918243765830993652e-01
-7.257936056703329086e-03 -1.212633028626441956e-01 -5.305273532867431641e-01
8.997603505849838257e-02 2.727834284305572510e-01 -3.480103015899658203e-01
-1.787869185209274292e-01 -3.156628310680389404e-01 1.655896157026290894e-01
-3.765039891004562378e-02 -7.647287845611572266e-02 5.503960251808166504e-01
-8.619217574596405029e-02 -2.639250457286834717e-01 4.025236666202545166e-01
2.011323571205139160e-01 2.113913148641586304e-01 -2.416419684886932373e-01
2.684342563152313232e-01 -1.409887522459030151e-01 1.311844028532505035e-02
-1.027393713593482971e-01 3.168907165527343750e-01 3.302178382873535156e-01
2.195533663034439087e-01 -2.343874871730804443e-01 -1.579650342464447021e-01
-2.366387695074081421e-01 -1.276733130216598511e-01 2.904704809188842773e-01
2.592073380947113037e-01 6.649402529001235962e-02 -1.872105449438095093e-01
1.959657371044158936e-01 2.724085152149200439e-01 2.182574123144149780e-01
8.219154179096221924e-02 -3.786225020885467529e-01 1.756089776754379272e-01
2.772343754768371582e-01 -9.732794016599655151e-02 4.481539130210876465e-02
-1.939387060701847076e-02 3.277406692504882812e-01 -3.110570609569549561e-01
2.823643684387207031e-01 5.887294560670852661e-02 -1.158408820629119873e-02
-2.949596047401428223e-01 -4.620105400681495667e-02 -2.609843201935291290e-02
-2.687834203243255615e-01 -1.765991449356079102e-01 6.868943572044372559e-02
1.996603757143020630e-01 2.520804405212402344e-01 2.508181035518646240e-01
-1.049556210637092590e-02 -2.344446480274200439e-01 -4.683117568492889404e-01
1.848177462816238403e-01 2.526256442070007324e-01 -2.211777418851852417e-01
1.411470025777816772e-01 2.847549319267272949e-01 3.344295620918273926e-01
-1.615732163190841675e-01 -2.524139583110809326e-01 3.274026215076446533e-01
1.852187514305114746e-01 1.167722120881080627e-01 -3.635988533496856689e-01
1.858599334955215454e-01 3.105870783329010010e-01 -4.821776598691940308e-02
-1.629326343536376953e-01 -2.604083418846130371e-01 3.140299916267395020e-01
-8.429082483053207397e-02 -3.605875670909881592e-01 -2.708834409713745117e-01
-1.594140231609344482e-01 2.186409533023834229e-01 3.825703263282775879e-01
-2.203681021928787231e-01 2.447648048400878906e-01 -1.537866294384002686e-01
2.161942273378372192e-01 2.739903032779693604e-01 4.381570219993591309e-02
-2.114963382482528687e-01 2.595067024230957031e-01 1.863880455493927002e-01
-2.109074778854846954e-02 4.121350646018981934e-01 1.107926592230796814e-01
-1.326386779546737671e-01 -2.751890122890472412e-01 3.405294120311737061e-01
-8.875641226768493652e-02 3.441680371761322021e-01 2.930617332458496094e-01
6.341950595378875732e-02 2.756445407867431641e-01 -3.654391765594482422e-01
-2.332043498754501343e-01 -1.285383701324462891e-01 2.994819283485412598e-01
1.884386837482452393e-01 1.849000155925750732e-01 -3.038596510887145996e-01
2.726059257984161377e-01 7.406698912382125854e-02 -1.055821627378463745e-01
1.414626538753509521e-01 -3.443425297737121582e-01 -1.568213701248168945e-01
-1.966972500085830688e-01 3.868424892425537109e-02 -4.109463989734649658e-01
-1.656746864318847656e-01 3.388794064521789551e-01 1.017774343490600586e-01
1.852496117353439331e-01 -2.413705587387084961e-01 -2.666382789611816406e-01
1.986576914787292480e-01 -2.839324474334716797e-01 1.313206106424331665e-01
2.426558136940002441e-01 2.016679793596267700e-01 -8.605167269706726074e-02
-2.359617501497268677e-01 1.210034489631652832e-01 2.997140884399414062e-01
-1.399121433496475220e-01 -4.445396736264228821e-02 4.929986596107482910e-01
-2.484549395740032196e-02 -2.499938905239105225e-01 -4.546378850936889648e-01
2.679787278175354004e-01 5.320043116807937622e-02 2.084474563598632812e-01
-1.128709539771080017e-01 6.551588326692581177e-02 -4.988332688808441162e-01
-1.288260519504547119e-01 3.741196095943450928e-01 3.352889791131019592e-03
1.672915518283843994e-01 -3.377770483493804932e-01 -3.344847261905670166e-02
-1.930562704801559448e-01 2.149214148521423340e-01 -2.921956181526184082e-01
1.274089515209197998e-01 1.419122368097305298e-01 -4.314382672309875488e-01
-1.210776194930076599e-01 3.440938591957092285e-01 2.406567633152008057e-01
-2.372467815876007080e-01 2.398837953805923462e-01 8.339136838912963867e-02
-4.063368774950504303e-03 -3.721752762794494629e-01 2.576029300689697266e-01
-9.821525961160659790e-02 -3.305593132972717285e-01 2.924309968948364258e-01
6.266672909259796143e-02 3.291474878787994385e-01 3.521786034107208252e-01
2.108259946107864380e-01 2.734221220016479492e-01 1.341659724712371826e-01
9.021581709384918213e-02 -3.158346712589263916e-01 3.195852041244506836e-01
2.579919695854187012e-01 1.099337562918663025e-01 2.214317768812179565e-01
2.090819031000137329e-01 2.734711468219757080e-01 -6.934343278408050537e-02
-1.148636080324649811e-02 4.046266973018646240e-01 -9.737662971019744873e-02
-7.545591890811920166e-02 3.411292731761932373e-01 -2.579542398452758789e-01
5.113009363412857056e-02 -8.637240529060363770e-02 -5.256915688514709473e-01
-2.178046554327011108e-01 -2.542597055435180664e-01 1.813306510448455811e-01
1.519553214311599731e-01 -1.589458584785461426e-01 4.291461408138275146e-01
-1.034954041242599487e-01 -2.964267134666442871e-01 -3.670655786991119385e-01
1.438222676515579224e-01 3.350046873092651367e-01 2.166704684495925903e-01
-2.565589249134063721e-01 1.732552796602249146e-01 -1.347801238298416138e-01
-1.817092299461364746e-01 2.428753376007080078e-01 -2.769031822681427002e-01
-2.605250291526317596e-02 -1.141938641667366028e-01 -5.323889255523681641e-01
-2.665441632270812988e-01 1.556346118450164795e-01 -1.044108495116233826e-01
-1.890698671340942383e-01 -3.224842250347137451e-01 -1.286692768335342407e-01
-1.006137728691101074e-01 8.864094316959381104e-02 -4.992423355579376221e-01
-2.668290734291076660e-01 1.107083559036254883e-01 -1.807221770286560059e-01
1.427593678236007690e-01 -2.685732841491699219e-01 -3.193561136722564697e-01
8.526804298162460327e-02 -2.721042931079864502e-01 3.897866904735565186e-01
2.587511837482452393e-01 1.768093407154083252e-01 -1.463341526687145233e-03
-2.859390079975128174e-01 -6.942007690668106079e-02 -1.307668983936309814e-01
2.069084495306015015e-01 -1.137603819370269775e-01 3.654572963714599609e-01
-2.930193841457366943e-01 -2.744234912097454071e-02 7.424420118331909180e-02
2.123370021581649780e-01 1.704764962196350098e-01 -2.611001431941986084e-01
-2.171099483966827393e-01 -2.009280323982238770e-01 -2.952222824096679688e-01
-1.865638047456741333e-01 -3.363209664821624756e-01 -8.741771802306175232e-03
2.380250692367553711e-01 3.753408417105674744e-02 -2.757003903388977051e-01
-2.237036228179931641e-01 -2.445933669805526733e-01 -2.077434062957763672e-01
3.965937346220016479e-02 -3.422270119190216064e-01 -3.238587081432342529e-01
-1.469962447881698608e-01 -1.210354361683130264e-02 4.897638559341430664e-01
1.085912995040416718e-02 1.595089733600616455e-01 -4.907135665416717529e-01
-1.243125572800636292e-01 1.956335008144378662e-01 -4.152050018310546875e-01
2.024668455123901367e-01 -2.874409556388854980e-01 -7.613753527402877808e-02
1.651761382818222046e-01 -2.194435298442840576e-01 -3.383918404579162598e-01
-2.910290956497192383e-01 2.723433263599872589e-02 9.127154201269149780e-02
-1.498260051012039185e-01 2.479465603828430176e-01 -3.274376690387725830e-01
-2.772463560104370117e-01 1.306857019662857056e-01 -6.394502520561218262e-02
-4.165522754192352295e-02 -4.120683968067169189e-01 1.028886884450912476e-01
1.105365231633186340e-01 -3.867595195770263672e-01 -2.656602300703525543e-02
2.668860852718353271e-01 1.373277008533477783e-01 -4.971717298030853271e-02
1.208297610282897949e-01 -2.341255247592926025e-01 3.998381495475769043e-01
3.586113452911376953e-02 2.053661644458770752e-01 5.034334659576416016e-01
-2.010162770748138428e-01 -9.597607702016830444e-02 -3.994489908218383789e-01
-2.588720917701721191e-01 1.056889668107032776e-01 2.316482216119766235e-01
-1.548088490962982178e-01 -3.296556770801544189e-01 -2.290370017290115356e-01
2.941059134900569916e-02 -1.396496295928955078e-01 -5.175116658210754395e-01
-2.746869325637817383e-01 1.409809887409210205e-01 -6.219846755266189575e-02
1.074503548443317413e-02 2.615532875061035156e-01 -4.036042690277099609e-01
-1.273733973503112793e-01 -3.874533176422119141e-01 -4.358158260583877563e-02
1.732522845268249512e-01 1.008045747876167297e-01 -3.924727737903594971e-01
2.342975288629531860e-01 3.924455866217613220e-02 -2.861389815807342529e-01
2.205064147710800171e-01 2.132133692502975464e-01 2.473802566528320312e-01
-1.187183707952499390e-01 2.134511619806289673e-01 -4.041340053081512451e-01
-2.186835259199142456e-01 1.849141120910644531e-01 2.907487154006958008e-01
2.729820013046264648e-01 -2.729622647166252136e-02 -1.345386803150177002e-01
2.387923151254653931e-01 -1.476996541023254395e-01 2.456942796707153320e-01
2.355842739343643188e-01 -2.318977564573287964e-01 5.861403048038482666e-02
7.490202784538269043e-02 -3.542467057704925537e-01 -2.682530283927917480e-01
2.378785163164138794e-01 -1.667309254407882690e-01 2.241890132427215576e-01
-1.133227869868278503e-01 -3.857073783874511719e-01 -1.372866481542587280e-01
2.639543414115905762e-01 -4.600037634372711182e-02 2.246332019567489624e-01
2.644233405590057373e-01 -1.002548262476921082e-01 1.793257594108581543e-01
-2.933835089206695557e-01 2.932057715952396393e-02 -5.990837514400482178e-02
1.943165250122547150e-02 2.684755325317382812e-01 4.514635205268859863e-01
-2.483665198087692261e-01 1.599773466587066650e-01 2.176683396100997925e-01
-5.042316019535064697e-02 -3.926370143890380859e-01 -2.108619660139083862e-01
1.842102557420730591e-01 2.733856439590454102e-01 -1.816226094961166382e-01
2.201671451330184937e-01 2.181802988052368164e-01 2.399975061416625977e-01
2.186250127851963043e-02 4.153911769390106201e-01 1.552972197532653809e-02
2.026300579309463501e-01 1.559177786111831665e-01 -2.997199594974517822e-01
-1.835832446813583374e-01 -3.370482027530670166e-01 -7.351172715425491333e-02
-2.517643570899963379e-01 2.024867683649063110e-01 -8.548469841480255127e-02
-6.066165119409561157e-02 3.970547020435333252e-01 1.580412685871124268e-01
2.207435071468353271e-01 -3.527124226093292236e-02 -3.265746533870697021e-01
-5.432569980621337891e-02 -4.191708266735076904e-01 -2.465513162314891815e-02
-1.478174924850463867e-01 -2.123498469591140747e-01 3.933028876781463623e-01
-2.036134302616119385e-01 2.992063164710998535e-01 -8.670279756188392639e-03
-2.540049850940704346e-01 2.089781314134597778e-01 2.851364575326442719e-02
1.399698406457901001e-01 -3.636158108711242676e-01 -4.604859650135040283e-02
2.158886492252349854e-01 3.176213428378105164e-02 -3.349989056587219238e-01
-1.529105305671691895e-01 2.717169523239135742e-01 3.272708356380462646e-01
2.376891113817691803e-02 3.898276388645172119e-01 -1.547961980104446411e-01
-8.997121453285217285e-02 3.279122114181518555e-01 3.251673281192779541e-01
-1.330235600471496582e-01 -8.213877677917480469e-03 -4.959106743335723877e-01
3.710015118122100830e-02 8.646409958600997925e-02 -5.193257927894592285e-01
-2.072237432003021240e-01 2.043655961751937866e-01 -2.726269364356994629e-01
7.613850384950637817e-02 1.503472030162811279e-01 -4.705541133880615234e-01
-2.415318228304386139e-02 -3.770888745784759521e-01 -2.666037082672119141e-01
1.742883920669555664e-01 1.353827714920043945e-01 -3.712530136108398438e-01
1.697770655155181885e-01 3.274757266044616699e-01 -6.024972349405288696e-02
-2.363476455211639404e-01 -2.549995481967926025e-01 -1.050101518630981445e-01
-5.787783116102218628e-02 -5.113974679261445999e-03 -5.392340421676635742e-01
1.276896744966506958e-01 3.680346310138702393e-01 1.236461624503135681e-01
9.675120562314987183e-02 -3.938821256160736084e-01 3.917459025979042053e-02
-5.969379842281341553e-02 -4.168908298015594482e-01 2.258373051881790161e-02
4.694654792547225952e-02 6.515120714902877808e-02 -5.224192142486572266e-01
-5.274257063865661621e-02 -4.112933278083801270e-01 -1.247338280081748962e-01
1.596953272819519043e-01 -2.348905652761459351e-01 -3.315795063972473145e-01
6.461509317159652710e-02 1.402789205312728882e-01 5.301854610443115234e-01
1.476495712995529175e-01 3.000829815864562988e-01 -2.201140820980072021e-01
9.070059657096862793e-02 -3.616846799850463867e-01 -2.268226742744445801e-01
6.849376112222671509e-02 1.815070807933807373e-01 5.069695711135864258e-01
-4.838601499795913696e-02 3.708804845809936523e-01 -2.057169079780578613e-01
-2.375783175230026245e-01 -6.425485759973526001e-02 -3.314225375652313232e-01
-1.575914621353149414e-01 -8.326798677444458008e-02 -4.648914337158203125e-01
1.100001037120819092e-01 1.346003860235214233e-01 5.042660236358642578e-01
-2.651212811470031738e-01 -1.405537724494934082e-01 -1.905520111322402954e-01
-2.067781537771224976e-01 1.570092737674713135e-01 3.477072119712829590e-01
-8.223904669284820557e-02 -1.583804488182067871e-01 -4.992357790470123291e-01
-2.345372736454010010e-01 2.316276431083679199e-01 -1.150685325264930725e-01
-2.366830408573150635e-02 -4.237562119960784912e-01 -1.757908985018730164e-02
2.195625752210617065e-01 5.128066614270210266e-02 -3.212628066539764404e-01
-2.664785087108612061e-01 1.945258304476737976e-02 2.415926903486251831e-01
-2.313000559806823730e-01 8.950230665504932404e-03 3.502953946590423584e-01
-2.545840106904506683e-02 -2.610918283462524414e-01 -4.442395269870758057e-01
-1.122624799609184265e-02 3.680073320865631104e-01 2.934315800666809082e-01
2.175353467464447021e-01 -7.153876125812530518e-02 -3.265301287174224854e-01
2.796704769134521484e-01 -8.206849545240402222e-02 1.246873289346694946e-04
-1.309072133153676987e-03 -4.240613281726837158e-01 -6.125103682279586792e-03
2.756190896034240723e-01 1.025617774575948715e-02 -1.190861091017723083e-01
1.078713536262512207e-01 -1.844955235719680786e-01 4.584810435771942139e-01
-2.825844287872314453e-01 1.581348245963454247e-03 -1.706959307193756104e-01
-1.033094152808189392e-01 3.504236638545989990e-01 -2.019341140985488892e-01
-2.096362262964248657e-01 -2.491505816578865051e-03 3.971317410469055176e-01
2.241781353950500488e-01 -1.447090804576873779e-01 2.977809607982635498e-01
2.011339366436004639e-01 7.795153558254241943e-02 4.059994518756866455e-01
-3.480200096964836121e-02 -1.761430641636252403e-03 5.638946294784545898e-01
7.953737676143646240e-02 -2.481172382831573486e-01 4.223781824111938477e-01
4.991383850574493408e-02 3.915315866470336914e-01 2.016879320144653320e-01
2.752414643764495850e-01 -8.728402853012084961e-02 -6.897188723087310791e-02
-1.342844069004058838e-01 2.157219797372817993e-01 4.210937023162841797e-01
5.615174025297164917e-02 -4.004128873348236084e-01 -1.453574746847152710e-01
2.579370439052581787e-01 -1.524961888790130615e-01 1.374971419572830200e-01
-2.697187364101409912e-01 1.656236648559570312e-01 -1.181531697511672974e-02
-5.350862443447113037e-02 2.900928258895874023e-01 4.127691388130187988e-01
-1.180973574519157410e-01 -1.547611039131879807e-02 5.179146528244018555e-01
2.712960541248321533e-01 1.170529797673225403e-01 1.166978627443313599e-01
2.573867142200469971e-01 1.667122840881347656e-01 1.350825577974319458e-01
2.346099019050598145e-01 7.184273004531860352e-02 -2.732049822807312012e-01
2.778788208961486816e-01 3.239932283759117126e-02 1.509266048669815063e-01
2.206828594207763672e-01 -5.878016352653503418e-02 -3.223720490932464600e-01
2.739839553833007812e-01 -4.698428511619567871e-02 1.661172658205032349e-01
-2.825767695903778076e-01 3.146876022219657898e-02 -1.606478095054626465e-01
-3.274881839752197266e-02 7.081363350152969360e-02 -5.311254262924194336e-01
-1.952686011791229248e-01 -3.257771730422973633e-01 -3.814107924699783325e-02
2.581706047058105469e-01 -2.825002186000347137e-02 -2.100693732500076294e-01
1.006859168410301208e-01 2.770783901214599609e-01 3.984089493751525879e-01
2.688770890235900879e-01 5.953538045287132263e-02 2.003151476383209229e-01
-4.412013106048107147e-03 2.524509429931640625e-01 -4.151805043220520020e-01
-2.540379017591476440e-02 -3.796238601207733154e-01 2.354733049869537354e-01
-1.423025876283645630e-01 2.803278267383575439e-01 3.327777385711669922e-01
-2.305343896150588989e-01 -6.746806949377059937e-02 -3.478415012359619141e-01
2.278936952352523804e-01 1.609469056129455566e-01 2.909925282001495361e-01
1.515858322381973267e-01 -3.504996597766876221e-01 7.027166336774826050e-02
8.055949211120605469e-02 3.018961250782012939e-01 -3.145784735679626465e-01
-2.321124076843261719e-01 -2.306779474020004272e-01 -2.010843604803085327e-01
8.785566687583923340e-02 3.795081377029418945e-01 1.929717957973480225e-01
1.388441771268844604e-01 1.945047825574874878e-01 4.397531747817993164e-01
2.429371923208236694e-01 -1.326850354671478271e-01 2.466960102319717407e-01
1.613872051239013672e-01 -1.041175797581672668e-01 -4.214735627174377441e-01
2.780112326145172119e-01 -3.117255866527557373e-02 -9.586409479379653931e-02
2.632854580879211426e-01 -1.523897796869277954e-01 8.221161365509033203e-02
-2.899140119552612305e-01 -4.274757951498031616e-02 1.011027917265892029e-01
2.457988411188125610e-01 3.142313286662101746e-02 -2.526957392692565918e-01
9.625693410634994507e-02 -3.275657296180725098e-01 -2.961269021034240723e-01
2.605433166027069092e-01 -1.502573788166046143e-01 -8.809523284435272217e-02
-1.902708262205123901e-01 1.710500009357929230e-02 4.315591454505920410e-01
1.768495142459869385e-01 -2.018024325370788574e-01 3.512293994426727295e-01
2.829697430133819580e-01 3.299884870648384094e-02 -3.789832442998886108e-02
-2.825221717357635498e-01 2.398777939379215240e-02 1.616969108581542969e-01
1.732848584651947021e-01 1.714677959680557251e-01 -3.458660840988159180e-01
-1.694646477699279785e-01 2.583243548870086670e-01 -2.779664695262908936e-01
1.911293566226959229e-01 -1.033595353364944458e-01 -3.719046711921691895e-01
2.514574527740478516e-01 1.873983293771743774e-01 1.281537711620330811e-01
1.980279833078384399e-01 -2.831401824951171875e-01 -1.278742402791976929e-01
-1.579140871763229370e-01 1.060086488723754883e-01 4.598949551582336426e-01
-5.113818682730197906e-03 -4.228846728801727295e-01 3.054510429501533508e-02
1.840191781520843506e-01 -1.904802620410919189e-01 -3.294570147991180420e-01
-2.009764164686203003e-01 9.613457322120666504e-02 3.956045806407928467e-01
-1.406960040330886841e-01 2.849603593349456787e-01 -2.851093113422393799e-01
2.443494647741317749e-01 9.962651878595352173e-02 -2.250720113515853882e-01
2.351100593805313110e-01 -2.355358600616455078e-01 2.392859756946563721e-02
-2.816031873226165771e-01 7.352764904499053955e-02 -1.338390111923217773e-01
-2.169862017035484314e-02 2.097629755735397339e-01 5.018063783645629883e-01
-1.601432859897613525e-01 -3.602724671363830566e-01 3.945911675691604614e-02
-2.325142472982406616e-01 2.531028091907501221e-01 4.755629599094390869e-02
-2.261362820863723755e-01 1.759034246206283569e-01 2.788659036159515381e-01
8.518251031637191772e-02 3.979327082633972168e-01 5.428862571716308594e-02
-1.058613955974578857e-01 3.213692009449005127e-01 3.178626894950866699e-01
-1.707714051008224487e-01 3.248364031314849854e-01 -1.065009832382202148e-01
7.863002270460128784e-02 -2.356058061122894287e-01 4.360590577125549316e-01
2.521314024925231934e-01 -1.563114859163761139e-02 -2.351680994033813477e-01
1.796287447214126587e-01 -1.277152895927429199e-01 -3.819403648376464844e-01
-2.553023993968963623e-01 -2.225297540426254272e-01 -4.784103482961654663e-02
-7.470990717411041260e-02 -3.981783390045166016e-01 1.309313476085662842e-01
-1.932947933673858643e-01 -2.699463367462158203e-01 2.304692566394805908e-01
-9.274844080209732056e-02 -3.782603740692138672e-01 -2.116606235504150391e-01
-2.501605153083801270e-01 2.011767178773880005e-01 1.256144642829895020e-01
-2.396562844514846802e-01 -2.541378736495971680e-01 4.029356315732002258e-02
2.320558428764343262e-01 2.444258332252502441e-01 5.901312083005905151e-02
1.911924220621585846e-02 -1.023920923471450806e-01 -5.325176715850830078e-01
5.357453227043151855e-02 2.893934249877929688e-01 4.168593585491180420e-01
-1.538758128881454468e-01 2.048009037971496582e-01 -3.722124099731445312e-01
1.601699590682983398e-01 -2.758216559886932373e-01 2.805979251861572266e-01
-1.529736667871475220e-01 3.077076971530914307e-01 2.607247233390808105e-01
-7.101806253194808960e-02 3.654776215553283691e-01 -2.016864866018295288e-01
-8.844651281833648682e-02 -3.423829972743988037e-01 -3.059241771697998047e-01
2.169370353221893311e-01 6.607752293348312378e-03 -3.363083899021148682e-01
1.412538737058639526e-01 -2.902871072292327881e-01 2.922471463680267334e-01
2.005141228437423706e-01 -2.352964282035827637e-01 2.478896230459213257e-01
-6.588710099458694458e-02 2.520024776458740234e-01 -4.019654393196105957e-01
2.677598297595977783e-01 9.859380125999450684e-02 1.763048917055130005e-01
-2.354424446821212769e-01 -1.475579589605331421e-01 -2.957917749881744385e-01
-9.216844290494918823e-02 2.918893396854400635e-01 3.814809620380401611e-01
2.830702960491180420e-01 8.346737362444400787e-03 -4.895855486392974854e-02
1.947377771139144897e-01 -2.444145381450653076e-01 2.491103410720825195e-01
1.799227893352508545e-01 2.028294056653976440e-01 3.689116537570953369e-01
1.069624125957489014e-01 -1.190230697393417358e-01 4.998418390750885010e-01
-8.533585071563720703e-02 -2.518230080604553223e-01 4.167064726352691650e-01
2.230417728424072266e-01 -8.298494666814804077e-02 3.453604280948638916e-01
1.846693754196166992e-01 -3.145766854286193848e-01 -6.232797354459762573e-02
-1.188100725412368774e-01 -3.873282074928283691e-01 7.180538028478622437e-02
