4.422531723976135254e-01 1.633161678910255432e-02 -2.557933628559112549e-01
8.206782341003417969e-01 2.268792502582073212e-02 1.598237603902816772e-01
-5.789481401443481445e-01 6.596977263689041138e-02 -1.042524501681327820e-01
6.817083805799484253e-02 -1.457214727997779846e-02 3.078429996967315674e-01
1.401357799768447876e-01 -2.643723040819168091e-02 -2.882008850574493408e-01
-1.601588577032089233e-01 4.297458566725254059e-03 3.055709302425384521e-01
1.527170836925506592e-01 7.705032080411911011e-02 1.412623822689056396e-01
8.171923160552978516e-01 -5.224294215440750122e-02 -1.436284463852643967e-02
4.902814924716949463e-01 -5.478904396295547485e-02 2.030630558729171753e-01
6.426075696945190430e-01 5.991350486874580383e-02 9.342166036367416382e-02
-1.641448140144348145e-01 -7.706292718648910522e-02 1.441015005111694336e-01
5.338103175163269043e-01 6.486485153436660767e-02 -8.972569555044174194e-02
-5.042820572853088379e-01 6.688991934061050415e-02 -1.286765187978744507e-01
-7.521596550941467285e-02 7.329511642456054688e-02 -1.580268740653991699e-01
3.031272590160369873e-01 -8.301043510437011719e-02 -7.582277059555053711e-02
6.382245421409606934e-01 3.636460006237030029e-02 -1.741951406002044678e-01
3.052009940147399902e-01 -7.872913777828216553e-02 1.231921017169952393e-01
3.427445590496063232e-01 3.845420898869633675e-03 -2.788351178169250488e-01
9.075788259506225586e-01 -3.702445700764656067e-02 4.454750567674636841e-02
-6.958406567573547363e-01 6.317071616649627686e-02 -3.808102384209632874e-02
-2.921984493732452393e-01 7.975371927022933960e-02 -8.935922384262084961e-02
4.853880405426025391e-01 -1.460352912545204163e-02 -2.545772790908813477e-01
-7.843542098999023438e-01 3.463605046272277832e-02 1.436663120985031128e-01
6.622691750526428223e-01 -6.309910863637924194e-02 1.000239625573158264e-01
-7.861834764480590820e-01 -2.438229322433471680e-02 -1.759236901998519897e-01
6.864315271377563477e-01 5.145591124892234802e-02 -9.340517222881317139e-02
3.751464188098907471e-02 -6.280799210071563721e-02 2.216684222221374512e-01
-6.278768181800842285e-01 6.677830964326858521e-02 6.170687824487686157e-02
-4.969299435615539551e-01 -4.560478404164314270e-02 -2.205000221729278564e-01
2.951676845550537109e-01 8.080969750881195068e-02 6.311526149511337280e-02
-6.813594698905944824e-01 6.422790139913558960e-02 3.647244349122047424e-02
1.218180507421493530e-01 -2.564206719398498535e-02 2.979767918586730957e-01
-4.955585673451423645e-02 -8.166116476058959961e-02 -1.277331262826919556e-01
6.656717061996459961e-01 -3.238712996244430542e-02 2.140260636806488037e-01
-5.692210197448730469e-01 -5.036485567688941956e-02 -1.882609874010086060e-01
4.304782152175903320e-01 -7.205796241760253906e-02 1.390717178583145142e-01
1.664283424615859985e-01 -7.121652364730834961e-02 1.847669482231140137e-01
1.710685342550277710e-01 -8.523976802825927734e-02 8.600905537605285645e-02
1.896492093801498413e-01 6.646057218313217163e-02 1.964297592639923096e-01
6.118794083595275879e-01 5.305757746100425720e-02 -1.247055158019065857e-01
-2.328794151544570923e-01 -7.782144844532012939e-02 -1.358839869499206543e-01
3.547070026397705078e-01 -5.596854165196418762e-02 2.233183383941650391e-01
2.858536243438720703e-01 8.032090216875076294e-02 7.672074437141418457e-02
1.909453719854354858e-01 4.946769401431083679e-02 -2.339336723089218140e-01
6.311814785003662109e-01 -4.698857292532920837e-02 1.899200081825256348e-01
-9.140316247940063477e-01 -1.716404780745506287e-02 9.202980995178222656e-02
6.369869709014892578e-01 5.356881394982337952e-02 -1.097849458456039429e-01
-7.292116284370422363e-01 6.028759852051734924e-02 2.991623803973197937e-02
4.595035016536712646e-01 6.970608234405517578e-02 1.165838465094566345e-01
-1.292060315608978271e-01 -3.584096953272819519e-02 -2.806516289710998535e-01
6.018019840121269226e-02 6.035505235195159912e-02 2.275765538215637207e-01
4.721191227436065674e-01 5.709109455347061157e-02 -1.576519608497619629e-01
-2.301723463460803032e-03 -6.259460002183914185e-02 -2.218507528305053711e-01
-3.474380671977996826e-01 6.352450698614120483e-02 -1.821549683809280396e-01
-3.230073451995849609e-01 -7.682275772094726562e-02 -1.234610900282859802e-01
8.426390886306762695e-01 2.880644425749778748e-02 -9.362737089395523071e-02
1.685576289892196655e-01 3.639638051390647888e-02 -2.643106579780578613e-01
-7.914331555366516113e-01 2.455054596066474915e-02 -1.741746366024017334e-01
-3.275107145309448242e-01 6.784762442111968994e-02 -1.653280556201934814e-01
2.889277338981628418e-01 -7.847004383802413940e-02 -1.219618991017341614e-01
1.691945046186447144e-01 7.692197710275650024e-02 -1.184089258313179016e-01
-3.712472915649414062e-01 -7.208583503961563110e-02 -1.437863409519195557e-01
-5.383275151252746582e-01 -1.887477561831474304e-02 -2.559046149253845215e-01
-3.045723736286163330e-01 -3.903695568442344666e-02 -2.638866901397705078e-01
-2.382156848907470703e-01 6.582362949848175049e-02 -1.856583505868911743e-01
-3.048555254936218262e-01 -1.428079232573509216e-02 -2.911600470542907715e-01
8.390609622001647949e-01 4.143558070063591003e-02 -1.383832376450300217e-02
8.510906696319580078e-01 2.781031094491481781e-02 -9.065646678209304810e-02
6.824540495872497559e-01 -6.260277330875396729e-02 -6.967417150735855103e-02
-5.104048252105712891e-01 -7.209367305040359497e-02 -8.847233653068542480e-02
8.357859253883361816e-01 -4.960322007536888123e-02 4.148507863283157349e-02
7.565886974334716797e-01 -3.933123499155044556e-02 1.644020974636077881e-01
4.480767250061035156e-01 4.184613749384880066e-02 -2.132150679826736450e-01
9.548265337944030762e-01 -4.090019967406988144e-03 9.232624620199203491e-02
3.704774379730224609e-01 -7.733297348022460938e-02 -1.091737523674964905e-01
1.685831099748611450e-01 -8.833215385675430298e-02 -2.860569395124912262e-02
-8.788679838180541992e-01 -1.279076281934976578e-02 -1.453343480825424194e-01
-2.679788470268249512e-01 8.148338645696640015e-02 -7.594760507345199585e-02
7.378938794136047363e-01 -5.455843731760978699e-02 -8.715005218982696533e-02
4.728454649448394775e-01 7.123648375272750854e-02 9.480466693639755249e-02
1.667093485593795776e-01 -8.786972612142562866e-02 -4.260851070284843445e-02
-4.824505150318145752e-01 9.145417250692844391e-03 -2.707473933696746826e-01
-6.345531344413757324e-01 -6.750610470771789551e-02 -1.308341417461633682e-02
1.548520028591156006e-01 -7.186520844697952271e-02 1.823907047510147095e-01
-5.370369553565979004e-01 -5.328854918479919434e-02 -1.875072866678237915e-01
-3.655364215373992920e-01 -6.412423402070999146e-02 -1.859281659126281738e-01
3.486011624336242676e-01 4.863199219107627869e-02 2.382467389106750488e-01
8.625856041908264160e-02 -6.390906125307083130e-02 2.175720930099487305e-01
1.120839416980743408e-01 2.586569450795650482e-02 2.976160943508148193e-01
-6.009844541549682617e-01 6.102779880166053772e-02 -1.274092197418212891e-01
-5.944826006889343262e-01 6.800855696201324463e-02 -7.657611370086669922e-02
-5.060913562774658203e-01 7.272757589817047119e-02 8.214627206325531006e-02
-6.363151669502258301e-01 -6.029411777853965759e-02 -1.144952923059463501e-01
8.218076825141906738e-01 3.887836262583732605e-02 -6.338417530059814453e-02
4.344252943992614746e-01 7.591465860605239868e-02 5.123580992221832275e-02
4.017069339752197266e-01 7.799053192138671875e-02 2.838219702243804932e-02
-8.972871303558349609e-01 -1.968734711408615112e-02 1.002567335963249207e-01
-4.763457179069519043e-01 -3.329699113965034485e-02 2.393960505723953247e-01
1.412163861095905304e-02 8.662743121385574341e-02 -1.993990875780582428e-02
-6.312928199768066406e-01 -3.481733612716197968e-03 -2.436732202768325806e-01
-4.367306232452392578e-01 -7.615077495574951172e-02 7.193992286920547485e-02
6.125016212463378906e-01 6.583640724420547485e-02 3.126170113682746887e-02
-4.522040486335754395e-01 -4.965567588806152344e-02 2.074554413557052612e-01
4.348919093608856201e-01 -8.144968003034591675e-02 -1.658120006322860718e-02
4.318652749061584473e-01 -8.141151070594787598e-02 3.321073949337005615e-02
-5.879138112068176270e-01 2.906060405075550079e-02 -2.311209291219711304e-01
8.200434446334838867e-01 -2.411343343555927277e-02 1.687681525945663452e-01
7.297761440277099609e-01 -3.475594799965620041e-03 -1.923443078994750977e-01
-5.128501653671264648e-01 7.599522918462753296e-02 -9.022776037454605103e-03
5.373871326446533203e-01 -8.658934384584426880e-03 -2.459973841905593872e-01
1.910286843776702881e-01 -7.665578275918960571e-02 1.540458351373672485e-01
2.461560070514678955e-01 -8.301069587469100952e-02 -9.250745177268981934e-02
-3.837472498416900635e-01 7.362513244152069092e-02 -1.191972345113754272e-01
-8.618309497833251953e-01 3.794825449585914612e-02 -9.196967631578445435e-02
-5.408121347427368164e-01 -4.977517202496528625e-02 1.840932071208953857e-01
-1.676366627216339111e-01 -8.684474974870681763e-02 -5.125625804066658020e-02
7.929667830467224121e-02 8.626854419708251953e-02 3.355175256729125977e-02
5.763388872146606445e-01 -6.481504440307617188e-02 1.334225684404373169e-01
-7.393010258674621582e-01 5.705630779266357422e-02 -6.875485181808471680e-02
-4.645438194274902344e-01 -7.442285120487213135e-02 7.541168481111526489e-02
-3.537320494651794434e-01 -7.326062023639678955e-02 1.293049901723861694e-01
2.529458701610565186e-01 -8.558186888694763184e-02 6.192441657185554504e-02
-7.074635475873947144e-02 7.468087971210479736e-02 1.645478308200836182e-01
-5.678681135177612305e-01 -1.793808490037918091e-02 -2.507166862487792969e-01
-9.787078499794006348e-01 1.687414385378360748e-02 -1.779726147651672363e-02
-3.568632900714874268e-01 -7.494403421878814697e-02 1.165053993463516235e-01
-3.822883665561676025e-01 5.133088305592536926e-02 -2.198796570301055908e-01
6.912941485643386841e-02 7.034160941839218140e-02 1.870222389698028564e-01
4.136131405830383301e-01 7.563532888889312744e-02 7.530789077281951904e-02
4.764132797718048096e-01 6.300102919340133667e-02 -1.270911544561386108e-01
8.422819897532463074e-03 8.667523413896560669e-02 3.731228783726692200e-02
-3.678882420063018799e-01 4.553164169192314148e-02 2.394037693738937378e-01
3.609000146389007568e-01 -6.757613271474838257e-02 -1.688748747110366821e-01
-2.743833698332309723e-02 8.662059158086776733e-02 -2.473597414791584015e-02
-2.893269062042236328e-01 8.062019944190979004e-02 -8.054710924625396729e-02
3.564808964729309082e-01 -7.788848131895065308e-02 1.175324916839599609e-01
-1.287945657968521118e-01 -5.735290050506591797e-02 2.323334664106369019e-01
-6.162369251251220703e-01 6.288169324398040771e-02 1.054203435778617859e-01
8.970575779676437378e-02 7.455626130104064941e-02 -1.443240791559219360e-01
8.687981367111206055e-01 2.919744141399860382e-02 1.055562347173690796e-01
-6.941618919372558594e-01 5.941208079457283020e-02 -8.650775253772735596e-02
-6.696428060531616211e-01 -3.338424861431121826e-02 1.868025213479995728e-01
-8.919096589088439941e-01 -3.680213913321495056e-02 1.775182224810123444e-02
-7.358570098876953125e-01 -4.171879589557647705e-02 -1.542561203241348267e-01
-5.756776928901672363e-01 3.200931474566459656e-02 2.236444205045700073e-01
1.807210892438888550e-01 -8.852095901966094971e-02 1.232965849339962006e-02
7.892367243766784668e-02 -4.467330127954483032e-02 2.698777019977569580e-01
3.581087589263916016e-01 7.541429996490478516e-02 -7.961551100015640259e-02
-2.553294301033020020e-01 6.634143739938735962e-02 1.897802203893661499e-01
7.370305061340332031e-01 3.435402363538742065e-02 -1.390687674283981323e-01
-6.852406263351440430e-02 8.381873369216918945e-02 -7.532410323619842529e-02
-5.106754302978515625e-01 6.425080448389053345e-02 1.426104158163070679e-01
-1.216510608792304993e-01 1.857746392488479614e-02 -2.953048944473266602e-01
-6.963849067687988281e-01 -4.321617633104324341e-02 1.491360813379287720e-01
-2.682554125785827637e-01 3.709216415882110596e-02 2.687031328678131104e-01
-8.145189881324768066e-01 4.683849215507507324e-02 -8.215559273958206177e-02
4.469719827175140381e-01 7.482354342937469482e-02 -3.279179707169532776e-02
3.399189710617065430e-01 6.196788325905799866e-02 -1.699309945106506348e-01
-6.467178463935852051e-01 3.891905397176742554e-02 1.894738227128982544e-01
-4.854505360126495361e-01 4.951699450612068176e-02 2.068645954132080078e-01
9.744718670845031738e-01 -1.293125189840793610e-02 -1.426556054502725601e-02
4.281047880649566650e-01 6.796734780073165894e-02 -1.137206181883811951e-01
2.249269485473632812e-01 7.240068912506103516e-02 -1.390798240900039673e-01
7.327893972396850586e-01 2.509960718452930450e-02 -1.638167202472686768e-01
-2.003839164972305298e-01 -7.970879971981048584e-02 1.195879280567169189e-01
-5.334785580635070801e-01 -2.200084738433361053e-02 2.433035522699356079e-01
2.363326400518417358e-02 2.266358025372028351e-02 3.019596338272094727e-01
-9.507545232772827148e-01 2.645833604037761688e-02 1.513376273214817047e-02
-5.593458414077758789e-01 6.369395554065704346e-02 -1.284126043319702148e-01
-6.780285835266113281e-01 6.009591370820999146e-02 8.753609657287597656e-02
-9.890540242195129395e-01 9.949874132871627808e-03 -1.977545768022537231e-02
-5.917004346847534180e-01 -5.189761519432067871e-03 -2.524228990077972412e-01
-7.976270914077758789e-01 -2.610953152179718018e-02 -1.673339605331420898e-01
-5.296192169189453125e-01 -7.264254987239837646e-02 -6.734096258878707886e-02
-2.987569570541381836e-01 -7.591495662927627563e-02 -1.361269950866699219e-01
4.513663351535797119e-01 6.266018748283386230e-02 1.656093895435333252e-01
5.854355692863464355e-01 5.488545447587966919e-02 1.584010720252990723e-01
-3.890435397624969482e-01 8.128352463245391846e-02 6.166728679090738297e-03
-4.613751471042633057e-01 -7.816456258296966553e-02 6.625032052397727966e-03
3.924700021743774414e-01 5.245527252554893494e-02 -1.948389410972595215e-01
2.637702822685241699e-01 -8.639256656169891357e-02 3.996421769261360168e-02
-4.179943725466728210e-02 2.025545015931129456e-02 -2.944523096084594727e-01
2.426437437534332275e-01 -4.215518385171890259e-02 -2.587204873561859131e-01
2.483787536621093750e-01 8.177819848060607910e-02 -4.563292860984802246e-02
6.354573369026184082e-01 5.568027123808860779e-02 1.307518482208251953e-01
4.251886308193206787e-01 2.430480532348155975e-02 2.727195620536804199e-01
2.538390159606933594e-01 4.166417941451072693e-02 -2.455817610025405884e-01
4.626094996929168701e-01 2.527200989425182343e-02 -2.416410893201828003e-01
-3.269950747489929199e-01 -8.134159445762634277e-02 6.468743085861206055e-02
5.837856531143188477e-01 5.979678034782409668e-02 1.315344721078872681e-01
2.687664628028869629e-01 -7.494465261697769165e-02 -1.487626433372497559e-01
2.095781266689300537e-01 -4.400332644581794739e-02 -2.584220468997955322e-01
2.524161338806152344e-02 3.041359037160873413e-02 2.934193611145019531e-01
-1.745471954345703125e-01 7.671438902616500854e-02 1.442411541938781738e-01
-3.063505329191684723e-02 7.598175853490829468e-02 -1.420464962720870972e-01
1.672044694423675537e-01 -7.366857677698135376e-02 1.726415902376174927e-01
-7.569112181663513184e-01 -1.806372962892055511e-02 1.805493235588073730e-01
5.563693642616271973e-01 6.197208538651466370e-02 1.304223984479904175e-01
6.688084006309509277e-01 6.141937151551246643e-02 2.556502632796764374e-02
-3.385281264781951904e-01 -8.090797811746597290e-02 6.491126865148544312e-02
6.788825392723083496e-01 -6.149644777178764343e-02 1.014387160539627075e-01
-9.646496176719665527e-02 -8.585467189550399780e-02 -8.341956138610839844e-02
4.004658162593841553e-01 -5.146758630871772766e-02 -2.167175710201263428e-01
-6.011406779289245605e-01 -4.354948550462722778e-02 1.843701601028442383e-01
1.529684476554393768e-02 -8.770245313644409180e-02 -6.544744968414306641e-02
-8.968639969825744629e-01 -3.642643243074417114e-02 -2.946703694760799408e-02
-6.345509290695190430e-01 -3.478271141648292542e-02 1.955626606941223145e-01
-3.026159703731536865e-01 3.610333055257797241e-02 2.664711475372314453e-01
-1.241783946752548218e-01 5.666843801736831665e-02 -2.254645526409149170e-01
3.842053469270467758e-03 8.391154557466506958e-02 -7.277357578277587891e-02
-4.204715192317962646e-01 7.830113917589187622e-02 -5.720771849155426025e-02
-1.636760681867599487e-01 -3.861250123009085655e-03 -3.028665482997894287e-01
3.057507574558258057e-01 -4.555633291602134705e-02 2.559314966201782227e-01
-1.259400099515914917e-01 8.348933607339859009e-02 9.002131968736648560e-02
2.751247882843017578e-01 7.444930076599121094e-02 1.391417682170867920e-01
7.088422775268554688e-01 -6.237901747226715088e-02 6.668520718812942505e-02
4.933798313140869141e-01 5.788560956716537476e-02 1.762477606534957886e-01
-2.646315693855285645e-01 8.319944143295288086e-02 -5.169015005230903625e-02
-9.147007763385772705e-02 -3.850466012954711914e-02 2.778821587562561035e-01
-4.156059920787811279e-01 -7.334434241056442261e-02 -1.215389296412467957e-01
-2.542338967323303223e-01 -8.595069497823715210e-02 5.438134074211120605e-03
2.754276096820831299e-01 8.234115689992904663e-02 -1.251094136387109756e-02
4.562115371227264404e-01 1.240350212901830673e-02 -2.565270960330963135e-01
-1.936784386634826660e-01 7.676240056753158569e-02 1.415972262620925903e-01
-4.211935997009277344e-01 -7.898038625717163086e-02 -5.476093664765357971e-02
3.969659209251403809e-01 -4.350258037447929382e-02 2.494294345378875732e-01
-4.698007702827453613e-01 -6.063196808099746704e-02 -1.771813184022903442e-01
7.003448009490966797e-01 -6.280551850795745850e-02 7.096437364816665649e-02
6.989372968673706055e-01 -4.221166670322418213e-02 -1.575676798820495605e-01
-7.607545256614685059e-01 5.196204036474227905e-02 8.457873016595840454e-02
-9.660909771919250488e-01 -1.921956986188888550e-02 -1.106824353337287903e-02
5.382732748985290527e-01 6.985777616500854492e-02 6.070636957883834839e-02
4.128300771117210388e-02 -7.806650549173355103e-02 1.521064490079879761e-01
5.358074903488159180e-01 2.367995306849479675e-02 -2.280391454696655273e-01
-4.123431146144866943e-01 7.763241976499557495e-02 -7.119935005903244019e-02
7.617136090993881226e-02 -4.873467236757278442e-02 2.611778378486633301e-01
-4.723999500274658203e-01 5.665665864944458008e-02 -1.864350736141204834e-01
1.854936331510543823e-01 7.401525974273681641e-02 -1.357477754354476929e-01
9.019414782524108887e-01 1.550538931041955948e-02 1.207306236028671265e-01
2.638469822704792023e-02 6.098506972193717957e-02 2.260134965181350708e-01
6.369585990905761719e-01 -2.706779353320598602e-02 -2.078712582588195801e-01
-2.928847670555114746e-01 -7.713522017002105713e-02 -1.286615729331970215e-01
1.476165205240249634e-01 6.590366363525390625e-02 2.024994939565658569e-01
6.116577386856079102e-01 3.977543488144874573e-02 2.041406333446502686e-01
9.307637214660644531e-01 -2.638205327093601227e-02 7.859776914119720459e-02
1.792260706424713135e-01 -6.227558106184005737e-02 -2.146127671003341675e-01
7.868469953536987305e-01 4.627629742026329041e-02 8.043641597032546997e-02
4.356680214405059814e-01 2.266871370375156403e-02 -2.501625716686248779e-01
-7.827411890029907227e-01 4.806492850184440613e-02 9.186013787984848022e-02
2.669935822486877441e-01 -8.461381494998931885e-02 -6.724586337804794312e-02
-2.774643301963806152e-01 6.526079028844833374e-02 -1.840424239635467529e-01
-3.933344781398773193e-01 7.983998954296112061e-02 -4.763690009713172913e-02
-6.249456405639648438e-01 4.896716400980949402e-02 -1.731145828962326050e-01
2.502514123916625977e-01 7.914716750383377075e-02 1.044782623648643494e-01
1.176687702536582947e-01 -1.314600184559822083e-02 -2.985168695449829102e-01
2.421929687261581421e-01 -5.565008521080017090e-02 2.363758087158203125e-01
-2.013373523950576782e-01 8.237866312265396118e-02 9.118206053972244263e-02
-2.725948691368103027e-01 5.904230847954750061e-02 2.153299301862716675e-01
2.369313985109329224e-01 -8.295775204896926880e-02 -9.519473463296890259e-02
-1.853711605072021484e-01 7.471042126417160034e-02 -1.447208523750305176e-01
7.117725014686584473e-01 -6.278873234987258911e-02 5.716190114617347717e-02
2.687347121536731720e-02 7.278398424386978149e-02 1.758901476860046387e-01
4.150111079216003418e-01 -4.068531841039657593e-02 -2.379049658775329590e-01
-2.763034403324127197e-01 4.294767975807189941e-02 2.571127116680145264e-01
8.468416333198547363e-02 7.989680022001266479e-02 -1.066295802593231201e-01
-2.947128713130950928e-01 8.357481658458709717e-02 3.631146997213363647e-02
-6.896798610687255859e-01 6.447332352399826050e-02 -1.006492134183645248e-02
-4.401319026947021484e-01 -2.084337407723069191e-03 -2.793973982334136963e-01
-5.820987820625305176e-01 -1.720728725194931030e-02 -2.482673972845077515e-01
-3.177250623703002930e-01 7.550093531608581543e-02 1.281802058219909668e-01
-8.251848816871643066e-01 -3.679876774549484253e-02 -1.203782260417938232e-01
6.349020600318908691e-01 6.329171359539031982e-02 -2.281932346522808075e-02
5.180501341819763184e-01 -6.259767711162567139e-02 1.654654443264007568e-01
-4.010100662708282471e-01 4.810543358325958252e-02 2.277444750070571899e-01
-1.942195594310760498e-01 -8.557521551847457886e-02 5.758883431553840637e-02
3.192331194877624512e-01 -3.341205045580863953e-02 -2.637304961681365967e-01
-5.781198292970657349e-02 -8.877151459455490112e-02 -3.646740317344665527e-02
5.455555915832519531e-01 -7.494888454675674438e-02 5.603427812457084656e-02
-1.740062981843948364e-01 8.621552586555480957e-02 1.898442767560482025e-02
-7.253995537757873535e-01 1.365493331104516983e-02 2.004364728927612305e-01
-6.816918253898620605e-01 -4.345706850290298462e-02 -1.721812933683395386e-01
6.547065917402505875e-03 -7.966651022434234619e-02 -1.430747359991073608e-01
-5.774047970771789551e-01 -6.957272440195083618e-02 5.034455657005310059e-02
2.561649680137634277e-01 -5.259571224451065063e-02 2.436272501945495605e-01
1.679117977619171143e-02 -8.959116041660308838e-02 -1.172087248414754868e-02
3.083608448505401611e-01 -8.236326277256011963e-02 8.830672502517700195e-02
1.760054938495159149e-02 8.700133860111236572e-02 1.207080762833356857e-02
-4.448211789131164551e-01 6.231370195746421814e-02 -1.692656129598617554e-01
9.574276208877563477e-01 -2.024871483445167542e-02 6.069845333695411682e-02
-5.860750675201416016e-01 5.755118280649185181e-02 -1.513630300760269165e-01
-6.287834644317626953e-01 -5.646632239222526550e-02 1.237909570336341858e-01
8.190629482269287109e-01 4.491585493087768555e-02 -9.495106060057878494e-04
3.001304902136325836e-02 8.357476443052291870e-02 -7.499176263809204102e-02
6.875686049461364746e-01 3.897619992494583130e-02 1.795323491096496582e-01
-2.198454737663269043e-02 7.665363699197769165e-02 -1.375503987073898315e-01
-2.236983925104141235e-01 -1.737647503614425659e-02 2.943033277988433838e-01
1.107315793633460999e-01 -2.189150080084800720e-02 -2.937563955783843994e-01
2.711431980133056641e-01 -7.726617902517318726e-02 1.401278078556060791e-01
5.372104793787002563e-02 -6.299667060375213623e-02 2.210558354854583740e-01
-8.067551851272583008e-01 -4.827679693698883057e-02 -6.421052664518356323e-02
3.132677078247070312e-01 -7.829950749874114990e-02 -1.175600662827491760e-01
-5.215483903884887695e-01 -7.496927678585052490e-02 4.096002317965030670e-03
-3.385072648525238037e-01 -7.344818115234375000e-02 -1.433604806661605835e-01
-1.553355902433395386e-01 -5.636331439018249512e-02 -2.368718534708023071e-01
4.156218469142913818e-01 -7.103044539690017700e-02 1.493321210145950317e-01
-7.395432330667972565e-03 6.088411808013916016e-02 -2.118307799100875854e-01
-7.720477581024169922e-01 -5.177061632275581360e-02 -7.314191013574600220e-02
8.361540436744689941e-01 4.236467927694320679e-02 -3.766373498365283012e-03
-1.767778247594833374e-01 -6.141667440533638000e-02 2.150545567274093628e-01
2.112890630960464478e-01 8.402092754840850830e-02 -1.333016436547040939e-02
4.640453159809112549e-01 4.139423742890357971e-02 2.367293685674667358e-01
-1.257553510367870331e-02 -7.812598347663879395e-02 1.506332606077194214e-01
3.946362733840942383e-01 -5.521854758262634277e-02 -2.073781788349151611e-01
-1.945327222347259521e-01 -2.657307079061865807e-03 3.031986951828002930e-01
-6.751761585474014282e-02 -8.903793990612030029e-02 -2.306815609335899353e-02
-1.823205649852752686e-01 7.214534282684326172e-02 -1.597908735275268555e-01
5.779063701629638672e-01 4.045902565121650696e-02 -1.831487119197845459e-01
-5.972344279289245605e-01 5.143807455897331238e-02 -1.730809658765792847e-01
-3.225182592868804932e-01 -4.970167949795722961e-02 2.317077219486236572e-01
-8.704124689102172852e-01 -3.345299139618873596e-02 -9.766069054603576660e-02
2.680905163288116455e-01 -2.373920287936925888e-03 -2.887648940086364746e-01
-4.998267590999603271e-01 7.642354816198348999e-02 -2.133738435804843903e-02
5.493971109390258789e-01 4.951272904872894287e-02 1.929289698600769043e-01
5.443500876426696777e-01 -9.188678115606307983e-03 2.665421962738037109e-01
-1.267000585794448853e-01 -7.587935030460357666e-02 -1.610831916332244873e-01
-7.357839941978454590e-01 5.822859331965446472e-02 -5.927759408950805664e-02
-7.022027373313903809e-01 6.134789809584617615e-02 -5.896284431219100952e-02
6.918764710426330566e-01 5.932582542300224304e-02 2.921914681792259216e-02
6.720945835113525391e-01 -6.566178798675537109e-02 6.548947095870971680e-02
1.073091104626655579e-02 -8.585803955793380737e-02 -9.035430848598480225e-02
-8.053126186132431030e-02 -7.677845656871795654e-02 1.548434495925903320e-01
9.094980359077453613e-01 9.608718566596508026e-03 1.253444403409957886e-01
8.937885761260986328e-01 3.039137646555900574e-02 -2.953993715345859528e-02
-1.520572453737258911e-01 8.653759211301803589e-02 3.254414070397615433e-03
2.583758831024169922e-01 -4.700430110096931458e-02 2.570075988769531250e-01
-5.650410056114196777e-01 2.420588769018650055e-02 2.370693981647491455e-01
-4.707341492176055908e-01 -2.345134690403938293e-02 2.546694874763488770e-01
-3.053481876850128174e-02 7.797753065824508667e-02 -1.286752521991729736e-01
-6.474737524986267090e-01 6.595893949270248413e-02 5.283059924840927124e-02
-3.553877472877502441e-01 -8.224302530288696289e-02 2.780633792281150818e-02
1.093765795230865479e-01 3.570759901776909828e-03 3.111960291862487793e-01
-3.471857607364654541e-01 -7.691686600446701050e-02 -1.156500801444053650e-01
1.579180806875228882e-01 -8.434715867042541504e-02 9.775289148092269897e-02
1.709636896848678589e-01 5.434176698327064514e-02 -2.221978008747100830e-01
-5.640230178833007812e-01 4.505638033151626587e-02 -2.026062458753585815e-01
7.532377839088439941e-01 -1.217725407332181931e-02 -1.817916333675384521e-01
3.743457496166229248e-01 7.051479816436767578e-02 1.414256989955902100e-01
8.086647391319274902e-01 2.614959143102169037e-02 1.583365947008132935e-01
-3.983859121799468994e-01 5.524075403809547424e-02 -2.053253501653671265e-01
-4.365666806697845459e-01 3.513196483254432678e-02 -2.492416948080062866e-01
-4.186311960220336914e-01 7.258877158164978027e-02 -1.170441135764122009e-01
2.437353134155273438e-01 -7.593274861574172974e-02 -1.470970660448074341e-01
-5.954453945159912109e-01 -5.061250925064086914e-02 1.633643060922622681e-01
5.459440946578979492e-01 -6.969305872917175293e-02 -9.847684204578399658e-02
3.016567230224609375e-01 2.061960473656654358e-02 2.914564609527587891e-01
3.382744491100311279e-01 -8.479236066341400146e-02 -2.258570678532123566e-02
-4.124256670475006104e-01 7.872906327247619629e-02 -5.518482998013496399e-02
-5.502950549125671387e-01 -6.366960704326629639e-02 1.192547008395195007e-01
-2.417051643133163452e-01 4.852185770869255066e-02 -2.422648817300796509e-01
3.144877851009368896e-01 -8.544985204935073853e-02 3.051142022013664246e-02
-5.527592301368713379e-01 4.830489680171012878e-02 1.932430267333984375e-01
-5.916717648506164551e-01 -5.852600932121276855e-02 1.301411986351013184e-01
1.641122847795486450e-01 6.166772171854972839e-02 2.178672105073928833e-01
-6.805805116891860962e-02 7.890015840530395508e-02 -1.220372542738914490e-01
3.090710006654262543e-02 5.557822808623313904e-02 2.429504990577697754e-01
1.781770028173923492e-02 -5.526472255587577820e-02 -2.432747036218643188e-01
3.396061360836029053e-01 -3.963512554764747620e-02 -2.515631914138793945e-01
3.726846277713775635e-01 6.441119313240051270e-02 -1.509819775819778442e-01
-2.141889780759811401e-01 -5.947433784604072571e-02 2.175484001636505127e-01
-5.790358185768127441e-01 7.233709841966629028e-02 7.937669754028320312e-03
9.773185253143310547e-01 -5.584220401942729950e-03 -1.924438029527664185e-02
-2.567957937717437744e-01 7.440169155597686768e-02 -1.387922912836074829e-01
-3.541961908340454102e-01 -2.067357674241065979e-02 -2.819815874099731445e-01
-1.967920064926147461e-01 -7.430386543273925781e-02 1.559938043355941772e-01
7.404330968856811523e-01 -7.057356648147106171e-03 -1.882735639810562134e-01
-9.040743112564086914e-01 -3.312599658966064453e-02 3.294216841459274292e-02
1.943503171205520630e-01 7.242818176746368408e-02 -1.440601050853729248e-01
7.950652837753295898e-01 2.814454957842826843e-02 -1.266584843397140503e-01
-8.086165189743041992e-01 4.618122056126594543e-02 -9.206977486610412598e-02
8.559717535972595215e-01 -1.574571244418621063e-02 1.613434106111526489e-01
-2.603269815444946289e-01 -6.395047903060913086e-02 -2.029569745063781738e-01
9.516142606735229492e-01 1.591751910746097565e-02 -1.825540512800216675e-02
-8.323779106140136719e-01 -9.440747089684009552e-03 1.558101624250411987e-01
-4.147725403308868408e-01 -7.536561042070388794e-02 9.129114449024200439e-02
-2.813832461833953857e-01 -3.600898385047912598e-02 2.661640942096710205e-01
-6.225876510143280029e-02 6.570903956890106201e-02 -1.941553354263305664e-01
4.452611133456230164e-02 -7.669436931610107422e-02 -1.606727689504623413e-01
-1.823552697896957397e-01 -6.458987295627593994e-02 -2.084027528762817383e-01
6.073347926139831543e-01 1.658946275711059570e-03 -2.289272546768188477e-01
-5.768957138061523438e-01 5.704784020781517029e-02 1.544105708599090576e-01
7.564107775688171387e-01 4.040599614381790161e-02 1.408239603042602539e-01
-4.374203681945800781e-01 -7.491126656532287598e-02 -9.908794611692428589e-02
9.070901274681091309e-01 3.029704838991165161e-02 2.309764549136161804e-02
-2.609923183917999268e-01 -7.939364761114120483e-02 -1.181471347808837891e-01
-3.768487572669982910e-01 8.077333867549896240e-02 -3.979032114148139954e-02
-8.706498891115188599e-02 -6.055985763669013977e-02 -2.273475080728530884e-01
7.543628215789794922e-01 -4.606555774807929993e-02 1.423564404249191284e-01
1.143632829189300537e-01 -7.561184465885162354e-02 1.650854498147964478e-01
5.157040953636169434e-01 2.585082873702049255e-02 2.551138103008270264e-01
-1.523294001817703247e-01 -8.133880794048309326e-02 -1.214826777577400208e-01
3.379654586315155029e-01 -6.634448468685150146e-02 -1.786772161722183228e-01
5.086566209793090820e-01 -7.173102349042892456e-02 1.142319813370704651e-01
-5.539540052413940430e-01 6.869297474622726440e-02 9.416619688272476196e-02
-9.736164212226867676e-01 -1.270855963230133057e-02 -4.804457351565361023e-02
3.220263421535491943e-01 6.234545633196830750e-02 -1.719608306884765625e-01
-1.095176935195922852e-01 1.363248471170663834e-02 3.052289485931396484e-01
-5.568103790283203125e-01 1.497228909283876419e-02 -2.540407776832580566e-01
3.184011876583099365e-01 4.423100128769874573e-02 2.531327605247497559e-01
-3.831869363784790039e-01 2.118612080812454224e-02 -2.754061520099639893e-01
3.715279102325439453e-01 7.933256775140762329e-02 9.403142146766185760e-03
6.884105801582336426e-01 -6.628702580928802490e-02 1.037017907947301865e-03
1.302334219217300415e-01 -8.881003409624099731e-02 2.806401997804641724e-02
-4.943381547927856445e-01 1.842539943754673004e-02 2.578547596931457520e-01
-9.272226691246032715e-01 1.360702142119407654e-02 9.403632581233978271e-02
-4.837082326412200928e-01 2.856162935495376587e-02 -2.523551285266876221e-01
8.398222327232360840e-01 -2.914887294173240662e-02 1.480141878128051758e-01
1.840442605316638947e-02 6.692816317081451416e-02 2.036190032958984375e-01
3.020743429660797119e-01 -5.523553118109703064e-02 -2.222695350646972656e-01
2.814665138721466064e-01 -4.032286629080772400e-02 -2.577582001686096191e-01
7.904481142759323120e-02 4.000667855143547058e-02 2.781335711479187012e-01
7.222345471382141113e-01 -3.187130019068717957e-02 1.962643563747406006e-01
-3.971653804183006287e-02 6.848368793725967407e-02 1.966627538204193115e-01
-1.520961374044418335e-01 -3.205612674355506897e-02 -2.849880754947662354e-01
-6.781933903694152832e-01 -5.400367081165313721e-02 -1.296705603599548340e-01
1.059745550155639648e-01 7.167109847068786621e-02 -1.592393666505813599e-01
5.297027826309204102e-01 -3.108990378677845001e-02 2.494883239269256592e-01
5.744729563593864441e-02 8.426804840564727783e-02 8.189720660448074341e-02
2.131232917308807373e-01 6.518568843603134155e-02 1.994879990816116333e-01
-4.413778185844421387e-01 6.142975762486457825e-02 1.760097295045852661e-01
8.694452047348022461e-02 6.977944076061248779e-02 -1.705333739519119263e-01
-3.401575684547424316e-01 4.944258928298950195e-02 -2.306007891893386841e-01
4.142057895660400391e-01 7.721086591482162476e-02 -1.103404536843299866e-02
-3.667243719100952148e-01 -7.628186047077178955e-02 1.024568974971771240e-01
-6.544849276542663574e-01 3.496589511632919312e-02 1.955997645854949951e-01
-1.386583596467971802e-01 -6.948509812355041504e-02 -1.919596195220947266e-01
-9.999535232782363892e-02 -7.095907628536224365e-02 -1.876678168773651123e-01
6.746733933687210083e-02 -8.628343790769577026e-02 8.282998949289321899e-02
-8.928463608026504517e-02 8.561711758375167847e-02 -4.701570421457290649e-02
5.821856260299682617e-01 5.865146219730377197e-02 -1.080620512366294861e-01
1.162746921181678772e-01 -7.445831783115863800e-03 3.102311789989471436e-01
6.430516242980957031e-01 5.598974227905273438e-02 1.244705170392990112e-01
6.777854561805725098e-01 -2.289696969091892242e-02 -2.001404464244842529e-01
2.282448261976242065e-01 7.356493920087814331e-02 1.540893167257308960e-01
-4.037474691867828369e-01 -7.944684475660324097e-02 4.660192877054214478e-02
-5.179349184036254883e-01 5.282246693968772888e-02 1.886410713195800781e-01
7.986128926277160645e-01 -5.370450019836425781e-02 -3.067037649452686310e-02
-4.431216120719909668e-01 -7.386286556720733643e-02 -1.063563525676727295e-01
-4.374899268150329590e-01 -6.805519759654998779e-02 -1.494721174240112305e-01
4.688104987144470215e-01 -4.495556280016899109e-02 -2.189662456512451172e-01
-2.087697684764862061e-01 6.663091480731964111e-02 -1.846452802419662476e-01
-2.909301221370697021e-01 6.959886848926544189e-02 1.692283451557159424e-01
3.760150969028472900e-01 -8.309587836265563965e-02 -3.608828037977218628e-02
-8.774836659431457520e-01 2.632848359644412994e-02 -1.233111098408699036e-01
1.515570133924484253e-01 -7.669244706630706787e-02 -1.542091071605682373e-01
-5.754114389419555664e-01 2.634807303547859192e-02 -2.379597425460815430e-01
-7.007191777229309082e-01 6.002204120159149170e-02 -7.551657408475875854e-02
5.081471204757690430e-01 6.834015250205993652e-02 1.042219325900077820e-01
6.662614345550537109e-01 6.134252622723579407e-02 -6.071807816624641418e-03
-4.397048652172088623e-01 -1.664292253553867340e-02 -2.742432653903961182e-01
-9.083051085472106934e-01 -3.018895909190177917e-02 -7.098182290792465210e-02
6.174988746643066406e-01 -3.188097849488258362e-02 -2.067535519599914551e-01
-5.424996614456176758e-01 -1.421243138611316681e-02 2.487126886844635010e-01
-7.782424986362457275e-02 -8.785213530063629150e-02 4.975179955363273621e-02
-7.456880211830139160e-01 5.945400521159172058e-02 8.354834280908107758e-04
-3.191854655742645264e-01 6.698831915855407715e-02 1.770734190940856934e-01
7.889748811721801758e-01 2.971252799034118652e-02 1.596004068851470947e-01
-5.969712138175964355e-01 9.647112339735031128e-03 2.404876202344894409e-01
-4.261254370212554932e-01 3.390940651297569275e-02 -2.528862953186035156e-01
-6.701163202524185181e-02 8.248014375567436218e-03 3.091715872287750244e-01
-1.298388093709945679e-01 6.641433387994766235e-02 2.017008811235427856e-01
-3.788836300373077393e-01 -8.130383491516113281e-02 2.859067171812057495e-02
3.952397406101226807e-01 2.667547017335891724e-02 2.740654349327087402e-01
4.013877362012863159e-02 7.658235728740692139e-02 -1.353462487459182739e-01
7.040429860353469849e-02 6.141613796353340149e-02 2.236568629741668701e-01
-6.951563358306884766e-01 4.332508146762847900e-02 1.596685051918029785e-01
4.777939319610595703e-01 5.341623723506927490e-02 -1.707821041345596313e-01
6.504731178283691406e-01 -6.777969002723693848e-02 5.962850898504257202e-02
4.894997552037239075e-02 4.629592597484588623e-02 -2.516386508941650391e-01
-2.667619585990905762e-01 -7.514806836843490601e-02 -1.476662158966064453e-01
-6.839549541473388672e-01 6.140331551432609558e-02 -7.622002810239791870e-02
2.299376577138900757e-01 7.656867802143096924e-02 -1.092485189437866211e-01
-5.491703152656555176e-01 7.396077364683151245e-02 -1.650212518870830536e-02
1.441123634576797485e-01 8.558765053749084473e-02 2.232728525996208191e-02
-4.734867215156555176e-01 3.982187435030937195e-02 -2.341533154249191284e-01
-2.544463276863098145e-01 -7.559215277433395386e-02 -1.470552533864974976e-01
5.634531378746032715e-01 5.722915381193161011e-02 -1.246849969029426575e-01
-2.684998810291290283e-01 -4.515997692942619324e-02 2.500281035900115967e-01
-4.451180994510650635e-01 -6.331943720579147339e-02 -1.716818660497665405e-01
-2.084246575832366943e-01 7.220277190208435059e-02 -1.573226004838943481e-01
7.359956949949264526e-02 -7.919722050428390503e-02 -1.444654762744903564e-01
8.234626650810241699e-01 4.359728470444679260e-02 -1.618823409080505371e-02
-5.716363191604614258e-01 -2.734537236392498016e-02 -2.394194602966308594e-01
-6.870003938674926758e-01 2.928704395890235901e-02 -2.041990309953689575e-01
2.432966232299804688e-01 -3.246829286217689514e-02 -2.734392583370208740e-01
-6.870209574699401855e-01 -4.828410595655441284e-02 -1.523325890302658081e-01
-3.666868209838867188e-01 1.597169227898120880e-02 -2.818485498428344727e-01
-2.571448683738708496e-01 -8.286245167255401611e-02 -8.403088152408599854e-02
-6.168029308319091797e-01 3.309800848364830017e-02 2.106681019067764282e-01
-7.755924016237258911e-02 -4.172439128160476685e-02 -2.725040614604949951e-01
-3.268016874790191650e-01 7.502385973930358887e-02 1.294869929552078247e-01
1.857692599296569824e-01 5.635154247283935547e-02 2.340953648090362549e-01
-6.628780961036682129e-01 -5.661769956350326538e-02 -1.231011375784873962e-01
-2.231443971395492554e-01 4.825301468372344971e-02 2.510250508785247803e-01
8.477094173431396484e-01 1.607901602983474731e-02 1.572451442480087280e-01
-4.890593588352203369e-01 -4.278266802430152893e-02 2.171814143657684326e-01
4.315740615129470825e-02 8.269990980625152588e-02 -8.395092934370040894e-02
1.695759892463684082e-01 4.945542663335800171e-02 -2.360073179006576538e-01
-6.215413808822631836e-01 -6.267531961202621460e-02 -1.058112159371376038e-01
1.596307158470153809e-01 3.239640267565846443e-03 3.097115457057952881e-01
1.670159101486206055e-01 8.171150833368301392e-02 -7.455305755138397217e-02
4.728597402572631836e-01 -6.636974960565567017e-02 1.598186045885086060e-01
-8.183439970016479492e-01 -4.543678462505340576e-02 -7.647395133972167969e-02
1.277490705251693726e-01 -3.516194969415664673e-02 -2.786672115325927734e-01
-4.651470482349395752e-01 5.923390388488769531e-03 2.694166898727416992e-01
-5.789982080459594727e-01 2.553978189826011658e-02 2.320931255817413330e-01
-6.852378249168395996e-01 6.466130167245864868e-02 1.602250523865222931e-02
-9.837950468063354492e-01 1.424868032336235046e-02 -8.662112988531589508e-03
-5.599965900182723999e-02 -7.735868543386459351e-02 1.531215757131576538e-01
-5.770733356475830078e-01 -2.792854793369770050e-02 2.248127758502960205e-01
-7.202423214912414551e-01 3.206278197467327118e-04 -2.194724380970001221e-01
2.210968732833862305e-01 5.005988851189613342e-02 -2.291297763586044312e-01
3.407996892929077148e-01 -7.994244247674942017e-02 -9.602117538452148438e-02
-2.561078071594238281e-01 7.946069538593292236e-02 1.097977161407470703e-01
5.878199934959411621e-01 6.549330055713653564e-02 -4.552718997001647949e-02
-1.954365670680999756e-01 6.595820188522338867e-02 -1.885245144367218018e-01
-5.240050554275512695e-01 4.097776859998703003e-02 -2.219738513231277466e-01
-5.167122483253479004e-01 7.481178641319274902e-02 -4.285378381609916687e-02
2.620283961296081543e-01 1.217451691627502441e-02 -2.843466997146606445e-01
-4.301938712596893311e-01 -6.924277544021606445e-02 1.314315199851989746e-01
5.585687160491943359e-01 5.367422848939895630e-02 -1.437372565269470215e-01
9.660043120384216309e-01 -2.085383795201778412e-02 2.741459570825099945e-02
-4.623577371239662170e-02 -6.568045169115066528e-02 2.091990709304809570e-01
2.951503992080688477e-01 -5.931954458355903625e-02 -2.110924273729324341e-01
-6.206717491149902344e-01 6.834539771080017090e-02 -4.859513789415359497e-02
-2.240126254037022591e-03 7.650759816169738770e-02 1.545542925596237183e-01
4.811736345291137695e-01 3.033861517906188965e-02 -2.299501299858093262e-01
7.835850119590759277e-01 3.774223104119300842e-02 1.352322548627853394e-01
-2.259860038757324219e-01 1.382898073643445969e-02 2.974781990051269531e-01
-1.483896225690841675e-01 -6.125328317284584045e-02 -2.224035412073135376e-01
-2.270913869142532349e-01 5.984553322196006775e-02 2.179086506366729736e-01
-2.961656451225280762e-01 -5.697155743837356567e-02 2.146626561880111694e-01
-9.804841876029968262e-01 -1.208974048495292664e-02 -2.766351960599422455e-02
-6.108352169394493103e-02 -7.310083508491516113e-02 -1.791693568229675293e-01
-7.109888792037963867e-01 5.873369425535202026e-02 7.292962074279785156e-02
5.025874972343444824e-01 -5.113656818866729736e-02 2.117584645748138428e-01
1.587741225957870483e-01 -5.685096606612205505e-02 -2.327804267406463623e-01
-2.325115799903869629e-01 8.440136164426803589e-02 5.084780603647232056e-02
1.937900632619857788e-01 8.469281345605850220e-02 1.768141239881515503e-02
-1.860289126634597778e-01 -8.670073002576828003e-02 3.852809965610504150e-02
2.958130538463592529e-01 7.794909924268722534e-02 1.030424684286117554e-01
9.309192895889282227e-01 -3.233997523784637451e-02 3.132326155900955200e-02
4.793735742568969727e-01 -3.636755794286727905e-02 2.502805590629577637e-01
-2.679471671581268311e-01 -8.305958658456802368e-02 6.741642206907272339e-02
6.295075267553329468e-02 -8.812398463487625122e-02 5.528270825743675232e-02
-7.361962795257568359e-01 5.178334936499595642e-02 1.036695390939712524e-01
-1.486084982752799988e-02 8.026906847953796387e-02 1.273435801267623901e-01
-5.851941108703613281e-01 -2.927997708320617676e-02 2.205061316490173340e-01
3.998185098171234131e-01 -3.834207728505134583e-02 -2.445995062589645386e-01
5.835277438163757324e-01 5.175883322954177856e-02 1.731902211904525757e-01
4.653095304965972900e-01 -5.893141031265258789e-02 1.940314173698425293e-01
8.413953781127929688e-01 2.514499612152576447e-02 -1.063929051160812378e-01
3.833857774734497070e-01 -6.115758791565895081e-02 2.015069574117660522e-01
8.363776803016662598e-01 -3.939045593142509460e-02 1.177127063274383545e-01
7.578736543655395508e-01 1.506444904953241348e-02 -1.696916520595550537e-01
6.571481823921203613e-01 2.203822880983352661e-02 -1.968624740839004517e-01
4.652966931462287903e-02 -8.875246345996856689e-02 4.246420040726661682e-02
5.321657657623291016e-02 7.175342738628387451e-02 1.805723458528518677e-01
7.420750707387924194e-02 5.498534813523292542e-02 2.438828647136688232e-01
-7.017017006874084473e-01 6.335014849901199341e-02 -1.767292059957981110e-02
3.571811020374298096e-01 -7.655987143516540527e-02 1.276703327894210815e-01
3.918278217315673828e-02 -8.476479351520538330e-02 -1.016771420836448669e-01
3.626977503299713135e-01 7.879945635795593262e-02 5.575596168637275696e-02
1.338955760002136230e-01 -8.195638656616210938e-02 -1.202923655509948730e-01
4.557485580444335938e-01 2.893429016694426537e-03 -2.615819871425628662e-01
1.799227148294448853e-01 -7.322799414396286011e-02 1.740015447139739990e-01
-1.870160549879074097e-01 6.931616365909576416e-02 -1.739129126071929932e-01
-4.509771168231964111e-01 5.729172006249427795e-02 -1.885706037282943726e-01
-2.372206598520278931e-01 4.448667541146278381e-02 -2.520567774772644043e-01
-5.873107910156250000e-01 -6.928092241287231445e-02 4.430219903588294983e-02
7.149263471364974976e-02 8.010709285736083984e-02 -1.062577217817306519e-01
-2.252344042062759399e-01 8.536048978567123413e-02 -1.277906168252229691e-02
8.445668816566467285e-01 4.111222550272941589e-02 -3.241741331294178963e-03
3.637907207012176514e-01 3.004273772239685059e-02 -2.519498765468597412e-01
-1.777159050107002258e-04 -8.312983810901641846e-02 1.146598979830741882e-01
-5.032303929328918457e-01 -6.170557066798210144e-02 1.483231633901596069e-01
-7.693020701408386230e-01 3.443554788827896118e-02 1.516581475734710693e-01
-4.804336130619049072e-01 -5.796253308653831482e-02 -1.853255331516265869e-01
2.025396972894668579e-01 7.197416573762893677e-02 1.674266159534454346e-01
3.580487370491027832e-01 4.917732626199722290e-02 2.353686094284057617e-01
4.702822566032409668e-01 6.169956550002098083e-02 1.648914664983749390e-01
-2.108880877494812012e-01 -6.386812031269073486e-02 -2.085850387811660767e-01
-7.946761846542358398e-01 -2.615461871027946472e-02 1.500093340873718262e-01
3.666834831237792969e-01 1.806049793958663940e-02 -2.665035128593444824e-01
5.117326229810714722e-02 5.748029053211212158e-02 -2.211296558380126953e-01
5.161755084991455078e-01 7.069710642099380493e-02 -3.862631320953369141e-02
3.150717020034790039e-01 8.140105754137039185e-02 1.023472379893064499e-02
1.619435846805572510e-01 5.944551527500152588e-02 2.258374840021133423e-01
-2.102193236351013184e-01 8.566562086343765259e-02 2.088079228997230530e-02
2.625314891338348389e-01 -7.984223216772079468e-02 1.227672696113586426e-01
-3.506597578525543213e-01 -8.200173079967498779e-02 -5.086493119597434998e-02
3.871196508407592773e-01 7.549984753131866455e-02 -6.493926048278808594e-02
2.058674693107604980e-01 7.908396422863006592e-02 1.159695163369178772e-01
-5.461062788963317871e-01 7.425542175769805908e-02 7.885263301432132721e-03
-3.998773694038391113e-01 -3.463652729988098145e-02 -2.596601247787475586e-01
-8.641582727432250977e-01 -3.869228065013885498e-02 5.083999037742614746e-02
-8.729061484336853027e-01 -4.079208523035049438e-02 4.244726151227951050e-03
-6.806778311729431152e-01 5.132556334137916565e-02 -1.426729708909988403e-01
-9.873451292514801025e-02 8.680886030197143555e-02 -1.111605018377304077e-02
6.006854772567749023e-01 -6.829541176557540894e-02 -7.876987010240554810e-02
-4.170521199703216553e-01 6.110734120011329651e-02 -1.802634745836257935e-01
3.497709929943084717e-01 4.257427155971527100e-02 -2.300603389739990234e-01
-3.000046610832214355e-01 -5.781875550746917725e-02 -2.193975001573562622e-01
-6.265521049499511719e-01 4.610431939363479614e-02 1.769952923059463501e-01
-8.803467750549316406e-01 4.243449866771697998e-02 -8.250699378550052643e-03
3.151549696922302246e-01 6.463016569614410400e-02 -1.630466729402542114e-01
-4.931635260581970215e-01 -7.338201999664306641e-02 6.936433911323547363e-02
5.771662592887878418e-01 5.694559961557388306e-02 1.513058543205261230e-01
-5.261176824569702148e-01 5.747688189148902893e-02 -1.701245605945587158e-01
-3.794302940368652344e-01 5.617193505167961121e-02 -2.051703631877899170e-01
-1.256272643804550171e-01 -4.757210984826087952e-02 2.580570280551910400e-01
1.771205067634582520e-01 7.060363143682479858e-02 1.778893470764160156e-01
4.792951047420501709e-01 7.223421335220336914e-02 -4.777755215764045715e-02
6.017961502075195312e-01 3.823864459991455078e-02 2.111030220985412598e-01
6.047121286392211914e-01 6.485903263092041016e-02 6.940808892250061035e-02
-9.111684560775756836e-01 1.770422607660293579e-02 -1.179501190781593323e-01
-6.493021249771118164e-01 -6.066938489675521851e-02 8.501278609037399292e-02
-4.591825902462005615e-01 -7.748612016439437866e-02 3.364777565002441406e-02
