4.542899131774902344e-01 -1.056534051895141602e-02 6.110689043998718262e-02
6.966711282730102539e-01 1.081991791725158691e-01 9.723124653100967407e-02
4.261050820350646973e-01 2.836072444915771484e-01 -4.049685597419738770e-02
4.347377419471740723e-01 3.270953297615051270e-01 -8.270148932933807373e-02
5.733268857002258301e-01 -6.125107407569885254e-01 3.484642878174781799e-02
5.078309774398803711e-01 -2.991337776184082031e-01 1.079766973853111267e-01
3.704217672348022461e-01 -1.856299191713333130e-01 -1.123438403010368347e-01
4.493326544761657715e-01 -5.252761393785476685e-02 -1.293549984693527222e-01
6.369677782058715820e-01 2.070771306753158569e-01 -8.699725568294525146e-02
4.814825057983398438e-01 -4.349348545074462891e-01 -8.347208797931671143e-02
5.329798460006713867e-01 -5.877987146377563477e-01 9.694811701774597168e-02
3.858600854873657227e-01 -2.383882179856300354e-02 8.302532136440277100e-03
4.871233701705932617e-01 1.466696709394454956e-01 -1.307467967271804810e-01
6.064088940620422363e-01 4.657700061798095703e-01 -9.338127821683883667e-02
3.236252665519714355e-01 -4.514539837837219238e-01 -3.936900943517684937e-02
4.773252308368682861e-01 3.807658553123474121e-01 -1.062257066369056702e-01
3.648857176303863525e-01 -2.722127735614776611e-02 -1.034923568367958069e-01
4.677338600158691406e-01 1.459375917911529541e-01 4.382985085248947144e-02
6.708992123603820801e-01 2.586830854415893555e-01 -6.751933693885803223e-02
5.952388644218444824e-01 -5.184556245803833008e-01 9.414131194353103638e-02
4.327761232852935791e-01 -5.959683656692504883e-01 -6.138424947857856750e-02
4.623403847217559814e-01 -4.963071942329406738e-01 9.290649741888046265e-02
6.996037960052490234e-01 3.681825995445251465e-01 6.451563537120819092e-02
4.941790699958801270e-01 4.079552888870239258e-01 -7.398945279419422150e-03
6.861584186553955078e-01 -2.736748456954956055e-01 6.261685490608215332e-02
6.408043503761291504e-01 3.763231635093688965e-01 6.774135679006576538e-02
5.457105636596679688e-01 -1.711787879467010498e-01 1.130146682262420654e-01
4.921594858169555664e-01 1.258496344089508057e-01 -1.305454969406127930e-01
4.358075857162475586e-01 -6.096222996711730957e-01 7.518380880355834961e-02
6.892095208168029785e-01 1.939173787832260132e-01 9.259639680385589600e-02
3.285084366798400879e-01 -4.076021313667297363e-01 -1.497631892561912537e-02
7.225788831710815430e-01 2.765409648418426514e-03 1.693282648921012878e-02
6.351308822631835938e-01 -2.640470862388610840e-01 -3.142827004194259644e-02
5.513461828231811523e-01 -2.627788782119750977e-01 -8.488208055496215820e-02
6.050822734832763672e-01 7.824033498764038086e-02 -9.655382484197616577e-02
6.832022666931152344e-01 5.284886360168457031e-01 -3.980573266744613647e-02
3.374273478984832764e-01 -1.270099431276321411e-01 -7.214315980672836304e-02
5.866066813468933105e-01 2.264952212572097778e-01 8.362685889005661011e-02
4.723832607269287109e-01 1.943105906248092651e-01 -1.292346864938735962e-01
7.103111743927001953e-01 4.697664380073547363e-01 3.066436760127544403e-02
6.543586254119873047e-01 -2.398154884576797485e-01 1.110068634152412415e-01
4.690482020378112793e-01 -7.143462896347045898e-01 -8.680749684572219849e-03
5.123028755187988281e-01 2.858646512031555176e-01 4.219989851117134094e-02
4.943652153015136719e-01 -6.670649647712707520e-01 8.076823502779006958e-02
3.807381689548492432e-01 1.377070695161819458e-01 -6.969147920608520508e-02
3.630589842796325684e-01 -6.563284993171691895e-02 -1.128406543284654617e-02
6.723562479019165039e-01 -1.109831631183624268e-01 1.102559044957160950e-01
6.079075932502746582e-01 5.870309472084045410e-01 -9.722750633955001831e-03
6.436007022857666016e-01 -4.219754338264465332e-01 3.515790030360221863e-02
6.699134707450866699e-01 -2.472375035285949707e-01 1.790021546185016632e-03
5.424898266792297363e-01 5.330008864402770996e-01 -8.117619156837463379e-02
4.777874350547790527e-01 -3.703775405883789062e-01 9.961164742708206177e-02
3.785726726055145264e-01 -2.576292157173156738e-01 -1.116164401173591614e-01
6.858769059181213379e-01 -2.452692389488220215e-02 -2.937699668109416962e-02
3.507092297077178955e-01 -1.121097430586814880e-01 -9.718159586191177368e-02
4.147837460041046143e-01 2.690705657005310059e-01 -6.530901044607162476e-02
5.754244327545166016e-01 -5.911237597465515137e-01 2.055096626281738281e-02
3.913251161575317383e-01 -4.108214378356933594e-01 -9.811493009328842163e-02
5.247335433959960938e-01 4.135184288024902344e-01 -6.458641588687896729e-02
6.308473348617553711e-01 1.663495600223541260e-01 -1.173613741993904114e-01
1.732539832592010498e-01 6.413739919662475586e-01 2.140366844832897186e-02
-3.776861429214477539e-01 2.840724587440490723e-01 -3.555069267749786377e-01
-3.185572326183319092e-01 2.475769817829132080e-01 3.396201729774475098e-01
-8.873452246189117432e-02 -2.324715256690979004e-02 4.268503189086914062e-02
-3.814952671527862549e-01 3.904260694980621338e-01 -4.005286693572998047e-01
-2.576776146888732910e-01 1.114197224378585815e-01 -2.909338772296905518e-01
5.736345052719116211e-01 4.982559382915496826e-02 -2.070527374744415283e-01
2.859007120132446289e-01 5.160011649131774902e-01 -3.640470802783966064e-01
6.147003173828125000e-01 2.572240233421325684e-01 1.075878515839576721e-01
-2.808695733547210693e-01 1.625965833663940430e-01 2.836993336677551270e-01
1.072260290384292603e-01 -3.505241870880126953e-02 -3.358103930950164795e-01
1.128007024526596069e-01 1.562174260616302490e-01 -5.906121730804443359e-01
3.142965435981750488e-01 4.910244941711425781e-01 3.587967753410339355e-01
-1.565217077732086182e-01 9.237493574619293213e-02 3.334203660488128662e-01
3.843865096569061279e-01 -8.280465006828308105e-02 1.035673394799232483e-01
4.242977499961853027e-01 7.273998856544494629e-02 -4.329205453395843506e-01
-2.439323067665100098e-01 4.844848513603210449e-01 -4.986673295497894287e-01
-3.959136605262756348e-01 2.525484561920166016e-01 -2.764584422111511230e-01
-1.745318323373794556e-01 9.131322801113128662e-02 -3.788314163684844971e-01
1.871201246976852417e-01 6.352890729904174805e-01 -6.664101779460906982e-02
2.288558930158615112e-01 -9.596318006515502930e-02 -1.334654986858367920e-01
6.280478239059448242e-01 2.434660196304321289e-01 -1.684318855404853821e-02
-4.754869639873504639e-01 3.266640901565551758e-01 -2.770627476274967194e-02
-4.238829016685485840e-02 6.907728910446166992e-01 -3.985927253961563110e-02
-1.961009204387664795e-01 3.999758660793304443e-01 -5.600130558013916016e-01
9.753307700157165527e-02 1.545864641666412354e-01 5.413035154342651367e-01
-4.027017205953598022e-02 6.074147224426269531e-01 3.566515445709228516e-01
4.403410553932189941e-01 -2.072331309318542480e-02 2.614714801311492920e-01
4.373069405555725098e-01 3.740681111812591553e-01 3.748486638069152832e-01
2.747984230518341064e-01 -9.986877441406250000e-02 -9.943874925374984741e-02
-4.059699475765228271e-01 6.021572351455688477e-01 -1.307949125766754150e-01
-2.080685198307037354e-01 3.786134719848632812e-02 2.777892164885997772e-02
5.818263292312622070e-01 1.517854779958724976e-01 -2.726717889308929443e-01
7.285160571336746216e-02 -7.373440265655517578e-02 -1.397998929023742676e-01
5.911343097686767578e-01 2.881089746952056885e-01 1.617956161499023438e-01
-3.714193999767303467e-01 2.952772676944732666e-01 -3.760852217674255371e-01
-4.735922515392303467e-01 4.870689809322357178e-01 9.518685936927795410e-02
5.929388999938964844e-01 1.595980674028396606e-01 -2.484976351261138916e-01
1.565630733966827393e-02 7.292124629020690918e-02 4.391525983810424805e-01
4.351956546306610107e-01 1.109765917062759399e-01 -4.510822892189025879e-01
3.021916151046752930e-01 5.121594667434692383e-01 -3.517186343669891357e-01
2.274193465709686279e-01 4.172703623771667480e-01 -5.388865470886230469e-01
3.762116730213165283e-01 -5.292680859565734863e-02 -2.685741186141967773e-01
5.660947561264038086e-01 3.028777539730072021e-01 -2.289326041936874390e-01
-1.045710295438766479e-01 4.932764172554016113e-01 4.940671324729919434e-01
-3.751786649227142334e-01 3.423881232738494873e-01 3.234883844852447510e-01
-3.885056823492050171e-02 -1.598840951919555664e-02 -2.685315310955047607e-01
3.070443868637084961e-01 -8.078542351722717285e-02 -2.117068171501159668e-01
2.330528497695922852e-01 6.268614530563354492e-02 4.683662950992584229e-01
1.671764105558395386e-01 6.321383714675903320e-01 1.385888457298278809e-01
2.677074074745178223e-02 3.490362167358398438e-01 5.780072808265686035e-01
-1.213984042406082153e-01 2.400508522987365723e-02 2.149532884359359741e-01
-8.891877532005310059e-02 6.938463449478149414e-01 -4.820285737514495850e-02
-4.168458282947540283e-01 2.552023530006408691e-01 1.362957209348678589e-01
2.693871259689331055e-01 5.845627784729003906e-01 1.671817302703857422e-01
2.951056510210037231e-02 -1.586303114891052246e-02 2.799964249134063721e-01
-2.746454179286956787e-01 5.729786157608032227e-01 -3.914184868335723877e-01
-4.569205343723297119e-01 2.915421724319458008e-01 -1.101429387927055359e-01
-1.059901416301727295e-01 6.075276136398315430e-01 -3.995692729949951172e-01
-1.781269013881683350e-01 6.579585671424865723e-01 -2.631541490554809570e-01
-3.796985447406768799e-01 6.298788785934448242e-01 -1.784077659249305725e-02
3.703354001045227051e-01 4.879283905029296875e-01 -3.032786250114440918e-01
4.653225243091583252e-01 3.553442656993865967e-01 -3.695651888847351074e-01
-5.711174011230468750e-02 4.170542061328887939e-01 5.477395653724670410e-01
3.933156132698059082e-01 4.586240351200103760e-01 3.130027651786804199e-01
3.864878118038177490e-01 2.662855386734008789e-02 -4.114267230033874512e-01
-3.221262097358703613e-01 5.517100095748901367e-01 -3.796611130237579346e-01
2.265647053718566895e-01 2.358889579772949219e-01 -6.001319885253906250e-01
1.792832911014556885e-01 3.918571174144744873e-01 -5.789061784744262695e-01
5.083104968070983887e-01 3.792785406112670898e-01 -2.518116831779479980e-01
1.629328727722167969e-01 5.627920627593994141e-01 3.634612858295440674e-01
-4.467142522335052490e-01 4.594846665859222412e-01 1.992184370756149292e-01
-3.011660277843475342e-01 3.126183152198791504e-01 -4.771772325038909912e-01
-4.042479991912841797e-01 2.075946182012557983e-01 -1.014582887291908264e-01
-1.037404686212539673e-02 -5.589395761489868164e-02 -2.201512455940246582e-03
2.064128220081329346e-01 -9.801062941551208496e-02 5.052718520164489746e-02
-2.945261597633361816e-01 1.030508726835250854e-01 -1.430495381355285645e-01
2.006538510322570801e-01 -5.606305599212646484e-02 2.580688893795013428e-01
2.535112500190734863e-01 4.726556539535522461e-01 4.408444464206695557e-01
5.071257352828979492e-01 2.563932538032531738e-01 -3.842696845531463623e-01
-4.488567262887954712e-02 2.104426324367523193e-01 5.366479158401489258e-01
-2.817304730415344238e-01 1.237254291772842407e-01 1.949100792407989502e-01
-4.520656168460845947e-02 3.017844557762145996e-01 5.660880804061889648e-01
-4.906106889247894287e-01 4.161501526832580566e-01 3.689932823181152344e-02
-3.219676315784454346e-01 6.241363286972045898e-01 -2.453231960535049438e-01
5.310668423771858215e-02 -7.463809847831726074e-02 1.682903617620468140e-03
2.861403822898864746e-01 5.715657472610473633e-01 -2.059322744607925415e-01
2.596484124660491943e-01 6.040111184120178223e-01 5.908503383398056030e-02
1.580399870872497559e-01 6.471525430679321289e-01 -2.167939394712448120e-02
6.164331436157226562e-01 2.676463425159454346e-01 6.612177938222885132e-02
2.594734728336334229e-02 6.478533744812011719e-01 2.331917136907577515e-01
-4.699490368366241455e-01 5.351077318191528320e-01 -2.299498766660690308e-02
-2.168620228767395020e-01 4.938489198684692383e-02 -1.566507369279861450e-01
2.338090389966964722e-01 3.185725212097167969e-01 5.575491189956665039e-01
-4.667248427867889404e-01 5.223805904388427734e-01 -1.407221257686614990e-01
3.368067145347595215e-01 4.919808506965637207e-01 3.294492065906524658e-01
-1.569460034370422363e-01 1.184244453907012939e-01 -4.437465667724609375e-01
3.280394673347473145e-01 -9.864789247512817383e-02 -7.223784923553466797e-02
-2.292835116386413574e-01 4.509536027908325195e-01 4.657076001167297363e-01
1.466892361640930176e-01 -7.464426755905151367e-02 -2.191035449504852295e-01
-2.489434182643890381e-02 3.911756873130798340e-01 5.623027086257934570e-01
2.759948968887329102e-01 4.663468897342681885e-02 4.445354342460632324e-01
4.376854598522186279e-01 1.189142465591430664e-03 3.062041699886322021e-01
-3.124594390392303467e-01 1.283458769321441650e-01 1.186527237296104431e-01
-3.141653239727020264e-01 1.141856461763381958e-01 -9.688675403594970703e-02
1.172323524951934814e-01 3.503671288490295410e-02 4.244672656059265137e-01
5.419417619705200195e-01 -2.404895424842834473e-02 -6.655757874250411987e-02
-3.138850629329681396e-01 4.872804880142211914e-01 3.817805945873260498e-01
4.633424878120422363e-01 2.531964182853698730e-01 -4.416303634643554688e-01
6.982865929603576660e-02 6.678589582443237305e-01 -1.077028810977935791e-01
4.221173226833343506e-01 -4.427337646484375000e-02 -2.523406445980072021e-01
-8.571074903011322021e-02 2.022236585617065430e-03 1.979785263538360596e-01
-2.114257216453552246e-02 6.866556406021118164e-01 4.380837082862854004e-02
-7.450582087039947510e-02 3.175297677516937256e-01 5.585011243820190430e-01
8.948377519845962524e-02 3.133082389831542969e-01 -6.262603998184204102e-01
-1.848986744880676270e-01 6.812034249305725098e-01 -1.575689613819122314e-01
-1.441028416156768799e-01 2.433419227600097656e-03 3.567729890346527100e-02
3.647456318140029907e-02 4.286035597324371338e-01 5.503754019737243652e-01
-1.160582154989242554e-02 -4.248493909835815430e-02 1.282352954149246216e-01
1.049251407384872437e-01 3.273661136627197266e-01 5.819973945617675781e-01
4.899353384971618652e-01 3.246297240257263184e-01 3.503816425800323486e-01
2.652552723884582520e-01 1.308904737234115601e-01 -5.552394986152648926e-01
6.352297067642211914e-01 2.156122475862503052e-01 -2.252111211419105530e-03
-2.078677713871002197e-01 5.430706143379211426e-01 4.117881655693054199e-01
1.759455800056457520e-01 -5.942815542221069336e-02 -2.908361256122589111e-01
2.530539631843566895e-01 5.957419872283935547e-01 -1.683083027601242065e-01
-3.273636400699615479e-01 6.540263891220092773e-01 3.638218343257904053e-02
-5.205044895410537720e-02 -4.137673974037170410e-02 -3.548731282353401184e-02
-3.444474041461944580e-01 6.472711563110351562e-01 -8.463407307863235474e-02
-2.264484167098999023e-01 5.071132183074951172e-01 -4.917133450508117676e-01
4.880221188068389893e-01 2.486842870712280273e-02 -3.178254663944244385e-01
-3.564990460872650146e-01 1.614933609962463379e-01 7.533598691225051880e-02
-4.233116209506988525e-01 2.308079600334167480e-01 -7.565820962190628052e-02
2.114130556583404541e-02 6.289664506912231445e-01 2.932636439800262451e-01
2.017892897129058838e-01 4.425514936447143555e-01 5.023186206817626953e-01
-4.232522845268249512e-01 2.500107288360595703e-01 9.517255425453186035e-02
-3.993481695652008057e-01 5.977654457092285156e-01 -1.728281676769256592e-01
-7.500417530536651611e-02 -3.057441115379333496e-02 2.181372605264186859e-02
-1.641022264957427979e-01 3.899788856506347656e-02 -2.575556039810180664e-01
-3.181116878986358643e-01 5.700411200523376465e-01 2.972500324249267578e-01
2.163538187742233276e-01 -4.597610235214233398e-02 2.887048423290252686e-01
-3.086443990468978882e-02 4.372876882553100586e-02 3.648558259010314941e-01
-4.901286661624908447e-01 3.947760462760925293e-01 -1.034809872508049011e-01
4.084854573011398315e-02 3.646272420883178711e-02 3.974421620368957520e-01
3.220407366752624512e-01 1.848688870668411255e-01 5.233213305473327637e-01
-5.113045871257781982e-02 1.463409513235092163e-01 -5.463156104087829590e-01
7.601810991764068604e-02 6.696637868881225586e-01 -6.229325383901596069e-02
4.912322759628295898e-01 4.403133988380432129e-01 -1.222247630357742310e-01
2.501087188720703125e-01 -2.671170234680175781e-02 3.342853486537933350e-01
-5.811871588230133057e-02 -3.421813249588012695e-03 -2.865922749042510986e-01
-3.072088956832885742e-01 4.395711421966552734e-01 -4.754825234413146973e-01
1.508935689926147461e-01 -8.662629127502441406e-02 -1.524414569139480591e-01
6.066505908966064453e-01 4.174366593360900879e-02 -2.365954592823982239e-02
-2.836693227291107178e-01 1.182318329811096191e-01 1.731656044721603394e-01
1.410990655422210693e-01 -8.705651760101318359e-02 -1.376548856496810913e-01
4.627092778682708740e-01 9.933102130889892578e-02 -4.192023575305938721e-01
6.348153352737426758e-01 1.394168883562088013e-01 -8.391250669956207275e-02
-2.741101384162902832e-01 2.526158690452575684e-01 -4.714085161685943604e-01
2.797234356403350830e-01 5.553416013717651367e-01 -2.762918770313262939e-01
3.803986608982086182e-01 -8.874076604843139648e-02 6.266473978757858276e-02
2.000719010829925537e-01 1.605004072189331055e-02 -4.552220404148101807e-01
-4.858260452747344971e-01 4.107028543949127197e-01 6.818225979804992676e-02
-5.689813196659088135e-02 6.696245074272155762e-01 1.853659451007843018e-01
-1.368726640939712524e-01 1.549150198698043823e-01 -5.050216913223266602e-01
5.333281755447387695e-01 -6.941556930541992188e-04 1.739451438188552856e-01
-1.325269341468811035e-01 6.915902495384216309e-01 -9.712847322225570679e-02
-1.673380583524703979e-01 6.725367307662963867e-01 -2.115799188613891602e-01
1.114589199423789978e-01 6.308513879776000977e-01 -2.539575397968292236e-01
3.827523291110992432e-01 1.714980006217956543e-01 4.882968664169311523e-01
5.390250682830810547e-01 3.077304363250732422e-02 -2.500014007091522217e-01
4.709109067916870117e-01 4.680360257625579834e-01 4.563398659229278564e-02
-1.916776895523071289e-01 3.251540660858154297e-01 -5.652147531509399414e-01
1.116850748658180237e-01 3.939944803714752197e-01 -5.983464717864990234e-01
-3.934067189693450928e-01 6.016497611999511719e-01 1.103109195828437805e-01
1.059471517801284790e-01 5.407285094261169434e-01 -4.633771479129791260e-01
-3.206988424062728882e-02 4.547680318355560303e-01 -5.780290365219116211e-01
-2.136567533016204834e-01 2.009934186935424805e-01 4.193078279495239258e-01
-1.171294450759887695e-01 -1.190224289894104004e-02 -9.068934619426727295e-02
4.382437467575073242e-01 3.499181568622589111e-01 3.975459039211273193e-01
1.720663011074066162e-01 2.834244668483734131e-01 5.782397985458374023e-01
-2.046959400177001953e-01 2.510390877723693848e-01 -5.314531326293945312e-01
-1.913198083639144897e-02 6.825411319732666016e-01 8.793098479509353638e-02
6.003245115280151367e-01 3.375786542892456055e-02 -4.479488730430603027e-02
5.401501655578613281e-01 2.981589436531066895e-01 2.878070771694183350e-01
3.426123857498168945e-01 5.584408044815063477e-01 -9.297639876604080200e-02
2.787624597549438477e-01 1.270917057991027832e-02 3.998036682605743408e-01
5.285918712615966797e-01 -1.399889588356018066e-02 1.451190114021301270e-01
-4.408599436283111572e-01 2.678860425949096680e-01 -1.382308155298233032e-01
1.087537407875061035e-02 6.230813860893249512e-01 3.121140599250793457e-01
-1.835365295410156250e-01 2.138516306877136230e-02 -6.655450910329818726e-02
1.673184931278228760e-01 6.438930034637451172e-01 4.226956516504287720e-03
2.670239806175231934e-01 4.799050986766815186e-01 4.211450517177581787e-01
6.032493114471435547e-01 3.775256872177124023e-02 2.584010921418666840e-02
-7.242402434349060059e-02 1.484311521053314209e-01 -5.379928350448608398e-01
3.342360556125640869e-01 5.652139782905578613e-01 5.795638263225555420e-02
3.776848018169403076e-01 4.244720935821533203e-01 -4.045258164405822754e-01
3.048870861530303955e-01 -9.536147117614746094e-02 8.714218437671661377e-02
-1.182612478733062744e-01 5.970008671283721924e-02 -3.804734945297241211e-01
3.256463259458541870e-02 6.712020039558410645e-01 -1.475656181573867798e-01
-6.715969741344451904e-02 4.214012622833251953e-02 3.305789232254028320e-01
9.121181815862655640e-02 -2.632778882980346680e-02 2.955674827098846436e-01
2.149695008993148804e-01 -1.014789938926696777e-01 -8.762188255786895752e-03
-8.424060046672821045e-02 2.037945091724395752e-01 5.149251818656921387e-01
-2.273552864789962769e-02 6.491549015045166016e-01 -2.876977920532226562e-01
2.943547964096069336e-01 3.653770089149475098e-01 5.100322365760803223e-01
2.370930910110473633e-01 5.584641695022583008e-01 3.058516681194305420e-01
1.242776140570640564e-01 -6.850531697273254395e-02 -2.317957133054733276e-01
-3.700287044048309326e-01 5.820586681365966797e-01 -2.744571566581726074e-01
2.391156107187271118e-01 5.375010967254638672e-01 3.502138257026672363e-01
1.426526010036468506e-01 3.302951455116271973e-01 -6.149770021438598633e-01
1.917083710432052612e-01 6.127935647964477539e-01 1.923457086086273193e-01
4.810304641723632812e-01 -4.449129104614257812e-02 -1.651217043399810791e-01
-1.482674479484558105e-02 6.013332009315490723e-01 3.652336895465850830e-01
2.666474878787994385e-02 1.540419757366180420e-01 -5.784615874290466309e-01
2.173044532537460327e-01 -1.002131402492523193e-01 2.956261299550533295e-02
-4.906342327594757080e-01 3.878502845764160156e-01 -8.473900705575942993e-02
1.904732584953308105e-01 6.064873933792114258e-01 -2.431747466325759888e-01
-4.106689691543579102e-01 3.154583573341369629e-01 -3.192010521888732910e-01
2.312731742858886719e-01 -1.293054223060607910e-02 -4.062792956829071045e-01
-4.776582419872283936e-01 3.619470596313476562e-01 6.964559108018875122e-02
-4.640120565891265869e-01 4.208458662033081055e-01 1.601403951644897461e-01
8.569946140050888062e-02 6.471568346023559570e-01 1.865900605916976929e-01
-1.048891395330429077e-01 -1.905971765518188477e-02 -1.586924493312835693e-02
4.192033708095550537e-01 4.145097136497497559e-01 -3.624161779880523682e-01
-1.544827371835708618e-01 5.294720530509948730e-01 -4.996349811553955078e-01
1.019325703382492065e-01 -8.283299207687377930e-02 -1.116632819175720215e-01
4.642788171768188477e-01 2.837867438793182373e-01 4.117922782897949219e-01
4.397192224860191345e-02 5.009977817535400391e-01 4.951516389846801758e-01
3.729588687419891357e-01 4.575752615928649902e-01 -3.601686656475067139e-01
-4.501787722110748291e-01 5.580167174339294434e-01 4.318752884864807129e-02
-7.740160822868347168e-02 6.923561096191406250e-01 3.104322962462902069e-02
4.523826837539672852e-01 4.624349474906921387e-01 -1.851454824209213257e-01
5.055180788040161133e-01 3.832263648509979248e-01 2.418131977319717407e-01
1.506077349185943604e-01 2.687570452690124512e-02 -4.687410891056060791e-01
1.972400546073913574e-01 1.354954093694686890e-01 5.321240425109863281e-01
2.921665310859680176e-01 5.396294593811035156e-01 2.828008532524108887e-01
-7.705558836460113525e-02 -5.676835775375366211e-03 1.829522699117660522e-01
6.259866952896118164e-01 1.929625272750854492e-01 -1.341034322977066040e-01
5.196006298065185547e-01 2.716445922851562500e-02 2.552914619445800781e-01
-2.520277500152587891e-01 6.536133289337158203e-01 1.778847873210906982e-01
5.947403907775878906e-01 2.420356124639511108e-01 -2.154376208782196045e-01
-3.407594859600067139e-01 6.132783889770507812e-01 -2.481207251548767090e-01
4.312200248241424561e-01 1.252195388078689575e-01 -4.618493318557739258e-01
9.515672922134399414e-02 6.086382269859313965e-01 -3.370174169540405273e-01
-3.834770321846008301e-01 6.175941228866577148e-01 7.465376704931259155e-02
3.356813192367553711e-01 4.281851947307586670e-01 4.266210198402404785e-01
-3.847893178462982178e-01 1.835030615329742432e-01 1.377181522548198700e-02
-1.975432932376861572e-01 6.500293016433715820e-01 -2.798257172107696533e-01
3.649883344769477844e-02 4.234373569488525391e-03 -3.919771611690521240e-01
-1.424188464879989624e-01 2.230247557163238525e-01 4.935075044631958008e-01
1.218806877732276917e-01 8.444316685199737549e-02 -5.353559851646423340e-01
-3.197827041149139404e-01 6.600776910781860352e-01 -4.505075514316558838e-02
2.595958858728408813e-02 -5.712041258811950684e-02 1.119943186640739441e-01
-1.454983800649642944e-01 6.664540767669677734e-01 1.972897350788116455e-01
-3.814234435558319092e-01 5.449659228324890137e-01 2.500228583812713623e-01
-3.185947537422180176e-01 5.240136384963989258e-01 3.495546281337738037e-01
2.743970155715942383e-01 5.712616443634033203e-01 -2.319914251565933228e-01
1.677340269088745117e-01 -8.037677407264709473e-02 -2.037085443735122681e-01
-4.565983712673187256e-01 3.486265838146209717e-01 1.472219228744506836e-01
8.061498403549194336e-03 5.670763850212097168e-01 -4.576425254344940186e-01
-4.118584990501403809e-01 2.153204083442687988e-01 -3.432746976613998413e-03
-2.609744369983673096e-01 9.950710833072662354e-02 -2.475208491086959839e-01
6.222895383834838867e-01 2.538660168647766113e-01 -6.219726800918579102e-02
5.023498535156250000e-01 3.234298527240753174e-01 3.318904638290405273e-01
5.163914710283279419e-02 6.680390834808349609e-01 -1.421585530042648315e-01
4.771899878978729248e-01 -5.352929234504699707e-02 1.023240089416503906e-01
-1.379507035017013550e-01 3.186686635017395020e-01 -5.908037424087524414e-01
-4.098939895629882812e-02 6.478099822998046875e-01 -2.980839014053344727e-01
6.140087842941284180e-01 2.673803567886352539e-01 -9.332400560379028320e-02
3.703620135784149170e-01 4.168621897697448730e-01 -4.229148626327514648e-01
2.375874072313308716e-01 5.667961239814758301e-01 2.837164998054504395e-01
6.239056587219238281e-01 2.432628571987152100e-01 7.382500171661376953e-02
5.393375158309936523e-01 1.864967793226242065e-01 3.387570679187774658e-01
-4.629656672477722168e-02 6.702222824096679688e-01 -2.173565626144409180e-01
2.328271716833114624e-01 -4.000484943389892578e-02 3.048270046710968018e-01
2.617694437503814697e-03 4.699272513389587402e-01 5.243778228759765625e-01
5.018206834793090820e-01 4.361798167228698730e-01 7.267307490110397339e-02
-2.325331866741180420e-01 5.197554826736450195e-01 -4.777329862117767334e-01
9.856064617633819580e-02 1.377647966146469116e-01 5.298742055892944336e-01
5.317674875259399414e-01 2.414581477642059326e-01 -3.528478741645812988e-01
-1.795749068260192871e-01 6.759664416313171387e-01 1.426398456096649170e-01
4.174156486988067627e-01 -6.253406405448913574e-02 -1.971259713172912598e-01
-3.876846134662628174e-01 2.634905874729156494e-01 2.337561398744583130e-01
2.759518474340438843e-02 -3.219372034072875977e-02 -2.885456085205078125e-01
3.678568601608276367e-01 2.826014161109924316e-02 -4.246337711811065674e-01
-2.970333397388458252e-01 6.673303842544555664e-01 1.348839513957500458e-02
1.129270941019058228e-01 -8.762174844741821289e-02 1.455724798142910004e-02
2.332852631807327271e-01 2.757468819618225098e-02 -4.689163863658905029e-01
4.229979217052459717e-01 -5.292531847953796387e-02 -2.250464558601379395e-01
-3.544522821903228760e-01 3.313981294631958008e-01 -4.226713180541992188e-01
4.094160199165344238e-01 5.184852480888366699e-01 -3.347945585846900940e-02
3.228730261325836182e-01 -5.779659748077392578e-02 -2.854336500167846680e-01
-2.976258695125579834e-01 6.274394392967224121e-01 2.083729654550552368e-01
-1.535973548889160156e-01 6.598757505416870117e-01 2.181694507598876953e-01
-1.557691693305969238e-01 2.327790856361389160e-02 1.398163139820098877e-01
-3.814313411712646484e-01 2.733475267887115479e-01 -3.374084830284118652e-01
-1.384669095277786255e-01 6.654621362686157227e-01 -2.475995123386383057e-01
3.925740718841552734e-03 6.850725412368774414e-01 -2.424171753227710724e-02
1.551134884357452393e-01 -8.895578980445861816e-02 8.538415282964706421e-02
6.122795343399047852e-01 2.180085778236389160e-01 -1.760290265083312988e-01
-3.430358767509460449e-01 6.449965238571166992e-01 5.246888846158981323e-02
1.908016949892044067e-02 6.612238883972167969e-01 -2.179791629314422607e-01
3.800142407417297363e-01 5.053659677505493164e-01 2.232721000909805298e-01
3.278702795505523682e-01 -7.024255394935607910e-02 -2.436198592185974121e-01
3.697145283222198486e-01 4.900775551795959473e-01 2.845168709754943848e-01
-3.083811998367309570e-01 3.715074956417083740e-01 4.149519801139831543e-01
1.624609529972076416e-01 6.374581456184387207e-01 -1.375556439161300659e-01
6.031032800674438477e-01 2.994504272937774658e-01 -6.560424715280532837e-02
-2.206560671329498291e-01 3.612856566905975342e-01 -5.507555007934570312e-01
4.914523288607597351e-02 -2.911555767059326172e-02 2.584376335144042969e-01
2.624652087688446045e-01 -7.330864667892456055e-02 2.075704336166381836e-01
-4.317612349987030029e-01 5.824283361434936523e-01 3.504208475351333618e-02
5.893640518188476562e-01 4.554840922355651855e-02 -1.522273570299148560e-01
2.369410842657089233e-01 -1.026949286460876465e-01 -3.147581964731216431e-02
7.252682745456695557e-02 1.034396886825561523e-01 4.952034354209899902e-01
-4.715714156627655029e-01 4.173447787761688232e-01 -2.132913917303085327e-01
5.415620803833007812e-01 3.642950654029846191e-01 -1.871027201414108276e-01
-2.932840883731842041e-01 3.726161122322082520e-01 -4.974759519100189209e-01
2.847454845905303955e-01 -5.830907821655273438e-02 2.541066408157348633e-01
2.527101635932922363e-01 1.166498214006423950e-01 -5.502194762229919434e-01
4.602720439434051514e-01 -6.867834925651550293e-02 3.561265766620635986e-02
-3.931785225868225098e-01 5.946513414382934570e-01 -1.995517462491989136e-01
-2.926174551248550415e-02 -4.967287182807922363e-02 -4.977521300315856934e-02
-4.495773613452911377e-01 2.759924829006195068e-01 -1.024554073810577393e-01
-1.711562126874923706e-01 6.673936247825622559e-01 -2.316921800374984741e-01
4.241388142108917236e-01 4.787397384643554688e-01 2.014977335929870605e-01
2.156962752342224121e-01 2.775087654590606689e-01 -6.035650968551635742e-01
4.405207335948944092e-01 -3.744032979011535645e-02 -2.507563531398773193e-01
1.026409640908241272e-01 4.337829351425170898e-01 -5.767743587493896484e-01
8.387045562267303467e-02 -7.782793045043945312e-02 -1.248566806316375732e-01
2.595148682594299316e-01 2.130905091762542725e-01 -5.861624479293823242e-01
-1.841633617877960205e-01 6.149086952209472656e-01 3.194862008094787598e-01
-3.095769882202148438e-01 1.175991296768188477e-01 -1.561708152294158936e-01
-8.525311946868896484e-02 1.866849064826965332e-01 5.026579499244689941e-01
4.069845080375671387e-01 -6.979656219482421875e-02 -1.795690208673477173e-01
3.402099311351776123e-01 2.651801705360412598e-02 4.015078544616699219e-01
1.534923613071441650e-01 -2.049738168716430664e-02 -3.861981630325317383e-01
5.347450971603393555e-01 3.904907703399658203e-01 -1.313233524560928345e-01
3.896202892065048218e-02 -7.078269124031066895e-02 -6.428974121809005737e-02
-4.748725891113281250e-02 1.663438528776168823e-01 5.063585042953491211e-01
-3.068901300430297852e-01 6.602734327316284180e-01 -1.122076511383056641e-01
-2.214398980140686035e-01 9.815202653408050537e-02 2.523542046546936035e-01
5.778224468231201172e-01 1.254943460226058960e-01 -2.720481753349304199e-01
6.203564405441284180e-01 1.960219144821166992e-01 -1.581797897815704346e-01
2.031904011964797974e-01 6.018601655960083008e-01 2.186874896287918091e-01
1.698362529277801514e-01 -8.211117982864379883e-02 1.440596282482147217e-01
2.466695755720138550e-01 5.035237073898315430e-01 4.032673239707946777e-01
-4.509521424770355225e-01 3.258444666862487793e-01 1.402228921651840210e-01
-8.728571236133575439e-02 -2.168357372283935547e-02 6.579517573118209839e-02
3.135305643081665039e-01 3.238530457019805908e-01 5.192282795906066895e-01
-8.522446453571319580e-02 -2.338373661041259766e-02 -1.259459257125854492e-01
6.137436628341674805e-01 5.914796888828277588e-02 -6.477046012878417969e-02
-3.026600182056427002e-01 1.031976789236068726e-01 -7.591544836759567261e-02
3.264000117778778076e-01 -9.769284725189208984e-02 4.751919209957122803e-02
1.275466382503509521e-01 4.226147532463073730e-01 -5.774405002593994141e-01
-4.925171434879302979e-01 4.557143449783325195e-01 -8.494388312101364136e-02
5.572789907455444336e-01 3.623552620410919189e-01 -1.252758353948593140e-01
-1.914303600788116455e-01 2.775585651397705078e-01 -5.529380440711975098e-01
2.878256142139434814e-03 6.326643228530883789e-01 2.902529537677764893e-01
2.262171059846878052e-01 -6.118613481521606445e-02 2.468188852071762085e-01
2.142781019210815430e-02 6.529579162597656250e-01 -2.508990466594696045e-01
-3.091599047183990479e-01 5.625908970832824707e-01 3.164804577827453613e-01
-2.530772686004638672e-01 5.075247287750244141e-01 4.171109795570373535e-01
5.664653778076171875e-01 -6.531536579132080078e-03 9.983405470848083496e-04
-3.026056885719299316e-01 1.705148965120315552e-01 2.589210569858551025e-01
-1.447116881608963013e-01 4.331907927989959717e-01 -5.700693130493164062e-01
3.167707622051239014e-01 1.234215795993804932e-01 4.988919496536254883e-01
1.398457288742065430e-01 -8.779990673065185547e-02 7.517393678426742554e-02
-3.979546427726745605e-01 4.398749768733978271e-01 -3.719253242015838623e-01
-3.825692534446716309e-01 5.730546712875366211e-01 2.049749493598937988e-01
6.323587149381637573e-02 2.682786583900451660e-01 -6.273630261421203613e-01
4.754694104194641113e-01 4.657403826713562012e-01 -1.910889521241188049e-03
-4.251847267150878906e-01 4.530290365219116211e-01 2.482182830572128296e-01
3.495523631572723389e-01 4.211642146110534668e-01 -4.404288232326507568e-01
1.016401946544647217e-01 1.855883151292800903e-01 5.591655373573303223e-01
-1.992224156856536865e-01 2.717351019382476807e-01 4.807980656623840332e-01
-3.075845539569854736e-01 6.330400705337524414e-01 -2.381207197904586792e-01
4.811580777168273926e-01 1.028148978948593140e-01 3.807477653026580811e-01
4.326882958412170410e-01 -7.530277967453002930e-02 -9.944174438714981079e-02
3.262140452861785889e-01 7.104729115962982178e-02 4.558414816856384277e-01
-2.992348372936248779e-01 2.251384258270263672e-01 -4.174464046955108643e-01
5.841338634490966797e-01 3.366809785366058350e-01 -4.388179630041122437e-02
3.032615780830383301e-01 3.221766948699951172e-01 -5.518143177032470703e-01
5.683346986770629883e-01 1.157230138778686523e-02 1.131773516535758972e-01
2.023891657590866089e-01 7.101093232631683350e-02 4.787704944610595703e-01
5.587564706802368164e-01 1.719102114439010620e-01 3.068892955780029297e-01
-2.937402427196502686e-01 6.687428355216979980e-01 -6.322441250085830688e-02
-3.922947645187377930e-01 2.678817212581634521e-01 -3.079856932163238525e-01
6.940298527479171753e-02 6.303105950355529785e-01 2.632991969585418701e-01
-4.275903999805450439e-01 3.725458383560180664e-01 -3.183877468109130859e-01
4.161402881145477295e-01 3.514190912246704102e-01 -4.382112920284271240e-01
2.924298644065856934e-01 -9.900328516960144043e-02 -1.024091169238090515e-01
-2.303773164749145508e-01 6.623234748840332031e-01 -2.172256261110305786e-01
-3.473144769668579102e-01 1.713863164186477661e-01 -2.311600744724273682e-01
3.139807581901550293e-01 4.776660203933715820e-01 -4.007014632225036621e-01
3.258627951145172119e-01 5.494486093521118164e-01 -2.051611989736557007e-01
5.914580821990966797e-01 1.108731776475906372e-01 -2.325663566589355469e-01
4.928401112556457520e-02 6.750541925430297852e-01 4.347446560859680176e-02
4.053300619125366211e-01 4.966559708118438721e-01 1.900659054517745972e-01
4.192935228347778320e-01 2.909734547138214111e-01 -4.736745953559875488e-01
6.402224302291870117e-03 4.519711732864379883e-01 5.366989970207214355e-01
-1.914659142494201660e-02 2.505322396755218506e-01 5.624676346778869629e-01
5.119163990020751953e-01 2.696684002876281738e-01 -3.702747225761413574e-01
4.404309093952178955e-01 4.910402595996856689e-01 7.587223500013351440e-02
4.225878715515136719e-01 1.778009533882141113e-01 -4.859614968299865723e-01
-4.653128087520599365e-01 5.416015386581420898e-01 -7.360953092575073242e-02
3.948040008544921875e-01 3.593588471412658691e-01 4.368475973606109619e-01
4.632321596145629883e-01 3.641734421253204346e-01 3.497025668621063232e-01
5.818538665771484375e-01 1.026827096939086914e-02 2.580400742590427399e-02
8.239892125129699707e-02 3.626991212368011475e-01 5.757029652595520020e-01
1.096508130431175232e-01 1.577374339103698730e-02 -4.439218342304229736e-01
4.206227362155914307e-01 -9.108722209930419922e-03 -3.325178027153015137e-01
1.806162446737289429e-01 5.896665155887603760e-02 -5.107507705688476562e-01
-3.893822729587554932e-01 5.545689463615417480e-01 2.237285226583480835e-01
1.332170218229293823e-01 7.646748423576354980e-02 4.800370931625366211e-01
3.383388519287109375e-01 5.020054578781127930e-01 -3.230223655700683594e-01
3.418695032596588135e-01 4.753984510898590088e-02 -4.602156877517700195e-01
-3.919654190540313721e-01 3.480379581451416016e-01 -3.743948638439178467e-01
9.364515542984008789e-02 6.663854122161865234e-01 -6.009304895997047424e-03
3.231165111064910889e-01 -7.415115833282470703e-03 3.568994998931884766e-01
4.114551842212677002e-01 5.095670223236083984e-01 -1.164580807089805603e-01
3.955759108066558838e-01 -5.739945173263549805e-02 2.046794146299362183e-01
-4.207735955715179443e-01 5.979505777359008789e-01 -6.037279218435287476e-02
6.427285820245742798e-02 1.862709224224090576e-01 5.546534657478332520e-01
-1.874160170555114746e-01 5.508799552917480469e-01 -4.658748507499694824e-01
4.508234262466430664e-01 3.199690878391265869e-01 -4.217272102832794189e-01
-3.765082955360412598e-01 1.729240417480468750e-01 -2.738045528531074524e-03
5.668507814407348633e-01 -5.742430686950683594e-03 -3.308138251304626465e-02
1.810695677995681763e-01 1.242068558931350708e-01 -5.681269764900207520e-01
-1.547028571367263794e-01 4.496890306472778320e-01 -5.590175986289978027e-01
1.555033400654792786e-02 3.290021121501922607e-01 -6.259880661964416504e-01
3.014899492263793945e-01 4.345942139625549316e-01 -4.706726372241973877e-01
5.914133787155151367e-01 2.013500034809112549e-01 -2.482027560472488403e-01
1.849560886621475220e-01 -9.557646512985229492e-02 5.634975433349609375e-02
-1.114117652177810669e-01 5.006545782089233398e-02 3.002403974533081055e-01
-1.828916072845458984e-01 1.622819900512695312e-01 4.082931578159332275e-01
-4.025322496891021729e-01 2.023036181926727295e-01 -2.270203642547130585e-02
-1.895838975906372070e-02 6.577353477478027344e-01 -2.563427984714508057e-01
1.602078676223754883e-01 -2.276328206062316895e-02 3.326519429683685303e-01
-2.386616468429565430e-01 6.366324424743652344e-01 2.404292970895767212e-01
4.574925079941749573e-02 6.481292247772216797e-01 -2.512173652648925781e-01
-1.003804355859756470e-01 2.706358432769775391e-01 5.389909148216247559e-01
4.371806085109710693e-01 -3.072035312652587891e-02 2.414199560880661011e-01
5.545012950897216797e-01 6.823974847793579102e-02 -2.726572155952453613e-01
-1.696204394102096558e-01 7.413192093372344971e-02 -3.487732410430908203e-01
-6.195501983165740967e-02 6.148351430892944336e-01 -3.843885958194732666e-01
4.550937116146087646e-01 3.683489561080932617e-02 3.433033823966979980e-01
4.354185760021209717e-01 -7.887986302375793457e-02 -3.325923904776573181e-02
4.387983679771423340e-02 -3.316822648048400879e-02 2.411440461874008179e-01
-4.398362934589385986e-01 3.642108738422393799e-01 2.084537595510482788e-01
-1.919954717159271240e-01 3.644576072692871094e-01 -5.668481588363647461e-01
2.735595107078552246e-01 -1.031313538551330566e-01 -1.708465442061424255e-02
1.141578853130340576e-01 -5.067080259323120117e-03 -4.073997139930725098e-01
3.783906698226928711e-01 4.671325981616973877e-01 3.194186091423034668e-01
4.061653017997741699e-01 6.132529675960540771e-02 -4.362559616565704346e-01
6.271144151687622070e-01 2.316789925098419189e-01 -8.009516447782516479e-02
8.575163781642913818e-02 3.789341449737548828e-02 4.189668893814086914e-01
4.889710247516632080e-01 4.379650652408599854e-01 1.365315616130828857e-01
-2.379064261913299561e-01 6.701660156250000000e-01 -1.741260886192321777e-01
2.658248543739318848e-01 5.683568716049194336e-01 2.387505024671554565e-01
2.726959586143493652e-01 -1.015215516090393066e-01 -7.720419764518737793e-02
3.081794828176498413e-02 -3.861087560653686523e-02 -2.689696848392486572e-01
1.426480710506439209e-03 6.671732664108276367e-01 -2.035592198371887207e-01
1.923916935920715332e-01 4.871705174446105957e-02 -4.986767172813415527e-01
5.430315732955932617e-01 2.948132753372192383e-01 -2.950505018234252930e-01
-3.533094823360443115e-01 1.911722123622894287e-01 -2.662335932254791260e-01
-3.074701428413391113e-01 3.314591050148010254e-01 4.071276485919952393e-01
2.105905860662460327e-02 4.788115620613098145e-01 5.171264410018920898e-01
3.590411543846130371e-01 5.083838105201721191e-01 2.569968402385711670e-01
4.784298241138458252e-01 3.168524205684661865e-01 -3.871720731258392334e-01
-4.549959599971771240e-01 3.707527518272399902e-01 1.705229431390762329e-01
2.505565881729125977e-01 -9.956035017967224121e-02 -1.041474714875221252e-01
3.046777248382568359e-01 -6.222403049468994141e-02 -2.793466448783874512e-01
3.376366198062896729e-01 -8.294591307640075684e-02 1.458393633365631104e-01
2.652935311198234558e-02 6.809893846511840820e-01 -4.002475738525390625e-02
-3.587542772293090820e-01 2.957407236099243164e-01 3.210960626602172852e-01
5.600124597549438477e-01 1.738486289978027344e-01 -3.182292878627777100e-01
-1.463264673948287964e-01 1.454824507236480713e-01 4.219446778297424316e-01
-4.542657434940338135e-01 4.538582861423492432e-01 1.822952777147293091e-01
-3.539539277553558350e-01 2.187381982803344727e-01 2.405080944299697876e-01
-1.458118110895156860e-01 6.903875470161437988e-01 6.193760782480239868e-02
-2.165582478046417236e-01 4.642100632190704346e-02 -1.357316076755523682e-01
5.054792165756225586e-01 4.276510775089263916e-01 1.046151146292686462e-01
-2.530598938465118408e-01 2.081228941679000854e-01 -4.555207788944244385e-01
2.962071895599365234e-01 4.704233407974243164e-01 4.093352258205413818e-01
-3.362091183662414551e-01 5.297466516494750977e-01 -3.903240859508514404e-01
6.242920160293579102e-01 2.483545392751693726e-01 5.413333326578140259e-02
-3.211785852909088135e-02 4.391735494136810303e-01 5.415242314338684082e-01
-1.082004010677337646e-01 6.869416236877441406e-01 9.911508858203887939e-02
4.624257385730743408e-01 -6.146401166915893555e-03 -2.964766621589660645e-01
1.005542650818824768e-01 -8.564764261245727539e-02 2.010656520724296570e-03
2.356736063957214355e-01 4.269077181816101074e-01 -5.259886980056762695e-01
2.788683176040649414e-01 6.816731393337249756e-02 -5.047052502632141113e-01
2.021547406911849976e-01 4.012333154678344727e-01 -5.634421110153198242e-01
2.113928943872451782e-01 6.135878562927246094e-01 1.501908898353576660e-01
4.921660125255584717e-01 4.097423553466796875e-01 2.172174900770187378e-01
-3.235875666141510010e-01 4.268757104873657227e-01 3.966189920902252197e-01
-4.626348912715911865e-01 3.316006958484649658e-01 1.006041020154953003e-01
2.684596478939056396e-01 -9.442058205604553223e-02 1.037090942263603210e-01
-1.892798542976379395e-01 3.739497661590576172e-01 5.075774788856506348e-01
-4.119727909564971924e-01 2.991034984588623047e-01 2.213474810123443604e-01
-3.501802384853363037e-01 2.973873019218444824e-01 -4.101059138774871826e-01
-1.892512142658233643e-01 6.875179409980773926e-01 -1.032532528042793274e-01
-4.228717982769012451e-01 5.346975326538085938e-01 -2.575368285179138184e-01
2.451731413602828979e-01 5.760046243667602539e-01 -2.665302455425262451e-01
5.356749296188354492e-01 4.024455547332763672e-01 -4.879480600357055664e-02
-1.573315411806106567e-01 1.709494888782501221e-01 4.404423534870147705e-01
-4.635371863842010498e-01 5.007953047752380371e-01 1.183209791779518127e-01
2.084970474243164062e-04 2.232530713081359863e-02 3.467281460762023926e-01
-3.334314525127410889e-01 3.659995496273040771e-01 -4.575288295745849609e-01
-4.273159056901931763e-02 3.227529823780059814e-01 5.681927204132080078e-01
8.975826948881149292e-02 2.673119604587554932e-01 5.829951167106628418e-01
1.169601976871490479e-01 4.395058155059814453e-01 -5.686568617820739746e-01
5.403069257736206055e-01 -2.798533439636230469e-02 -3.959668800234794617e-03
5.839685201644897461e-01 2.474719732999801636e-01 -2.416114658117294312e-01
-3.435048460960388184e-01 2.993119359016418457e-01 3.465081453323364258e-01
-5.648647248744964600e-02 -1.047056913375854492e-02 -2.638110816478729248e-01
5.943574905395507812e-01 3.209438323974609375e-01 -2.311353012919425964e-02
-4.146846234798431396e-01 4.827011823654174805e-01 -3.255228996276855469e-01
4.486870765686035156e-01 5.688568949699401855e-02 -3.977060317993164062e-01
-2.890900969505310059e-01 6.573668718338012695e-01 1.139173284173011780e-01
4.738599359989166260e-01 4.473825097084045410e-01 -1.670224517583847046e-01
-3.150945007801055908e-01 3.965445756912231445e-01 4.089591503143310547e-01
-4.273902475833892822e-01 5.064905285835266113e-01 2.101523727178573608e-01
3.435995280742645264e-01 1.268997788429260254e-02 3.811757862567901611e-01
2.527137994766235352e-01 5.674279928207397461e-01 -2.819704413414001465e-01
4.293173551559448242e-04 6.852115392684936523e-01 -4.572755098342895508e-02
1.974953562021255493e-01 -8.454355597496032715e-02 1.465912908315658569e-01
5.160146355628967285e-01 3.384964466094970703e-01 2.904148399829864502e-01
5.527223274111747742e-02 -3.996416926383972168e-02 2.288919240236282349e-01
-2.081794142723083496e-01 5.233098864555358887e-01 4.308576285839080811e-01
2.685962915420532227e-01 4.663356840610504150e-01 -4.606242179870605469e-01
6.228612661361694336e-01 2.579982280731201172e-01 -3.115372732281684875e-02
3.629201054573059082e-01 5.501330494880676270e-01 -2.548269182443618774e-02
2.836597561836242676e-01 -4.937070608139038086e-02 2.787187099456787109e-01
4.637576341629028320e-01 4.469583332538604736e-01 1.930080205202102661e-01
1.923975050449371338e-01 1.798895001411437988e-02 4.119927585124969482e-01
5.999966859817504883e-01 2.979252338409423828e-01 9.319007396697998047e-02
-3.182790875434875488e-01 6.024581789970397949e-01 2.419582158327102661e-01
-2.152051031589508057e-01 1.384991705417633057e-01 3.402720093727111816e-01
3.062025904655456543e-01 3.770875334739685059e-01 4.952456951141357422e-01
-4.619595408439636230e-02 5.826425552368164062e-01 4.004409015178680420e-01
5.861506462097167969e-01 2.164717614650726318e-01 2.457469850778579712e-01
-1.072701364755630493e-01 6.804528236389160156e-01 1.404402405023574829e-01
4.376478791236877441e-01 4.975118041038513184e-01 -1.898004300892353058e-02
-2.616570889949798584e-01 9.105926752090454102e-02 1.375561952590942383e-01
5.007402300834655762e-01 2.127694189548492432e-01 3.896478414535522461e-01
-4.115425646305084229e-01 2.542792856693267822e-01 1.530791074037551880e-01
2.492067217826843262e-02 6.801462173461914062e-01 -6.891973316669464111e-02
1.273123323917388916e-01 -7.419764995574951172e-02 -2.069197148084640503e-01
-2.452494204044342041e-01 6.057992577552795410e-02 -8.178374916315078735e-02
4.891309142112731934e-01 4.319071769714355469e-02 3.171230554580688477e-01
-3.878394067287445068e-01 1.846974194049835205e-01 -2.265822514891624451e-02
6.229346990585327148e-02 5.877101421356201172e-01 3.700197339057922363e-01
-2.035875022411346436e-01 5.700080394744873047e-01 3.821997344493865967e-01
-4.577585160732269287e-01 4.810552000999450684e-01 -2.323412448167800903e-01
-1.384005695581436157e-02 -5.514237284660339355e-02 -2.290397323668003082e-02
-1.138208806514739990e-01 5.897073745727539062e-01 3.839559257030487061e-01
2.146468013525009155e-01 4.632920026779174805e-01 4.759697616100311279e-01
3.607599735260009766e-01 4.588934779167175293e-01 3.579391837120056152e-01
-3.258279711008071899e-02 1.658719331026077271e-01 -5.694628953933715820e-01
3.312530219554901123e-01 5.690646767616271973e-01 1.645967923104763031e-02
4.653403460979461670e-01 2.636771798133850098e-01 4.189274907112121582e-01
1.187292933464050293e-01 5.449292063713073730e-01 4.197225570678710938e-01
-2.015223503112792969e-01 3.390660881996154785e-02 -1.025144532322883606e-01
4.298406243324279785e-01 3.248870372772216797e-03 -3.456849753856658936e-01
1.462598741054534912e-01 4.202974140644073486e-01 -5.729698538780212402e-01
-3.931504189968109131e-01 5.171208381652832031e-01 -3.318139016628265381e-01
-3.838330209255218506e-01 1.798788607120513916e-01 -4.751501977443695068e-02
4.230633080005645752e-01 1.826027482748031616e-01 4.633940756320953369e-01
