1.387482583522796631e-01 3.164688348770141602e-01 -1.371220126748085022e-02
1.127671599388122559e-01 1.343379765748977661e-01 -6.541292071342468262e-01
1.269386112689971924e-01 -3.513461351394653320e-01 1.407363414764404297e-01
-1.349550336599349976e-01 -3.228695392608642578e-01 2.204219996929168701e-01
6.006987020373344421e-02 -5.025129914283752441e-01 -4.545050561428070068e-01
1.510069221258163452e-01 -1.440126299858093262e-01 1.229026392102241516e-01
4.538007080554962158e-02 -5.182995200157165527e-01 -4.871102273464202881e-01
5.784260481595993042e-02 4.028852656483650208e-02 -9.281799793243408203e-01
1.158472001552581787e-01 -1.372546404600143433e-01 -6.124042272567749023e-01
-4.803443700075149536e-02 -6.144708991050720215e-01 -5.443387664854526520e-03
-1.047876924276351929e-01 4.665492475032806396e-01 2.266686111688613892e-01
-1.243950575590133667e-01 -1.311764568090438843e-01 5.819002985954284668e-01
1.399928033351898193e-01 2.182505428791046143e-01 3.517894744873046875e-01
1.412788033485412598e-01 1.849522739648818970e-01 -3.248559832572937012e-01
1.095440834760665894e-01 2.482071965932846069e-01 6.361464858055114746e-01
-9.230734407901763916e-02 -3.471207320690155029e-01 -6.650432944297790527e-01
1.469211578369140625e-01 -4.387210682034492493e-02 -3.112015724182128906e-01
4.060254991054534912e-02 -2.422174960374832153e-01 -8.860771656036376953e-01
1.314684748649597168e-01 -2.822862565517425537e-01 -2.571633756160736084e-01
1.470835655927658081e-01 -9.751888364553451538e-02 -2.709289193153381348e-01
-6.617799401283264160e-02 5.059484243392944336e-01 4.612757861614227295e-01
-1.066130548715591431e-01 4.059491753578186035e-01 -4.640106260776519775e-01
1.556548178195953369e-01 3.708935156464576721e-02 1.535213291645050049e-01
1.541717201471328735e-01 1.337550729513168335e-01 -2.740405127406120300e-02
-1.213335394859313965e-01 -2.877033650875091553e-01 -5.441957116127014160e-01
4.442806541919708252e-02 3.837904632091522217e-01 -7.674036622047424316e-01
1.266750991344451904e-01 -2.442453354597091675e-01 4.488634765148162842e-01
6.746485829353332520e-02 -4.565345644950866699e-01 -5.234417319297790527e-01
1.320501267910003662e-01 -1.409172862768173218e-01 -4.575814306735992432e-01
1.537332534790039062e-01 9.074422530829906464e-03 2.288866043090820312e-01
1.446014493703842163e-01 -2.158467024564743042e-01 1.553440243005752563e-01
-9.138207137584686279e-02 4.461134672164916992e-01 4.355441331863403320e-01
-1.184089928865432739e-01 -4.412921071052551270e-01 6.214828044176101685e-02
1.140298098325729370e-01 1.415549665689468384e-01 6.784845590591430664e-01
6.140523031353950500e-02 -2.517154812812805176e-01 -8.206636309623718262e-01
7.230228185653686523e-02 5.754123926162719727e-01 1.501636058092117310e-01
1.830028556287288666e-02 6.479977369308471680e-01 4.046683385968208313e-02
-1.802582666277885437e-02 -6.324459910392761230e-01 -1.151397079229354858e-01
8.632509410381317139e-02 5.498584508895874023e-01 1.372024510055780411e-02
-3.997471928596496582e-02 -6.060044169425964355e-01 -2.423842102289199829e-01
1.117801070213317871e-01 4.578319489955902100e-01 1.500472128391265869e-01
-1.169616580009460449e-01 1.562775522470474243e-01 6.224502325057983398e-01
-1.255596876144409180e-01 9.491226077079772949e-02 5.865138173103332520e-01
-5.901218205690383911e-02 6.010690927505493164e-01 -1.562098115682601929e-01
-1.103336960077285767e-01 2.975287437438964844e-01 5.447056293487548828e-01
1.472775936126708984e-01 2.399653643369674683e-01 3.540631756186485291e-02
-1.502543687820434570e-01 -8.198197185993194580e-02 3.198046684265136719e-01
-4.728476330637931824e-02 2.996169328689575195e-01 -8.733281493186950684e-01
-1.532031148672103882e-01 -1.595824360847473145e-01 1.865243315696716309e-01
7.408846914768218994e-02 -3.659919798374176025e-01 6.659055352210998535e-01
-1.260405778884887695e-01 -3.924706578254699707e-01 -2.326787412166595459e-01
-1.587043255567550659e-01 5.511502921581268311e-02 -2.416024506092071533e-01
-1.046541631221771240e-01 1.548765227198600769e-02 7.415925860404968262e-01
1.125885546207427979e-01 4.064808487892150879e-01 -3.215638697147369385e-01
-9.350045025348663330e-02 8.700747787952423096e-02 -8.514946103096008301e-01
1.407080143690109253e-01 -2.936342358589172363e-02 -4.119123518466949463e-01
-1.367608755826950073e-01 2.612465918064117432e-01 -4.037017226219177246e-01
-1.185316890478134155e-01 3.157511353492736816e-01 4.474971294403076172e-01
8.554995059967041016e-02 5.368471145629882812e-01 -1.870546340942382812e-01
9.537604451179504395e-02 -2.329917997121810913e-01 7.100123167037963867e-01
9.372822940349578857e-02 -4.170502722263336182e-01 4.507610201835632324e-01
-1.333700418472290039e-01 1.674288660287857056e-01 4.733654856681823730e-01
-1.270577162504196167e-01 -3.543644845485687256e-01 2.715374231338500977e-01
-1.593133211135864258e-01 -1.063600331544876099e-01 6.634160131216049194e-02
5.628315731883049011e-03 5.904925465583801270e-01 4.222651422023773193e-01
1.111031919717788696e-01 -3.797512650489807129e-01 -3.237024843692779541e-01
-2.713506110012531281e-02 -6.265620589256286621e-01 -1.433189064264297485e-01
-1.558837741613388062e-01 -2.098980918526649475e-02 2.360344827175140381e-01
-1.040297597646713257e-01 -4.981419742107391357e-01 -7.349207997322082520e-02
-1.036124527454376221e-01 3.938617110252380371e-01 4.460980594158172607e-01
-7.835225760936737061e-02 5.697190761566162109e-01 -7.683963514864444733e-03
8.344037830829620361e-02 -1.023044288158416748e-01 -8.187609314918518066e-01
-4.745248705148696899e-03 4.131668806076049805e-01 7.734106183052062988e-01
1.327365487813949585e-01 -3.142473995685577393e-01 1.480693817138671875e-01
-6.376186013221740723e-02 4.970636367797851562e-01 -5.474056601524353027e-01
1.456770002841949463e-01 -1.019338220357894897e-01 3.473895192146301270e-01
1.332592666149139404e-01 -2.369392514228820801e-01 3.713558018207550049e-01
-1.381425559520721436e-01 5.865934491157531738e-02 4.826298654079437256e-01
-1.403603106737136841e-01 -4.249813035130500793e-02 4.641197323799133301e-01
-1.298254281282424927e-01 -2.197940796613693237e-01 -5.475174188613891602e-01
1.265628039836883545e-01 4.057950153946876526e-02 -5.696507096290588379e-01
-8.436426520347595215e-02 -4.703727960586547852e-01 4.269168972969055176e-01
-2.367619238793849945e-02 -6.167605519294738770e-01 -2.421353608369827271e-01
7.061854004859924316e-02 2.374415248632431030e-01 -8.176119923591613770e-01
1.418616771697998047e-01 1.031651049852371216e-01 4.324578344821929932e-01
9.386259317398071289e-02 -4.110647737979888916e-01 4.637827277183532715e-01
1.310590505599975586e-01 1.916961222887039185e-01 -4.567206799983978271e-01
-1.584028750658035278e-01 1.072240546345710754e-01 -1.873320788145065308e-01
-1.071906536817550659e-01 1.292646527290344238e-01 7.000607252120971680e-01
-1.564445495605468750e-01 1.030424982309341431e-02 2.237419635057449341e-01
-1.077013909816741943e-01 4.854749441146850586e-01 -4.650650918483734131e-02
-9.878331422805786133e-02 -4.504456520080566406e-01 -4.233930110931396484e-01
1.346911191940307617e-01 -1.298832297325134277e-01 -4.350366294384002686e-01
1.411703079938888550e-01 -2.358273118734359741e-01 2.071889191865921021e-01
9.605225920677185059e-02 6.562098860740661621e-02 -7.750776410102844238e-01
1.167047470808029175e-01 -2.545879781246185303e-01 -4.986289441585540771e-01
-1.554719805717468262e-01 -1.060583516955375671e-01 1.991070657968521118e-01
-1.041802316904067993e-01 2.517096400260925293e-01 6.370546221733093262e-01
8.880290389060974121e-02 -1.701004505157470703e-01 -7.622658014297485352e-01
-1.085520833730697632e-01 4.824177622795104980e-01 -3.159982711076736450e-02
-1.244895011186599731e-01 -3.296822905540466309e-01 -4.425363242626190186e-01
4.060577601194381714e-02 -2.706219553947448730e-01 -8.648115396499633789e-01
1.045778542757034302e-01 4.925601482391357422e-01 -3.171772137284278870e-02
-1.311025470495223999e-01 -1.739616394042968750e-01 4.955110549926757812e-01
-1.108538806438446045e-01 -5.441168323159217834e-02 7.015743255615234375e-01
9.072282910346984863e-02 -4.368016123771667480e-01 -3.996568024158477783e-01
1.492114812135696411e-01 -6.981732696294784546e-02 -2.499234527349472046e-01
1.358958482742309570e-01 -2.610782533884048462e-02 -4.721108973026275635e-01
-9.159401059150695801e-02 -6.672052294015884399e-02 -8.633393645286560059e-01
-1.265007108449935913e-01 3.203250467777252197e-01 -4.307684302330017090e-01
-1.420740932226181030e-01 1.610178053379058838e-01 -4.644168019294738770e-01
1.132496446371078491e-01 3.159849941730499268e-01 5.293231010437011719e-01
-8.072017133235931396e-02 -2.274405509233474731e-01 -8.330446481704711914e-01
-4.038800671696662903e-02 5.199816823005676270e-01 5.384745597839355469e-01
-1.533375829458236694e-01 -1.384204626083374023e-01 2.136597335338592529e-01
-1.488725394010543823e-01 2.483716309070587158e-01 -1.429781168699264526e-01
5.723333731293678284e-02 1.631653159856796265e-01 9.096370935440063477e-01
4.421082511544227600e-02 -3.000329136848449707e-01 8.351641297340393066e-01
1.097987443208694458e-01 1.758272051811218262e-01 -6.539710760116577148e-01
-1.308483034372329712e-01 -4.479549825191497803e-02 5.572861433029174805e-01
-7.789023220539093018e-02 2.107108384370803833e-01 -8.570361733436584473e-01
-9.750463068485260010e-02 1.210591644048690796e-01 -8.232488036155700684e-01
1.121971905231475830e-01 4.009839892387390137e-01 -3.416639864444732666e-01
-1.049459725618362427e-01 -4.111892282962799072e-01 3.992364704608917236e-01
-1.056825071573257446e-01 -4.706717431545257568e-01 1.971841007471084595e-01
1.179855763912200928e-01 4.367106854915618896e-01 8.845047652721405029e-02
1.501427739858627319e-01 -9.747781604528427124e-02 2.546827793121337891e-01
-1.550669223070144653e-01 2.995387185364961624e-03 2.542212307453155518e-01
1.431093811988830566e-01 2.615179419517517090e-01 1.818431466817855835e-01
-6.655792891979217529e-02 -1.520972549915313721e-01 -9.181526899337768555e-01
1.314156949520111084e-01 3.518357872962951660e-01 1.852560937404632568e-01
1.023801267147064209e-01 3.297038078308105469e-01 -5.644624829292297363e-01
-1.184182018041610718e-01 -4.199082553386688232e-01 -2.713223695755004883e-01
1.528802365064620972e-01 -1.021921709179878235e-01 1.504841595888137817e-01
6.204642727971076965e-02 -5.765290260314941406e-01 5.126413330435752869e-02
3.383776172995567322e-02 4.566072225570678711e-01 -6.932835578918457031e-01
-1.426411718130111694e-01 2.673791646957397461e-01 1.940016746520996094e-01
6.196653470396995544e-02 4.863989651203155518e-01 5.543622374534606934e-01
-1.600986570119857788e-01 -8.292827010154724121e-02 -1.647143810987472534e-01
1.380903124809265137e-01 -2.444655448198318481e-02 -4.465630650520324707e-01
1.531730443239212036e-01 1.471268385648727417e-01 1.150921657681465149e-01
-1.333799213171005249e-01 8.246535062789916992e-02 -6.065136194229125977e-01
7.771222293376922607e-02 -3.355540037155151367e-01 6.899533271789550781e-01
1.236731261014938354e-01 3.568639159202575684e-01 -2.927730679512023926e-01
-7.675124704837799072e-02 -3.594681322574615479e-01 -7.202050089836120605e-01
1.556475162506103516e-01 7.970234006643295288e-02 1.157377734780311584e-01
6.285738945007324219e-02 -4.563313126564025879e-01 5.627725124359130859e-01
-7.196316123008728027e-02 3.237016201019287109e-01 7.302973270416259766e-01
-1.596495956182479858e-01 -1.216672360897064209e-01 -7.353635132312774658e-02
-1.208496093750000000e-01 -4.390899091958999634e-02 6.370128989219665527e-01
5.752064660191535950e-02 5.950652360916137695e-01 2.087414115667343140e-01
-2.797723375260829926e-02 -6.219710707664489746e-01 1.561829298734664917e-01
1.122051477432250977e-01 1.853765100240707397e-01 -6.311191916465759277e-01
1.120154261589050293e-01 -4.216176569461822510e-01 1.714501976966857910e-01
-1.393458545207977295e-01 3.070178031921386719e-01 1.495115011930465698e-01
-8.601310849189758301e-02 3.988320752978324890e-02 8.286392688751220703e-01
1.092919409275054932e-01 -3.983822464942932129e-01 -2.929861545562744141e-01
-1.139432340860366821e-01 3.472030460834503174e-01 4.392124116420745850e-01
-5.877413973212242126e-02 5.874009728431701660e-01 -2.654596865177154541e-01
-2.879212610423564911e-02 5.110824704170227051e-01 5.877436995506286621e-01
-1.384340040385723114e-02 6.502699255943298340e-01 -1.528909616172313690e-02
-1.573371440172195435e-01 -1.181610524654388428e-01 -2.244772613048553467e-01
-9.691357612609863281e-02 5.041740536689758301e-01 -2.405786812305450439e-01
6.875158846378326416e-02 1.630502343177795410e-01 -8.643890619277954102e-01
-1.383140087127685547e-01 -2.658284008502960205e-01 -3.808658421039581299e-01
1.310146450996398926e-01 3.256922662258148193e-01 2.903087139129638672e-01
-1.618707031011581421e-01 9.059646166861057281e-03 2.699935063719749451e-02
-1.381500512361526489e-01 -1.675584763288497925e-01 4.254715740680694580e-01
-8.438259363174438477e-02 -5.373175144195556641e-01 -2.339607477188110352e-01
-9.515196084976196289e-02 1.358806639909744263e-01 7.624790072441101074e-01
-3.513777256011962891e-02 -4.473443627357482910e-01 6.728976368904113770e-01
7.757779955863952637e-02 5.554498434066772461e-01 2.152406722307205200e-01
1.074030995368957520e-01 4.541942775249481201e-01 2.692122459411621094e-01
1.139236241579055786e-01 -4.056318104267120361e-01 -1.779804974794387817e-01
-1.181065291166305542e-01 -4.171554446220397949e-01 -2.886692583560943604e-01
-1.492584645748138428e-01 3.246373310685157776e-02 -4.422061145305633545e-01
-1.204565167427062988e-01 6.608088314533233643e-02 6.346175074577331543e-01
5.602155625820159912e-02 2.550777792930603027e-01 -8.542492389678955078e-01
-1.159155219793319702e-01 -4.815045371651649475e-02 6.704772114753723145e-01
-9.411683678627014160e-02 -1.902548670768737793e-01 7.400211095809936523e-01
1.486098021268844604e-01 -1.306984275579452515e-01 -1.931478679180145264e-01
-1.265537738800048828e-01 -2.563565075397491455e-01 4.576686322689056396e-01
-3.705495968461036682e-02 5.862822532653808594e-01 3.604579567909240723e-01
-1.453309506177902222e-01 -1.936299055814743042e-01 2.978983223438262939e-01
1.579306833446025848e-02 2.293216139078140259e-01 -9.473400712013244629e-01
-1.462139636278152466e-01 2.084411829710006714e-01 -3.382180631160736084e-01
-1.316918432712554932e-01 -2.318248450756072998e-01 -5.152144432067871094e-01
-9.424105286598205566e-02 -2.796221673488616943e-01 -7.330463528633117676e-01
8.890902996063232422e-02 -5.126835703849792480e-01 6.708765774965286255e-02
-1.593297421932220459e-01 3.257533535361289978e-05 1.473668962717056274e-01
1.230387985706329346e-01 3.212490677833557129e-01 4.206756651401519775e-01
-1.278480142354965210e-01 -3.145290315151214600e-01 -4.320849478244781494e-01
-8.033157885074615479e-02 -9.692005068063735962e-02 -8.971961140632629395e-01
-9.632812440395355225e-02 2.503432929515838623e-01 6.847627758979797363e-01
-1.254925727844238281e-01 -2.220013365149497986e-02 6.045260429382324219e-01
-1.611728072166442871e-01 -7.845492660999298096e-02 -8.983684331178665161e-02
1.250905096530914307e-01 1.754559725522994995e-01 -5.311166048049926758e-01
1.561085134744644165e-01 -4.231015592813491821e-02 -5.128738470375537872e-03
-9.700192511081695557e-02 4.174426794052124023e-01 -5.211934447288513184e-01
-1.353617608547210693e-01 2.019294798374176025e-01 -5.042943954467773438e-01
-1.479578614234924316e-01 -1.596539467573165894e-01 -3.854990601539611816e-01
1.399529576301574707e-01 -2.373775392770767212e-01 2.376888245344161987e-01
1.324561089277267456e-01 -3.018602728843688965e-02 5.550476908683776855e-01
-9.178957343101501465e-02 4.059806168079376221e-01 -5.798993110656738281e-01
1.422273665666580200e-01 -2.448324710130691528e-01 1.219656392931938171e-01
-1.481066942214965820e-01 1.366088986396789551e-01 3.088023066520690918e-01
3.409097716212272644e-02 -7.155085355043411255e-02 -9.746377468109130859e-01
-7.720984518527984619e-02 -3.521738648414611816e-01 6.727792024612426758e-01
1.697356998920440674e-02 -6.280147433280944824e-01 -1.034610718488693237e-01
-9.564533829689025879e-02 2.516902387142181396e-01 -7.536114454269409180e-01
-4.111878946423530579e-02 -6.199070215225219727e-01 5.407457053661346436e-02
-1.485548168420791626e-01 1.595263630151748657e-01 -3.674449324607849121e-01
-1.498526036739349365e-01 1.029395610094070435e-01 3.082287013530731201e-01
-1.424714177846908569e-01 6.215718761086463928e-02 -5.212503075599670410e-01
-5.158518627285957336e-02 -2.402701675891876221e-01 8.604575395584106445e-01
3.391190245747566223e-02 -2.240863740444183350e-01 9.109637141227722168e-01
1.259739547967910767e-01 3.923162519931793213e-01 -9.241786599159240723e-02
1.501844525337219238e-01 1.379418373107910156e-01 2.505425512790679932e-01
1.204158458858728409e-02 4.602614641189575195e-01 -7.220832705497741699e-01
1.204764842987060547e-01 3.712101876735687256e-01 -3.047387301921844482e-01
-1.599518209695816040e-01 1.041274815797805786e-01 -8.847294002771377563e-02
-1.282104253768920898e-01 -2.972097694873809814e-01 -4.595221877098083496e-01
1.068290621042251587e-01 -4.498174786567687988e-01 1.085559576749801636e-01
2.468426153063774109e-02 -1.428043395280838013e-01 -9.683746695518493652e-01
1.184247136116027832e-01 4.352249801158905029e-01 -4.235654324293136597e-02
8.338138461112976074e-02 -3.677510619163513184e-01 -5.928328633308410645e-01
1.341595947742462158e-01 -2.101907879114151001e-01 4.014911949634552002e-01
-1.453312784433364868e-01 2.194112390279769897e-01 2.450517863035202026e-01
1.128364652395248413e-01 4.076812863349914551e-01 3.497023880481719971e-01
-8.355417847633361816e-02 -3.116830065846443176e-02 8.393474221229553223e-01
-1.123574078083038330e-01 -1.928896605968475342e-01 6.330353021621704102e-01
-6.096996366977691650e-02 6.462866812944412231e-02 9.105928540229797363e-01
-8.984532952308654785e-02 -3.897477686405181885e-01 5.542858839035034180e-01
-1.509269326925277710e-01 3.316749259829521179e-02 3.244113624095916748e-01
1.549508124589920044e-01 -8.173087239265441895e-02 1.968594640493392944e-02
-2.080162987112998962e-02 -5.451985597610473633e-01 4.983048439025878906e-01
-1.294212192296981812e-01 2.839281260967254639e-01 3.789173960685729980e-01
-2.939776517450809479e-02 -1.643414646387100220e-01 -9.752014279365539551e-01
9.279368817806243896e-02 3.099126815795898438e-01 -6.514256596565246582e-01
1.253905445337295532e-01 -2.904848381876945496e-02 6.194764971733093262e-01
8.218476176261901855e-02 -1.501950919628143311e-01 8.264762759208679199e-01
1.246550530195236206e-01 2.592047750949859619e-01 4.972875118255615234e-01
4.570518061518669128e-02 -2.155569642782211304e-01 -8.917049765586853027e-01
-4.329273849725723267e-02 3.999273478984832764e-01 7.344747185707092285e-01
1.432266533374786377e-01 2.786255478858947754e-01 7.135163992643356323e-02
-1.324272006750106812e-01 2.929434180259704590e-01 -4.065057933330535889e-01
-7.146897912025451660e-02 1.449267566204071045e-01 8.562432527542114258e-01
-1.200852841138839722e-01 3.532465696334838867e-01 3.609322905540466309e-01
-1.150507032871246338e-01 -9.196014702320098877e-02 -7.401490211486816406e-01
-1.056705117225646973e-01 -3.798372447490692139e-01 -5.268219709396362305e-01
5.638810247182846069e-02 -5.721115469932556152e-01 2.151988893747329712e-01
-1.607976108789443970e-01 -3.537743538618087769e-02 -1.807192265987396240e-01
-1.413180828094482422e-01 2.173573821783065796e-01 -4.074288904666900635e-01
-5.739155039191246033e-02 5.218968987464904785e-01 4.667510986328125000e-01
1.548790782690048218e-01 -3.082873672246932983e-02 -1.124276071786880493e-01
1.135461032390594482e-01 -4.252783954143524170e-01 -1.204107422381639481e-02
-1.265381872653961182e-01 -2.337290942668914795e-01 4.841515123844146729e-01
4.540830850601196289e-02 -2.861989140510559082e-01 -8.401067852973937988e-01
1.045418083667755127e-01 8.418941870331764221e-03 -7.313718795776367188e-01
1.530104577541351318e-01 -1.208626627922058105e-01 6.483223289251327515e-02
5.805451422929763794e-02 -5.830310583114624023e-01 -5.731285363435745239e-02
6.492529809474945068e-02 2.601350247859954834e-01 8.344594836235046387e-01
1.334808766841888428e-01 3.266970813274383545e-01 -1.872976571321487427e-01
-1.585897505283355713e-01 -1.406972706317901611e-01 -2.477562986314296722e-03
-1.187413185834884644e-01 -3.507737815380096436e-01 -4.639205634593963623e-01
1.348650306463241577e-01 -7.628401368856430054e-02 5.142511129379272461e-01
1.056773066520690918e-01 -3.935392498970031738e-01 3.902279138565063477e-01
-1.176279187202453613e-01 4.032764136791229248e-01 -3.394117653369903564e-01
-9.296695888042449951e-02 -4.128669202327728271e-01 -5.552483201026916504e-01
1.117357425391674042e-02 1.398059576749801636e-01 -9.912398457527160645e-01
-1.151500642299652100e-01 2.399165630340576172e-01 -6.472452878952026367e-01
-7.218569517135620117e-02 -4.260844290256500244e-01 5.878832936286926270e-01
9.798929095268249512e-02 -2.868435382843017578e-01 -6.093694567680358887e-01
5.697947740554809570e-02 1.382829397916793823e-01 -9.107915759086608887e-01
1.338373571634292603e-01 -1.644680798053741455e-01 4.620138108730316162e-01
-1.287619620561599731e-01 -1.888185441493988037e-01 5.059189796447753906e-01
8.542922139167785645e-02 -9.346006065607070923e-02 8.364023566246032715e-01
-1.315610408782958984e-01 2.065627276897430420e-01 4.565761089324951172e-01
1.299491077661514282e-01 -2.847889363765716553e-01 3.254157900810241699e-01
-1.267974823713302612e-01 4.034707248210906982e-01 -7.226010411977767944e-02
-1.323735564947128296e-01 1.301348954439163208e-01 5.093413591384887695e-01
9.642927348613739014e-02 -4.785303771495819092e-01 1.868427246809005737e-01
1.396880149841308594e-01 1.544141769409179688e-01 4.283441603183746338e-01
8.236587047576904297e-02 -5.261925458908081055e-01 1.348000615835189819e-01
8.105811476707458496e-02 -3.319039642810821533e-01 -6.563206911087036133e-01
-1.590480953454971313e-01 -3.658254072070121765e-02 -2.462176382541656494e-01
-1.422574520111083984e-01 -2.691418230533599854e-01 2.157856523990631104e-01
-1.317993998527526855e-01 3.704172372817993164e-01 6.999585777521133423e-02
-5.843213573098182678e-02 5.473825335502624512e-01 -4.370074570178985596e-01
3.068529814481735229e-02 5.099144577980041504e-01 -6.051058173179626465e-01
9.380400180816650391e-02 -2.479984015226364136e-01 -6.767339110374450684e-01
-7.716959714889526367e-02 -2.913247346878051758e-01 -7.936120033264160156e-01
-1.601844877004623413e-01 1.007885113358497620e-01 -6.875823438167572021e-02
-1.454965472221374512e-01 2.497458159923553467e-01 1.714985668659210205e-01
1.426376402378082275e-01 -1.576060354709625244e-01 -2.876521348953247070e-01
-1.552123427391052246e-01 -1.504449546337127686e-01 1.448692381381988525e-01
-6.096340715885162354e-02 6.035671830177307129e-01 -4.870261624455451965e-02
-1.239114701747894287e-01 -3.659734129905700684e-01 -3.657250702381134033e-01
-1.346994489431381226e-01 -3.653737604618072510e-01 -5.650633573532104492e-02
1.475178301334381104e-01 1.955112665891647339e-01 -1.747851073741912842e-01
2.268040180206298828e-02 -1.762214452028274536e-01 -9.566497206687927246e-01
-1.297069787979125977e-01 -1.107310503721237183e-01 5.469245910644531250e-01
-1.482555121183395386e-01 1.694990843534469604e-01 -3.599936068058013916e-01
1.205683946609497070e-01 -9.986660629510879517e-02 -5.943931937217712402e-01
9.910625219345092773e-02 3.002503421157598495e-03 7.922183275222778320e-01
-1.188375800848007202e-01 4.407365024089813232e-01 -2.255513332784175873e-03
2.307001687586307526e-02 3.380306065082550049e-01 8.490329384803771973e-01
5.998583510518074036e-02 5.535142421722412109e-01 -3.762848079204559326e-01
1.088983863592147827e-01 3.863109350204467773e-01 -4.140241444110870361e-01
1.347558498382568359e-01 -2.475384622812271118e-02 5.326390862464904785e-01
8.341909945011138916e-02 2.584332525730133057e-01 7.697314620018005371e-01
1.552998870611190796e-01 3.639014810323715210e-02 1.704792976379394531e-01
-1.584578007459640503e-01 -1.549385488033294678e-02 1.731399893760681152e-01
-1.374135762453079224e-01 -7.090498507022857666e-02 4.885209798812866211e-01
6.766358017921447754e-02 5.212466716766357422e-01 -4.278284013271331787e-01
-8.145792782306671143e-02 1.108799278736114502e-01 8.318756818771362305e-01
-2.642096765339374542e-02 6.182705163955688477e-01 -2.960993945598602295e-01
9.395737946033477783e-02 -2.515295147895812988e-01 7.009006142616271973e-01
1.107733696699142456e-01 -4.139629304409027100e-01 2.445940226316452026e-01
1.217702180147171021e-01 -3.071924448013305664e-01 -3.558328747749328613e-01
1.050418168306350708e-01 -4.519000053405761719e-01 1.563303768634796143e-01
-9.200939536094665527e-02 2.587614059448242188e-01 -7.651363015174865723e-01
-1.430529654026031494e-01 -1.943062096834182739e-01 -4.207941293716430664e-01
-2.696290239691734314e-02 -2.166955359280109406e-02 -1.012596368789672852e+00
5.295003950595855713e-02 -5.910735726356506348e-01 7.792004942893981934e-02
1.440223306417465210e-01 -1.764875650405883789e-01 -2.284334003925323486e-01
-5.775414407253265381e-02 2.233495265245437622e-01 -9.065982103347778320e-01
-8.070673048496246338e-02 2.366924285888671875e-01 -8.296993374824523926e-01
1.249307394027709961e-01 2.322191596031188965e-01 5.253283977508544922e-01
3.797437623143196106e-02 -2.224755883216857910e-01 -9.049236178398132324e-01
9.036019444465637207e-02 5.367252826690673828e-01 -6.198014691472053528e-02
9.526079893112182617e-02 3.870900571346282959e-01 5.576249361038208008e-01
-1.354008466005325317e-01 -3.588872253894805908e-01 2.411412820219993591e-02
-5.098542943596839905e-02 -4.357867836952209473e-01 6.519448161125183105e-01
1.177085787057876587e-01 -3.442622721195220947e-01 -3.264839053153991699e-01
1.512195914983749390e-01 1.625506393611431122e-02 -2.400763034820556641e-01
9.641748666763305664e-02 -1.958207935094833374e-01 7.338484525680541992e-01
-2.898158505558967590e-02 2.073650658130645752e-01 -9.610139131546020508e-01
-1.155239939689636230e-01 4.388672113418579102e-01 1.521038413047790527e-01
-1.339766085147857666e-01 -1.112568676471710205e-01 -5.905104279518127441e-01
9.656342864036560059e-02 2.149792015552520752e-01 7.399805784225463867e-01
-8.720508217811584473e-02 -4.978810250759124756e-01 -3.817834258079528809e-01
2.646484225988388062e-02 5.246792435646057129e-01 -5.833861827850341797e-01
-3.006466105580329895e-02 6.396751403808593750e-01 4.769268259406089783e-02
-6.924346089363098145e-02 3.395307809114456177e-02 8.900324702262878418e-01
8.379893004894256592e-02 -1.587430983781814575e-01 -7.925706505775451660e-01
-1.014423519372940063e-01 1.124256625771522522e-01 -8.077493309974670410e-01
-5.531814321875572205e-02 -4.997847378253936768e-01 -5.585918426513671875e-01
2.206902392208576202e-02 2.684468328952789307e-01 9.067347645759582520e-01
-1.546353399753570557e-01 1.187170147895812988e-01 1.961926966905593872e-01
-1.127885878086090088e-01 -4.348413050174713135e-01 -3.070396184921264648e-01
-9.045375883579254150e-02 -1.689108610153198242e-01 7.693837881088256836e-01
-1.481079608201980591e-01 -2.493214756250381470e-01 -2.060297727584838867e-01
7.046476006507873535e-02 -3.261338174343109131e-01 7.318736314773559570e-01
-1.508015543222427368e-01 1.491730362176895142e-01 2.449717074632644653e-01
9.067633748054504395e-02 -5.084777474403381348e-01 3.029163926839828491e-02
1.468948572874069214e-01 1.806725561618804932e-01 -2.190566062927246094e-01
-9.057170152664184570e-02 -4.808059036731719971e-01 3.470486402511596680e-01
-1.312755495309829712e-01 2.452088445425033569e-01 4.144403636455535889e-01
1.151205897331237793e-01 3.409825563430786133e-01 4.723040461540222168e-01
6.646168231964111328e-02 -2.029278688132762909e-02 9.153086543083190918e-01
-1.175409406423568726e-01 4.102766811847686768e-01 -3.166319131851196289e-01
2.787859924137592316e-02 4.565097689628601074e-01 -7.056528329849243164e-01
1.488346010446548462e-01 6.312999874353408813e-02 -2.830083370208740234e-01
1.478075683116912842e-01 -1.258706748485565186e-01 -2.215120494365692139e-01
1.159196943044662476e-01 4.385316073894500732e-01 -1.251908689737319946e-01
-1.090957373380661011e-01 -1.206284165382385254e-01 -7.645015716552734375e-01
-1.519199162721633911e-01 -1.521994620561599731e-01 -3.199701607227325439e-01
7.559423148632049561e-02 -1.280367523431777954e-01 -8.418645262718200684e-01
9.032127261161804199e-02 -1.168740391731262207e-01 8.071467280387878418e-01
-1.292376369237899780e-01 -2.984707355499267578e-01 3.646957874298095703e-01
1.334534883499145508e-01 3.336491584777832031e-01 -1.610767394304275513e-01
1.324979662895202637e-01 -5.101377516984939575e-02 -5.026075243949890137e-01
1.182330846786499023e-01 2.300334721803665161e-01 -5.490542054176330566e-01
8.716176450252532959e-02 -9.690844453871250153e-04 -8.219153881072998047e-01
1.287275552749633789e-01 2.143766582012176514e-01 -4.614665508270263672e-01
1.550689637660980225e-01 9.018117189407348633e-02 -7.898136228322982788e-02
-5.210328102111816406e-02 5.544959306716918945e-01 3.998481333255767822e-01
-1.510725915431976318e-01 -6.476559210568666458e-03 3.266105651855468750e-01
1.542828083038330078e-01 -1.935420371592044830e-02 -1.444987356662750244e-01
-1.226127445697784424e-01 1.256419420242309570e-01 5.965710878372192383e-01
1.064398586750030518e-01 -4.533990919589996338e-01 7.697878032922744751e-02
1.344151645898818970e-01 1.326904445886611938e-01 -4.615094065666198730e-01
1.054863333702087402e-01 -3.313016891479492188e-01 5.231230258941650391e-01
5.430234596133232117e-02 3.659266233444213867e-01 -7.597372531890869141e-01
-1.152504384517669678e-01 3.770284652709960938e-01 -4.414349794387817383e-01
-1.389666646718978882e-01 -2.852492332458496094e-01 -3.281656801700592041e-01
-1.020479053258895874e-01 -1.281303763389587402e-01 7.304654717445373535e-01
-1.527414768934249878e-01 -1.965495757758617401e-02 -3.906906247138977051e-01
-1.176343858242034912e-01 -5.738953128457069397e-02 -7.330106496810913086e-01
-1.497075855731964111e-01 -2.521997988224029541e-01 -1.079215630888938904e-01
6.645275652408599854e-02 5.284671783447265625e-01 -4.145905673503875732e-01
-6.012031808495521545e-02 2.999253571033477783e-03 -9.658520817756652832e-01
-7.366876304149627686e-02 2.126488238573074341e-01 -8.697809576988220215e-01
-1.359163820743560791e-01 3.492334112524986267e-02 5.107524394989013672e-01
1.202556490898132324e-01 4.143333733081817627e-01 1.862455159425735474e-01
1.111561954021453857e-01 2.145225256681442261e-01 6.533759832382202148e-01
1.523568481206893921e-01 6.455413997173309326e-02 -2.016496956348419189e-01
4.299316555261611938e-02 5.097318887710571289e-01 -5.712842941284179688e-01
1.398717164993286133e-01 -9.059823304414749146e-02 -3.957473933696746826e-01
-1.014963835477828979e-01 -5.066022872924804688e-01 -9.113138541579246521e-03
-1.185149997472763062e-01 -9.151083230972290039e-02 6.423435211181640625e-01
8.018624782562255859e-02 4.604668021202087402e-01 5.153640508651733398e-01
1.163787096738815308e-01 2.330283373594284058e-01 -5.621285438537597656e-01
-7.228733599185943604e-02 -2.889745831489562988e-01 -8.123592138290405273e-01
6.319810450077056885e-02 5.608821511268615723e-01 3.356902897357940674e-01
1.004870682954788208e-01 -4.445417821407318115e-01 2.904845774173736572e-01
1.503507345914840698e-01 -3.020199760794639587e-02 3.038944602012634277e-01
-6.558230519294738770e-02 -1.855423450469970703e-01 8.549556732177734375e-01
1.282232105731964111e-01 1.611995995044708252e-01 5.537935495376586914e-01
-1.317131072282791138e-01 7.732755690813064575e-02 5.398796796798706055e-01
-1.005340665578842163e-01 2.735943794250488281e-01 6.388353705406188965e-01
1.229741424322128296e-01 1.608739942312240601e-01 -5.599516034126281738e-01
-7.662163674831390381e-02 4.427057802677154541e-01 -5.987978577613830566e-01
1.461682170629501343e-01 2.477283924818038940e-01 9.449432045221328735e-02
1.213896870613098145e-01 3.705602586269378662e-01 -2.922823131084442139e-01
-8.027401566505432129e-02 4.581861793994903564e-01 -5.475547313690185547e-01
-8.899202942848205566e-02 -2.048527747392654419e-01 7.553297281265258789e-01
-1.446029543876647949e-01 2.638590633869171143e-01 -2.433013319969177246e-01
1.174048781394958496e-01 1.098033227026462555e-02 -6.454960703849792480e-01
-2.865454182028770447e-03 3.740369379520416260e-01 -8.414328098297119141e-01
-1.529894173145294189e-01 -2.171555161476135254e-01 -1.155281737446784973e-01
9.275531768798828125e-02 3.112908825278282166e-02 8.220190405845642090e-01
-1.426473557949066162e-01 -3.129360675811767578e-01 -7.760611921548843384e-02
9.110307693481445312e-02 -1.534059047698974609e-01 -7.599443197250366211e-01
-1.057586371898651123e-01 -1.913313865661621094e-01 6.760182976722717285e-01
1.344592869281768799e-01 -1.116003468632698059e-01 -4.511703550815582275e-01
-1.415425390005111694e-01 2.063878029584884644e-01 -4.196958541870117188e-01
1.568552702665328979e-01 9.970859624445438385e-03 5.792133510112762451e-02
5.982453748583793640e-02 -5.153871327638626099e-02 -9.179213047027587891e-01
-7.305471226572990417e-04 4.220632836222648621e-02 -1.017428636550903320e+00
-1.388584673404693604e-01 -3.349701166152954102e-01 4.642458632588386536e-02
-1.280820220708847046e-01 1.830081790685653687e-01 -5.947305560111999512e-01
-2.020798064768314362e-02 6.323571801185607910e-01 -2.319890856742858887e-01
-1.397425234317779541e-01 2.748640775680541992e-01 -3.255330324172973633e-01
-5.534953624010086060e-02 -3.664093315601348877e-01 -7.791229486465454102e-01
-7.725861668586730957e-02 3.800045549869537354e-01 6.394363045692443848e-01
1.442774832248687744e-01 -2.307236790657043457e-01 7.944349944591522217e-02
1.125631332397460938e-01 1.554159671068191528e-01 6.815494298934936523e-01
6.713230907917022705e-02 5.917840600013732910e-01 -5.343826860189437866e-02
8.502787351608276367e-02 -1.702346056699752808e-01 -7.805358171463012695e-01
8.582264184951782227e-02 4.935814142227172852e-01 3.892476558685302734e-01
-9.476074576377868652e-02 3.373029232025146484e-01 -6.675004959106445312e-01
8.629664778709411621e-02 3.314765095710754395e-01 -6.641509532928466797e-01
1.457555890083312988e-01 2.065389454364776611e-01 2.530064284801483154e-01
1.514144986867904663e-01 -9.477450512349605560e-04 2.890615165233612061e-01
1.206028908491134644e-01 -1.474921852350234985e-01 -5.667185187339782715e-01
-1.161469966173171997e-01 -4.339010119438171387e-01 1.777955442667007446e-01
-5.167140439152717590e-02 -6.021169424057006836e-01 -1.767454296350479126e-01
-1.528910100460052490e-01 1.328388415277004242e-02 -3.879958391189575195e-01
-9.865017235279083252e-02 8.259270340204238892e-02 -8.299778699874877930e-01
7.897470891475677490e-02 -1.083515211939811707e-01 -8.357286453247070312e-01
1.107915490865707397e-01 4.663282036781311035e-01 -7.239168137311935425e-02
-1.119803786277770996e-01 5.121599510312080383e-02 6.947100162506103516e-01
5.851279571652412415e-02 -1.110519841313362122e-01 -9.068283438682556152e-01
1.415598541498184204e-01 -2.170570939779281616e-01 2.514384984970092773e-01
1.777740381658077240e-02 3.908353447914123535e-01 -8.090975284576416016e-01
-1.607749462127685547e-01 1.441002450883388519e-02 -1.872024536132812500e-01
-1.592063307762145996e-01 2.960639260709285736e-02 1.441322714090347290e-01
-1.029027402400970459e-01 4.863105118274688721e-01 1.604561656713485718e-01
1.141285747289657593e-01 3.184373304247856140e-02 7.060378789901733398e-01
6.343327462673187256e-03 -4.063578546047210693e-01 7.644053697586059570e-01
-1.003417819738388062e-01 4.646498262882232666e-01 2.961896657943725586e-01
-1.310311704874038696e-01 -2.596859037876129150e-01 4.047358930110931396e-01
-1.070590913295745850e-01 2.680118978023529053e-01 6.021776199340820312e-01
1.362961381673812866e-01 -9.963225573301315308e-03 5.185592174530029297e-01
-1.261534243822097778e-01 2.903469502925872803e-01 4.072817862033843994e-01
-1.583230495452880859e-01 -1.193946897983551025e-01 -1.835613995790481567e-01
-1.620456129312515259e-01 -2.916003018617630005e-02 -9.887674450874328613e-02
1.413382589817047119e-01 2.909038364887237549e-01 1.132156252861022949e-01
-3.598552662879228592e-03 5.734373331069946289e-01 -4.958046376705169678e-01
8.975425362586975098e-02 3.567192256450653076e-01 -6.130652427673339844e-01
1.532553136348724365e-01 4.838530905544757843e-03 -1.862011551856994629e-01
-1.193646639585494995e-01 -4.327538013458251953e-01 1.016714647412300110e-01
-7.848545908927917480e-02 4.554215967655181885e-01 5.049926638603210449e-01
-9.754072129726409912e-02 4.706916213035583496e-01 3.090489208698272705e-01
-1.178234070539474487e-01 -1.692147552967071533e-01 6.104893684387207031e-01
1.099414229393005371e-01 -1.307076215744018555e-01 -6.594965457916259766e-01
1.363575309514999390e-01 6.471469253301620483e-02 -4.664721786975860596e-01
-1.085137128829956055e-01 -2.119014710187911987e-01 6.444214582443237305e-01
9.789079427719116211e-02 9.008226543664932251e-02 7.894876599311828613e-01
-7.656011264771223068e-03 -2.816109359264373779e-01 8.915702700614929199e-01
-1.365009248256683350e-01 1.337942183017730713e-01 4.647981524467468262e-01
1.564691811800003052e-01 1.539082080125808716e-02 -4.815175011754035950e-02
-7.683041691780090332e-02 5.671141743659973145e-01 -1.600809544324874878e-01
1.229114979505538940e-01 1.415701508522033691e-01 6.122388243675231934e-01
-8.893853425979614258e-02 -4.698044359683990479e-01 -4.533545672893524170e-01
1.479450166225433350e-01 -1.047835424542427063e-01 -2.449774742126464844e-01
1.413110084831714630e-02 -4.453971385955810547e-01 7.039865255355834961e-01
9.720341861248016357e-02 5.090588331222534180e-01 1.642937362194061279e-01
1.117883622646331787e-01 4.653179049491882324e-01 -1.856477186083793640e-02
1.150908172130584717e-01 -9.746216237545013428e-02 6.765912175178527832e-01
-9.933337569236755371e-02 4.811769723892211914e-01 -3.159812092781066895e-01
-1.327832639217376709e-01 3.385551273822784424e-01 1.983222961425781250e-01
-3.052979707717895508e-02 -6.295150518417358398e-01 -4.887626320123672485e-02
-6.916595995426177979e-02 2.168028242886066437e-02 -9.435195326805114746e-01
1.064696162939071655e-01 2.457737624645233154e-01 6.589399576187133789e-01
1.172424107789993286e-01 1.007764488458633423e-01 6.721968054771423340e-01
-1.127714216709136963e-01 -4.676044285297393799e-01 1.666398718953132629e-03
1.340728402137756348e-01 3.385157585144042969e-01 -1.168269962072372437e-01
4.901475086808204651e-02 -5.963708758354187012e-01 -8.223329484462738037e-02
-1.182795614004135132e-01 4.120614528656005859e-01 -2.971878945827484131e-01
-1.168466806411743164e-01 -2.050209194421768188e-01 5.922494530677795410e-01
1.319676339626312256e-01 -3.263950347900390625e-01 8.470159769058227539e-02
2.148104086518287659e-02 -3.403467833995819092e-01 8.310169577598571777e-01
1.227636784315109253e-01 -5.210313946008682251e-02 -5.938315391540527344e-01
-1.532713770866394043e-01 1.736178398132324219e-01 -2.353730052709579468e-01
-2.020730823278427124e-02 1.106143072247505188e-01 -1.004376053810119629e+00
-1.493597924709320068e-01 2.324494421482086182e-01 -1.967419236898422241e-01
5.271064117550849915e-03 1.254751160740852356e-02 1.000155806541442871e+00
-4.125747084617614746e-02 -3.555520176887512207e-01 -8.198845386505126953e-01
1.047435849905014038e-01 3.137434422969818115e-01 -5.673835277557373047e-01
-9.037211537361145020e-02 -4.415621459484100342e-01 -5.127409696578979492e-01
9.750178456306457520e-02 -5.943522322922945023e-03 -7.705290317535400391e-01
6.475175917148590088e-02 5.933802127838134766e-01 -1.020860671997070312e-01
1.341218948364257812e-01 -2.711898088455200195e-01 -2.322627305984497070e-01
-1.249645203351974487e-01 -3.036297857761383057e-01 4.062820374965667725e-01
-9.086120128631591797e-02 -3.983491063117980957e-01 -5.948088169097900391e-01
7.450868189334869385e-02 -1.384539008140563965e-01 8.601597547531127930e-01
-1.374593675136566162e-01 -2.919377982616424561e-01 2.549837231636047363e-01
-1.588362157344818115e-01 -1.058786213397979736e-01 9.090576320886611938e-02
1.402995735406875610e-01 9.588317573070526123e-02 4.568723142147064209e-01
7.306396961212158203e-02 -4.568286240100860596e-01 5.077602863311767578e-01
-1.425122320652008057e-01 1.787749826908111572e-01 -4.400891661643981934e-01
-9.513814747333526611e-02 3.419630229473114014e-01 5.928513407707214355e-01
-1.442744731903076172e-01 -8.799859136343002319e-02 -4.917508661746978760e-01
1.476850807666778564e-01 4.264470562338829041e-02 -3.099253773689270020e-01
-8.186626434326171875e-02 -4.864550232887268066e-01 4.025561213493347168e-01
-6.485089659690856934e-02 5.372409820556640625e-01 -4.327369332313537598e-01
8.246473968029022217e-02 -2.483699098229408264e-02 -8.406624794006347656e-01
-9.303744137287139893e-02 1.687585860490798950e-01 7.573382258415222168e-01
1.225931644439697266e-01 -3.823201358318328857e-01 4.698624834418296814e-02
-1.543145477771759033e-01 1.344558149576187134e-01 -2.776793241500854492e-01
1.258640140295028687e-01 -3.157245516777038574e-01 -2.718712091445922852e-01
-1.125607788562774658e-01 2.623420059680938721e-01 5.684607625007629395e-01
6.599058210849761963e-02 5.930250287055969238e-01 8.365426957607269287e-02
-1.166788488626480103e-01 -4.513779580593109131e-01 -9.605917334556579590e-02
-1.415921896696090698e-01 -1.561557352542877197e-01 3.929090499877929688e-01
-1.067932397127151489e-01 4.930793866515159607e-02 -7.968831658363342285e-01
1.380943655967712402e-01 -1.656760126352310181e-01 -3.539788722991943359e-01
-7.920642197132110596e-02 1.253232359886169434e-01 -8.934859037399291992e-01
-4.872430488467216492e-02 -5.535211563110351562e-01 3.962760865688323975e-01
-1.398157910443842411e-03 2.296079993247985840e-01 9.377120137214660645e-01
1.503118127584457397e-01 -1.257424652576446533e-01 -1.494160890579223633e-01
-1.115207076072692871e-01 -4.502312541007995605e-01 1.904706209897994995e-01
-1.549150347709655762e-01 -1.777126342058181763e-01 -1.846154630184173584e-01
7.839512825012207031e-02 -9.487021714448928833e-02 -8.426159024238586426e-01
-1.396561414003372192e-01 3.244180083274841309e-01 -1.266914606094360352e-01
1.355292052030563354e-01 -2.708773612976074219e-01 2.491430789232254028e-01
4.746671766042709351e-02 6.197706460952758789e-01 1.113878488540649414e-01
-9.790532290935516357e-02 -4.724671244621276855e-01 2.988378405570983887e-01
2.065407298505306244e-02 -5.860638618469238281e-01 -3.626293838024139404e-01
9.708291292190551758e-02 5.179163813591003418e-01 -3.217560797929763794e-02
1.026998311281204224e-01 4.588828086853027344e-01 3.210330605506896973e-01
-1.497869789600372314e-01 1.844844520092010498e-01 -3.059009015560150146e-01
7.951828837394714355e-02 5.658450722694396973e-01 6.065291911363601685e-02
-1.326390057802200317e-01 1.506150811910629272e-01 -5.774275064468383789e-01
1.433792114257812500e-01 2.114106565713882446e-01 -2.482289224863052368e-01
-9.574109315872192383e-02 -8.331994712352752686e-02 7.773286104202270508e-01
7.454901933670043945e-02 5.196290612220764160e-01 -3.833572566509246826e-01
-1.554252803325653076e-01 1.801739782094955444e-01 -1.058745905756950378e-01
8.835995197296142578e-02 5.074533820152282715e-01 -2.928555607795715332e-01
9.487310051918029785e-02 -4.939538538455963135e-01 7.905040681362152100e-02
-4.305272549390792847e-02 3.448416888713836670e-01 7.982150316238403320e-01
-1.036525368690490723e-01 3.061687946319580078e-01 -6.531159877777099609e-01
-1.013576388359069824e-01 -3.468633294105529785e-01 5.458089709281921387e-01
6.817699968814849854e-02 -5.468256473541259766e-01 -2.171715050935745239e-01
5.894885212182998657e-02 -5.656418204307556152e-01 2.285161614418029785e-01
1.159814298152923584e-01 -3.678948804736137390e-02 -6.507574319839477539e-01
-1.761827990412712097e-02 -2.665716707706451416e-01 8.967352509498596191e-01
-1.494437158107757568e-01 -1.931767910718917847e-01 -3.104758560657501221e-01
1.362918615341186523e-01 -4.994713142514228821e-02 -4.607926607131958008e-01
-3.571865335106849670e-02 6.164955496788024902e-01 -2.642222642898559570e-01
-1.179982423782348633e-01 4.247325360774993896e-01 1.690962314605712891e-01
1.290036141872406006e-01 1.013424769043922424e-01 -5.331378579139709473e-01
-1.287525743246078491e-01 -3.845163881778717041e-01 -2.006198316812515259e-01
2.155904471874237061e-02 -3.651159703731536865e-01 8.042390942573547363e-01
-1.232261061668395996e-01 3.857937157154083252e-01 2.258428335189819336e-01
1.493965089321136475e-01 2.115058451890945435e-01 -3.193408995866775513e-02
-9.789849817752838135e-02 1.464495509862899780e-01 -8.108874559402465820e-01
-1.020677536725997925e-01 -4.814983606338500977e-01 2.052601724863052368e-01
-1.246295720338821411e-01 2.892144024372100830e-02 6.101554036140441895e-01
1.398191154003143311e-01 3.077097237110137939e-01 6.874338537454605103e-02
1.379331350326538086e-01 -2.860557138919830322e-01 -1.232781819999217987e-02
8.108942210674285889e-02 -6.059252843260765076e-02 -8.405684828758239746e-01
8.392332494258880615e-02 1.178975403308868408e-01 -8.211992979049682617e-01
-1.994421333074569702e-02 -5.065714716911315918e-01 -6.158874630928039551e-01
1.396162211894989014e-01 1.955707818269729614e-01 -3.392900228500366211e-01
-1.499046385288238525e-01 -9.820780158042907715e-02 -4.074884951114654541e-01
7.985213771462440491e-03 3.421451151371002197e-01 8.531866669654846191e-01
-8.465895056724548340e-02 -2.462087124586105347e-01 -8.043833374977111816e-01
1.544130444526672363e-01 -4.149004071950912476e-02 -1.226604059338569641e-01
-1.184813976287841797e-01 -4.341318905353546143e-01 -1.939382702112197876e-01
1.461475640535354614e-01 1.158522814512252808e-01 -3.056018650531768799e-01
1.057284921407699585e-01 1.352344006299972534e-01 7.332078218460083008e-01
-9.923630952835083008e-02 -4.409573078155517578e-01 -4.450586438179016113e-01
2.077434398233890533e-02 -2.562569975852966309e-01 -9.115312695503234863e-01
3.608352318406105042e-02 2.658687531948089600e-01 8.929780721664428711e-01
6.140756234526634216e-02 -5.783438086509704590e-01 -5.138216074556112289e-03
1.517562419176101685e-01 -1.167017072439193726e-01 1.686316281557083130e-01
-1.328919976949691772e-01 -1.943957060575485229e-01 4.598736464977264404e-01
1.002180725336074829e-01 5.021771788597106934e-01 -1.097919419407844543e-01
-1.594909280538558960e-01 3.455851599574089050e-02 1.321027129888534546e-01
9.541380405426025391e-02 3.726428449153900146e-01 5.798596739768981934e-01
-1.553386747837066650e-01 -1.641829311847686768e-01 1.110080629587173462e-01
-1.488407701253890991e-01 -2.071024477481842041e-01 -2.979798316955566406e-01
-1.488400697708129883e-01 8.266552537679672241e-02 3.376417458057403564e-01
2.904895320534706116e-02 5.914485454559326172e-01 -3.917946815490722656e-01
-1.440418660640716553e-01 -2.488398104906082153e-01 2.258171737194061279e-01
-1.520833075046539307e-01 -1.656191796064376831e-01 2.047315537929534912e-01
7.680918276309967041e-02 -4.280276000499725342e-01 -5.268927812576293945e-01
-1.493410766124725342e-01 -2.959897741675376892e-02 -4.428385496139526367e-01
-1.541609764099121094e-01 1.618534624576568604e-01 1.386734545230865479e-01
1.160144954919815063e-01 4.448577761650085449e-01 -6.245826557278633118e-02
-1.551515758037567139e-01 1.412760764360427856e-01 -2.427633851766586304e-01
3.666457906365394592e-02 4.626345336437225342e-01 -6.769813299179077148e-01
-1.472359299659729004e-01 2.355748713016510010e-01 1.639182567596435547e-01
-8.150669932365417480e-02 -6.831290572881698608e-02 8.420614004135131836e-01
1.552693247795104980e-01 9.511245042085647583e-02 1.136438399553298950e-01
-5.697474256157875061e-02 2.908632159233093262e-01 8.122519850730895996e-01
6.134714558720588684e-02 4.415346384048461914e-01 -6.309010982513427734e-01
1.192800551652908325e-01 -3.711802065372467041e-01 -2.146827131509780884e-01
-1.093610972166061401e-01 1.255268305540084839e-01 6.885261535644531250e-01
6.842140853404998779e-02 -5.018132925033569336e-01 -4.012919962406158447e-01
-1.156741380691528320e-01 -1.455295830965042114e-01 6.393375992774963379e-01
-4.075328633189201355e-02 -5.040665864944458008e-01 -5.905612111091613770e-01
1.225718706846237183e-01 2.804657630622386932e-02 6.460773944854736328e-01
