-7.596656680107116699e-02 3.195078298449516296e-02 8.486802875995635986e-02
2.576518058776855469e-01 -8.378171175718307495e-02 -1.346394121646881104e-01
7.373178005218505859e-02 -7.144038379192352295e-02 -5.195911526679992676e-01
6.226346641778945923e-02 -7.735443115234375000e-02 3.986467421054840088e-01
1.414518207311630249e-01 -9.500452131032943726e-02 1.363396942615509033e-01
1.717586070299148560e-01 -2.744157984852790833e-02 3.231944739818572998e-01
4.573024436831474304e-02 -1.521628350019454956e-03 -6.115220189094543457e-01
-9.203846752643585205e-02 2.802505344152450562e-02 3.315424025058746338e-01
-2.524253353476524353e-02 -4.610333591699600220e-02 -4.593212604522705078e-01
7.350277155637741089e-02 3.734696656465530396e-03 -3.709281086921691895e-01
9.126688539981842041e-02 -8.781129121780395508e-02 4.530179873108863831e-02
-5.273335799574851990e-02 -1.854340359568595886e-02 -6.104455590248107910e-01
-1.023536771535873413e-01 -2.738366276025772095e-02 2.184874713420867920e-01
-8.659859001636505127e-02 2.682096138596534729e-02 3.696058690547943115e-01
4.024323076009750366e-02 -5.014778673648834229e-02 7.714857459068298340e-01
3.290257230401039124e-02 1.197844371199607849e-02 3.974999487400054932e-01
9.803414344787597656e-02 -8.606428653001785278e-02 3.177229166030883789e-01
-1.142025440931320190e-01 -1.824198104441165924e-02 -1.526182591915130615e-01
4.993870481848716736e-02 -1.807462051510810852e-02 -7.535838484764099121e-01
1.412026435136795044e-01 -1.116132363677024841e-02 8.297576010227203369e-02
1.827764511108398438e-01 -9.442693740129470825e-02 -3.017508983612060547e-01
-1.184694319963455200e-01 -1.909379102289676666e-02 1.884594559669494629e-01
-4.732534661889076233e-02 4.992447793483734131e-03 6.949165463447570801e-01
-1.097773164510726929e-01 -2.339699119329452515e-02 -4.782002419233322144e-02
-8.298452198505401611e-02 1.601161062717437744e-02 -4.556030333042144775e-01
9.581468999385833740e-03 -6.871461868286132812e-02 1.529456377029418945e-01
-5.778132006525993347e-02 -4.337801039218902588e-02 3.760339617729187012e-01
1.304190605878829956e-01 -6.848587095737457275e-02 -6.741719841957092285e-01
3.889796137809753418e-02 -7.592853903770446777e-02 -8.092788606882095337e-02
2.067378610372543335e-01 -3.957991302013397217e-02 -2.763655781745910645e-01
-3.811777010560035706e-02 2.868377044796943665e-02 1.297684311866760254e-01
1.230339333415031433e-02 -1.103189773857593536e-02 7.888854742050170898e-01
-1.689578220248222351e-02 2.641974017024040222e-02 4.113303497433662415e-03
1.554084718227386475e-01 -1.560050807893276215e-02 -6.854628771543502808e-02
5.461225658655166626e-02 -5.839802324771881104e-02 -6.468051075935363770e-01
1.150252521038055420e-01 -8.662024140357971191e-02 -3.336474895477294922e-01
2.324249595403671265e-01 -5.151186138391494751e-02 -1.762747466564178467e-01
-5.176893249154090881e-02 -4.948200285434722900e-02 4.004436731338500977e-02
-5.002710968255996704e-03 -4.291897639632225037e-02 -6.109822988510131836e-01
4.155149310827255249e-02 1.572470366954803467e-02 9.676676988601684570e-02
1.381493955850601196e-01 -2.719622105360031128e-02 5.813385248184204102e-01
9.870737791061401367e-02 -8.795400708913803101e-02 2.178779244422912598e-01
-3.704883158206939697e-03 2.442815527319908142e-02 3.818590193986892700e-02
-1.235693544149398804e-01 -1.649421080946922302e-02 1.417466402053833008e-01
3.636313602328300476e-02 -4.861354082822799683e-02 -6.939005255699157715e-01
2.103828638792037964e-02 1.888207718729972839e-02 -1.798751950263977051e-01
9.548886120319366455e-02 -8.117982745170593262e-02 -3.973399102687835693e-01
4.345612972974777222e-02 -7.399775087833404541e-02 -2.624045610427856445e-01
1.384644582867622375e-02 1.387044787406921387e-03 6.774365305900573730e-01
2.123551219701766968e-01 -9.901410341262817383e-02 3.648134693503379822e-02
1.060359552502632141e-01 -6.228391826152801514e-02 -7.066350579261779785e-01
1.223857253789901733e-01 -5.929600447416305542e-03 1.570287644863128662e-01
2.377473562955856323e-01 -7.838476449251174927e-02 -3.912577331066131592e-01
6.943986564874649048e-02 -7.251134514808654785e-02 -4.799291789531707764e-01
1.666015982627868652e-01 -3.099065646529197693e-02 4.521821439266204834e-01
2.075682580471038818e-01 -4.889946430921554565e-02 3.941124677658081055e-01
2.244728803634643555e-01 -9.583614021539688110e-02 1.767139136791229248e-01
1.226025819778442383e-01 -7.962597161531448364e-02 -5.257298946380615234e-01
-6.350325047969818115e-02 3.020804747939109802e-02 1.995906233787536621e-01
-5.963769927620887756e-02 -2.927633747458457947e-02 6.320928931236267090e-01
1.857343763113021851e-01 -9.733298420906066895e-02 2.002916932106018066e-01
2.002930939197540283e-01 -3.646758943796157837e-02 2.018575966358184814e-01
-7.117588818073272705e-02 2.745373919606208801e-02 3.439620733261108398e-01
3.943143412470817566e-02 -3.992453217506408691e-02 -7.551110386848449707e-01
-7.324391603469848633e-02 -3.884541615843772888e-02 -1.458691656589508057e-01
-1.040732711553573608e-01 -1.566538214683532715e-02 4.932449758052825928e-01
1.216868609189987183e-01 -9.150481224060058594e-02 2.185708284378051758e-01
-6.051504984498023987e-02 2.657270058989524841e-02 -2.796294093132019043e-01
1.988545358180999756e-01 -9.354218095541000366e-02 -3.290141820907592773e-01
-1.465078070759773254e-02 -4.235073551535606384e-02 -5.747619271278381348e-01
1.130612194538116455e-01 -7.701098173856735229e-02 -5.474314689636230469e-01
1.791104525327682495e-01 -9.533056616783142090e-02 -2.655767798423767090e-01
-1.244110316038131714e-01 -1.352499797940254211e-02 2.747516334056854248e-01
5.976466834545135498e-02 6.201311945915222168e-03 3.892190158367156982e-01
1.502555236220359802e-02 -6.992391496896743774e-02 -6.068432331085205078e-02
5.083750560879707336e-02 -6.760033965110778809e-02 5.848456621170043945e-01
2.505534887313842773e-01 -7.243672013282775879e-02 1.892921924591064453e-01
-2.691710367798805237e-02 1.503345370292663574e-02 5.587239265441894531e-01
2.363211810588836670e-01 -8.856359124183654785e-02 -3.121789693832397461e-01
2.733486704528331757e-02 -7.016271352767944336e-02 -2.504863440990447998e-01
-5.383839085698127747e-02 -3.689325600862503052e-02 5.644556283950805664e-01
-9.240007400512695312e-02 3.150850906968116760e-02 1.739422082901000977e-01
1.660705357789993286e-01 -9.220110625028610229e-02 3.661489188671112061e-01
4.737549647688865662e-02 -2.319407649338245392e-02 -7.743173241615295410e-01
2.118664830923080444e-01 -5.277951434254646301e-02 4.063969850540161133e-01
-1.437642797827720642e-02 2.015060558915138245e-02 4.034191668033599854e-01
1.572078615427017212e-01 -2.306825667619705200e-02 3.644195199012756348e-01
9.079959243535995483e-03 2.187559008598327637e-02 1.206090077757835388e-01
1.562540084123611450e-01 -3.733192384243011475e-02 -6.388611197471618652e-01
2.032969892024993896e-01 -9.524792432785034180e-02 2.702598869800567627e-01
6.185024604201316833e-02 -8.125864714384078979e-02 1.830757558345794678e-01
6.643707305192947388e-02 -8.288197219371795654e-02 4.892110824584960938e-02
-4.468885436654090881e-02 2.976476028561592102e-02 -2.572245895862579346e-03
-3.620937839150428772e-02 2.445361390709877014e-02 -2.971667051315307617e-01
1.789571940898895264e-01 -5.063734948635101318e-02 -6.360490918159484863e-01
5.481115728616714478e-02 -7.208015024662017822e-02 5.069629549980163574e-01
-7.250076532363891602e-02 -2.948845364153385162e-02 5.494886636734008789e-01
1.067769378423690796e-01 -8.463673293590545654e-02 4.190660715103149414e-01
1.917676776647567749e-01 -4.251606762409210205e-02 4.377236366271972656e-01
-8.333641290664672852e-02 1.858270913362503052e-02 5.304069519042968750e-01
-3.975338861346244812e-02 2.172278612852096558e-02 4.456486999988555908e-01
-5.517240613698959351e-03 -6.468231976032257080e-02 7.268670201301574707e-02
1.583328545093536377e-01 -1.872327551245689392e-02 -2.548071146011352539e-01
2.805945277214050293e-02 -5.798976495862007141e-02 -5.553111433982849121e-01
7.705900818109512329e-02 6.510969251394271851e-03 1.827365159988403320e-01
1.659455448389053345e-01 -1.952693611383438110e-02 -9.491597861051559448e-02
-1.077114194631576538e-01 -2.374364063143730164e-02 2.655239999294281006e-01
-4.662054404616355896e-02 -2.000547945499420166e-03 7.376483678817749023e-01
5.143483355641365051e-02 -5.543639883399009705e-02 7.474775314331054688e-01
-1.304665207862854004e-01 2.399608865380287170e-02 2.930568456649780273e-01
-1.389721035957336426e-01 -5.439909175038337708e-03 1.338755488395690918e-01
1.619283109903335571e-01 -6.754597276449203491e-02 6.675534844398498535e-01
2.418669015169143677e-01 -8.720044791698455811e-02 -2.943450808525085449e-01
1.667913794517517090e-01 -9.729702770709991455e-02 1.442809551954269409e-01
2.153973653912544250e-02 -7.725996896624565125e-03 -7.106922864913940430e-01
2.125887423753738403e-01 -7.838010787963867188e-02 -5.106317400932312012e-01
2.704571932554244995e-03 2.225645631551742554e-02 -1.630392372608184814e-01
-1.276905834674835205e-01 -5.237270146608352661e-03 3.879382908344268799e-01
2.198264747858047485e-01 -7.823646068572998047e-02 -4.852075278759002686e-01
2.273653298616409302e-01 -9.476640820503234863e-02 1.961328089237213135e-01
1.823701858520507812e-01 -3.527995571494102478e-02 3.964276015758514404e-01
8.207887411117553711e-02 -8.605358004570007324e-02 2.324061281979084015e-02
-1.144568920135498047e-01 1.763791590929031372e-02 -3.354629576206207275e-01
1.738792359828948975e-01 -7.606729120016098022e-02 5.995270609855651855e-01
-3.656961023807525635e-03 3.152579069137573242e-03 -6.339062452316284180e-01
1.312003433704376221e-01 -1.137157343327999115e-02 -3.354506492614746094e-01
1.461175978183746338e-01 -1.232712902128696442e-02 -2.916814386844635010e-02
2.158457189798355103e-01 -9.418413043022155762e-02 -2.844915390014648438e-01
4.582152888178825378e-02 1.236383989453315735e-02 -2.753396928310394287e-01
7.359381020069122314e-02 -6.762307882308959961e-02 -5.830686092376708984e-01
7.843413949012756348e-02 -8.467143774032592773e-02 -9.238983690738677979e-02
9.178578853607177734e-02 -8.746917545795440674e-02 1.503380239009857178e-01
8.033861219882965088e-02 -6.275041028857231140e-03 -5.671417713165283203e-01
8.753563463687896729e-02 -2.377575635910034180e-02 7.456117272377014160e-01
6.808295845985412598e-03 -6.598044931888580322e-02 3.090612590312957764e-01
1.536612361669540405e-01 -9.438611567020416260e-02 2.604608833789825439e-01
-1.206648051738739014e-01 -9.540915489196777344e-04 4.865931272506713867e-01
2.636070549488067627e-02 -7.334984093904495239e-02 1.194207146763801575e-01
-6.674075126647949219e-02 -3.576545417308807373e-02 4.838222265243530273e-01
-6.143793091177940369e-02 -3.456489369273185730e-02 -3.990543484687805176e-01
-4.345924034714698792e-02 -5.186517536640167236e-02 2.031419575214385986e-01
-7.896524667739868164e-02 -1.641048118472099304e-02 -5.012971758842468262e-01
-1.335227638483047485e-01 7.688693702220916748e-03 -2.454040944576263428e-01
-1.391793340444564819e-01 -3.268929198384284973e-03 2.281525433063507080e-01
6.241581216454505920e-02 -7.928840816020965576e-02 3.210492730140686035e-01
1.533522903919219971e-01 -9.678739309310913086e-02 4.892560839653015137e-02
1.238737106323242188e-01 -1.602830365300178528e-02 -5.185875892639160156e-01
2.000257968902587891e-01 -6.489898264408111572e-02 -5.921260714530944824e-01
-6.196254864335060120e-02 -4.551135003566741943e-02 1.566524803638458252e-01
-1.274997889995574951e-01 -1.401303149759769440e-02 4.700690507888793945e-02
3.799163550138473511e-02 1.508971303701400757e-02 2.188163697719573975e-01
2.011768892407417297e-02 -7.018263638019561768e-02 -1.513213515281677246e-01
1.155817657709121704e-01 -7.611772418022155762e-02 -5.673493742942810059e-01
1.017813980579376221e-01 -7.580578327178955078e-02 -5.376375317573547363e-01
1.248800754547119141e-01 -5.674928426742553711e-03 5.099555104970932007e-02
-1.093928217887878418e-01 -2.423192188143730164e-02 -2.581318840384483337e-03
-5.795632675290107727e-02 9.925711899995803833e-03 6.478453278541564941e-01
-1.226220726966857910e-01 -1.413240469992160797e-02 -1.144968941807746887e-01
2.169900536537170410e-01 -9.570284187793731689e-02 -2.350285351276397705e-01
3.272368386387825012e-02 1.489892974495887756e-02 -2.797690331935882568e-01
2.452674061059951782e-01 -6.092146784067153931e-02 9.294696897268295288e-02
1.086873710155487061e-01 -3.551181033253669739e-02 -7.593154907226562500e-01
1.580250263214111328e-01 -7.125084847211837769e-02 6.560258269309997559e-01
1.325573772192001343e-01 -7.774406671524047852e-02 -5.738031864166259766e-01
2.595385909080505371e-01 -7.814294099807739258e-02 1.923248171806335449e-02
2.590125203132629395e-01 -8.313061296939849854e-02 -9.667740017175674438e-02
-9.297862648963928223e-02 2.979752793908119202e-02 2.673074007034301758e-01
1.003625616431236267e-01 -5.893585458397865295e-02 -7.256109118461608887e-01
1.098974645137786865e-01 -2.140138298273086548e-03 1.560828983783721924e-01
-7.799904048442840576e-02 2.904739603400230408e-02 -2.071343660354614258e-01
-1.455052942037582397e-01 2.162587270140647888e-02 1.458229422569274902e-01
3.950409591197967529e-03 -3.670990467071533203e-02 -6.950873136520385742e-01
4.833025112748146057e-02 7.084019482135772705e-03 4.424848258495330811e-01
1.025423407554626465e-01 -8.587871491909027100e-02 -2.856556773185729980e-01
2.318777292966842651e-01 -9.110783040523529053e-02 2.566335201263427734e-01
5.243855714797973633e-02 3.364406526088714600e-03 5.103621482849121094e-01
4.679987207055091858e-02 1.344918459653854370e-02 -2.038409411907196045e-01
-2.934709191322326660e-03 -6.455332040786743164e-02 -8.591944724321365356e-02
1.033762469887733459e-01 -8.961744606494903564e-02 -5.940090864896774292e-02
-2.682441845536231995e-02 -4.479672014713287354e-02 6.045064330101013184e-01
-1.786244288086891174e-02 2.519508078694343567e-02 2.079892754554748535e-01
-2.723402902483940125e-02 -3.039119951426982880e-02 7.517812848091125488e-01
2.642502635717391968e-02 -1.122344285249710083e-02 -7.304055690765380859e-01
2.152645140886306763e-01 -4.563345015048980713e-02 -3.217135071754455566e-01
3.322218358516693115e-02 1.273502409458160400e-02 3.702075183391571045e-01
1.471071094274520874e-01 -1.540919952094554901e-02 2.306979596614837646e-01
2.220216691493988037e-01 -5.372222140431404114e-02 -3.943903446197509766e-01
2.053223997354507446e-01 -7.655186951160430908e-02 5.127387642860412598e-01
5.702089145779609680e-02 -7.957577705383300781e-02 2.374340891838073730e-01
1.286803334951400757e-01 -1.014418713748455048e-02 -3.189508616924285889e-01
-8.297035098075866699e-02 -3.711807355284690857e-02 3.459668159484863281e-02
1.720767915248870850e-01 -6.791544705629348755e-02 6.442460417747497559e-01
-5.514447018504142761e-02 -4.061421379446983337e-02 -3.299725055694580078e-01
1.564916819334030151e-01 -9.681631624698638916e-02 1.056409180164337158e-01
1.029414683580398560e-01 -2.065443806350231171e-02 6.657883524894714355e-01
3.260840103030204773e-02 -7.411403954029083252e-02 2.198360264301300049e-01
2.539589703083038330e-01 -6.777913868427276611e-02 2.487209998071193695e-02
2.069046646356582642e-01 -9.032480418682098389e-02 -3.886081278324127197e-01
1.019497811794281006e-01 -1.881679147481918335e-02 6.482228636741638184e-01
-8.574195206165313721e-02 3.005951270461082458e-02 2.571897506713867188e-01
1.800661906599998474e-02 -5.683652311563491821e-02 -5.258374810218811035e-01
-1.048024743795394897e-01 -2.372045814990997314e-02 3.253234922885894775e-01
-1.800933852791786194e-02 1.397460699081420898e-03 -6.517944335937500000e-01
-4.721529409289360046e-02 -3.442970290780067444e-02 6.383328437805175781e-01
2.419370114803314209e-01 -5.662438273429870605e-02 -1.540473848581314087e-02
1.279772818088531494e-01 -8.821319788694381714e-03 2.241896390914916992e-01
-9.494841098785400391e-02 2.019278705120086670e-03 6.225419640541076660e-01
-3.602727130055427551e-02 -4.315520823001861572e-02 5.765655636787414551e-01
1.988091170787811279e-01 -9.165322035551071167e-02 3.664579689502716064e-01
1.698120832443237305e-01 -3.342566639184951782e-02 -5.215075612068176270e-01
-2.599783614277839661e-02 2.661346644163131714e-02 1.857519149780273438e-01
-2.872395887970924377e-02 -3.457938134670257568e-02 -5.948796868324279785e-01
1.009619608521461487e-02 1.698359102010726929e-02 -3.525929450988769531e-01
2.588670849800109863e-01 -7.999148964881896973e-02 5.450385808944702148e-02
9.185540676116943359e-02 -5.483698099851608276e-03 4.759242534637451172e-01
7.589059323072433472e-02 7.218956947326660156e-03 1.508726477622985840e-01
5.922533571720123291e-03 4.902847111225128174e-03 -6.049842238426208496e-01
7.287876307964324951e-02 -8.422028273344039917e-02 3.246232867240905762e-02
7.989316433668136597e-02 1.251433044672012329e-03 -4.003045856952667236e-01
1.925923228263854980e-01 -9.596072137355804443e-02 2.599668800830841064e-01
-1.323230117559432983e-01 -4.786454141139984131e-03 -1.566137075424194336e-01
-1.321734637022018433e-01 2.815914154052734375e-02 6.728160381317138672e-02
-9.009918570518493652e-02 2.611005306243896484e-02 -2.844248712062835693e-01
1.770731657743453979e-01 -9.865520894527435303e-02 4.851312935352325439e-02
-3.912072256207466125e-02 -5.377245694398880005e-02 9.951554238796234131e-04
-5.835872143507003784e-03 2.093017473816871643e-02 3.317537009716033936e-01
1.688581407070159912e-01 -2.369343116879463196e-02 -3.007502853870391846e-01
-5.422781780362129211e-02 -3.185505047440528870e-02 -4.910619556903839111e-01
1.665084436535835266e-02 -5.387430638074874878e-02 6.717781424522399902e-01
-4.724749550223350525e-02 2.752285823225975037e-02 2.758606076240539551e-01
2.454801648855209351e-01 -8.819305896759033203e-02 1.981004178524017334e-01
-1.105763316154479980e-01 2.300387248396873474e-02 -2.865743041038513184e-01
-1.165060698986053467e-01 2.935555204749107361e-02 -9.696654230356216431e-02
-3.665204718708992004e-02 -3.622747957706451416e-02 6.688652038574218750e-01
2.089498788118362427e-01 -4.760675877332687378e-02 3.613802492618560791e-01
-7.622210681438446045e-02 -3.357651084661483765e-02 4.392098784446716309e-01
1.940738707780838013e-01 -3.223476931452751160e-02 -2.153415679931640625e-01
-1.097620651125907898e-02 -4.748801141977310181e-02 6.452488303184509277e-01
-4.518880322575569153e-02 1.665212586522102356e-02 -4.842062294483184814e-01
3.668133914470672607e-02 -2.204618602991104126e-02 8.212878704071044922e-01
6.922744214534759521e-02 -1.420796290040016174e-02 7.122356891632080078e-01
7.370266318321228027e-02 -3.401277586817741394e-03 5.397276878356933594e-01
-1.784649863839149475e-02 2.437890321016311646e-02 2.567914724349975586e-01
2.250719964504241943e-01 -5.921095609664916992e-02 3.600805997848510742e-01
1.555132567882537842e-01 -9.359402954578399658e-02 3.005216121673583984e-01
-1.062105447053909302e-01 3.174759075045585632e-02 1.028345003724098206e-01
3.596824780106544495e-02 -6.478620320558547974e-02 -4.717126488685607910e-01
2.121125161647796631e-01 -3.906361013650894165e-02 -6.288947910070419312e-02
1.614800244569778442e-01 -9.371168911457061768e-02 3.114165067672729492e-01
5.726533383131027222e-02 -1.644107885658740997e-02 -7.370722889900207520e-01
1.329214423894882202e-01 -2.044483833014965057e-02 5.079120397567749023e-01
-6.493192911148071289e-02 2.820654585957527161e-02 -2.286363542079925537e-01
8.482474833726882935e-03 1.859269291162490845e-02 3.293647766113281250e-01
2.753377705812454224e-02 5.235247313976287842e-03 -5.572539567947387695e-01
1.638827174901962280e-01 -2.629774436354637146e-02 -4.343785643577575684e-01
8.103535324335098267e-02 -8.292480558156967163e-02 -2.389349639415740967e-01
2.325391769409179688e-01 -6.350105255842208862e-02 -4.004583358764648438e-01
1.758420765399932861e-01 -2.445619925856590271e-02 1.367772221565246582e-01
1.989110186696052551e-02 -5.326486006379127502e-02 -5.886700749397277832e-01
1.517573595046997070e-01 -9.203767776489257812e-02 3.457269370555877686e-01
1.618771404027938843e-01 -1.808611862361431122e-02 4.054790362715721130e-02
2.470202147960662842e-01 -7.661586999893188477e-02 -3.186381459236145020e-01
1.716523990035057068e-02 -1.555161923170089722e-02 8.084403872489929199e-01
2.335312664508819580e-01 -6.719845533370971680e-02 3.480021059513092041e-01
1.645301580429077148e-01 -2.868456766009330750e-02 4.252642095088958740e-01
-1.030069738626480103e-01 3.132555261254310608e-02 -6.038839370012283325e-02
-1.454157978296279907e-01 2.131514623761177063e-02 1.610102355480194092e-01
-9.684999287128448486e-02 -2.485619857907295227e-02 -2.395248413085937500e-01
2.267906665802001953e-01 -5.218713730573654175e-02 -3.102689385414123535e-01
1.395352184772491455e-01 -1.681810989975929260e-02 3.736990690231323242e-01
2.389606982469558716e-01 -9.427458047866821289e-02 -1.553339064121246338e-01
3.231013566255569458e-02 -7.494884729385375977e-02 9.046620875597000122e-02
2.251296639442443848e-01 -6.760586798191070557e-02 4.162820577621459961e-01
-2.494706586003303528e-02 2.736528217792510986e-02 -4.188607633113861084e-02
1.287232935428619385e-01 -9.273715317249298096e-02 1.986569166183471680e-01
2.234616577625274658e-01 -7.289011776447296143e-02 4.358219504356384277e-01
3.851286321878433228e-02 8.689090609550476074e-03 4.579315483570098877e-01
1.703664660453796387e-01 -8.122554421424865723e-02 -5.526727437973022461e-01
-3.132480010390281677e-02 2.449500188231468201e-02 3.314615488052368164e-01
1.236401051282882690e-01 -1.687117107212543488e-02 -5.356727838516235352e-01
-6.924830377101898193e-02 -3.831271827220916748e-02 -2.301574349403381348e-01
-9.158591926097869873e-02 2.845814451575279236e-02 3.180084824562072754e-01
-7.758153975009918213e-02 3.042710199952125549e-02 -1.446286439895629883e-01
-1.016225665807723999e-03 -1.720499247312545776e-03 7.335705757141113281e-01
-1.278890818357467651e-01 -7.563736289739608765e-03 3.522243201732635498e-01
2.563174068927764893e-01 -7.588112354278564453e-02 1.082066074013710022e-01
1.613066792488098145e-01 -8.472905308008193970e-02 5.171579122543334961e-01
1.413684934377670288e-01 -8.668518066406250000e-02 4.667324721813201904e-01
-4.754484072327613831e-02 1.181260123848915100e-02 6.281563043594360352e-01
7.977931201457977295e-02 -8.090907335281372070e-02 3.946807682514190674e-01
6.175458431243896484e-02 1.015166193246841431e-02 -2.034897804260253906e-01
1.615224182605743408e-01 -9.468463808298110962e-02 2.737682461738586426e-01
1.458835452795028687e-01 -1.325039006769657135e-02 1.297476291656494141e-01
-3.493681177496910095e-02 1.105913147330284119e-02 -5.582239031791687012e-01
2.451460659503936768e-01 -5.957784503698348999e-02 -1.215668544173240662e-01
8.555668592453002930e-02 -5.991062521934509277e-02 -7.002309560775756836e-01
2.516782581806182861e-01 -6.475177407264709473e-02 -6.294258683919906616e-02
1.443808376789093018e-01 -9.477686136960983276e-02 1.858037412166595459e-01
-1.020289361476898193e-01 2.379342541098594666e-02 4.182712435722351074e-01
-6.634826958179473877e-02 -4.302969574928283691e-02 2.341697812080383301e-01
5.787799879908561707e-02 -8.057542145252227783e-02 1.629343628883361816e-01
-1.389645040035247803e-04 2.130216732621192932e-02 -2.455690205097198486e-01
1.180461347103118896e-01 -9.205362945795059204e-02 -5.245240032672882080e-02
-3.192955628037452698e-02 -5.517902225255966187e-02 -1.019323542714118958e-01
7.181975245475769043e-02 -7.847644388675689697e-02 4.253378808498382568e-01
1.375402808189392090e-01 -1.414258219301700592e-02 3.126391172409057617e-01
1.074188798666000366e-01 -8.102144300937652588e-02 5.125939249992370605e-01
1.321985200047492981e-02 -6.999115645885467529e-02 7.632543146610260010e-02
4.269430041313171387e-02 -6.386875361204147339e-02 -5.238325595855712891e-01
4.061819985508918762e-02 -7.667985558509826660e-02 -4.195370525121688843e-02
-7.270115613937377930e-02 3.184441104531288147e-02 4.676593467593193054e-03
3.518623113632202148e-02 6.270904093980789185e-03 -5.145838260650634766e-01
6.540428847074508667e-02 -2.176724374294281006e-04 5.190296173095703125e-01
5.176083371043205261e-02 -6.378719583153724670e-03 -6.581447720527648926e-01
1.770804524421691895e-01 -9.640157222747802734e-02 -2.161533236503601074e-01
1.983098685741424561e-01 -5.388746410608291626e-02 -5.661971569061279297e-01
8.348418772220611572e-02 -8.578453212976455688e-02 1.672742664813995361e-01
1.760341823101043701e-01 -3.324951976537704468e-02 4.147515296936035156e-01
2.579539418220520020e-01 -8.614660054445266724e-02 -8.817292749881744385e-03
1.093318462371826172e-01 -7.478839159011840820e-02 6.242285370826721191e-01
3.983948007225990295e-02 -6.304687261581420898e-02 6.219171881675720215e-01
6.673274934291839600e-02 -7.660614699125289917e-02 -3.618945181369781494e-01
-9.013178944587707520e-02 -3.261236473917961121e-02 -8.330827206373214722e-02
1.674522459506988525e-02 2.093587443232536316e-02 3.019775077700614929e-02
8.462738990783691406e-02 -2.700946293771266937e-02 7.743205428123474121e-01
-4.013370350003242493e-02 -4.811335727572441101e-02 -2.848408222198486328e-01
1.410621106624603271e-01 -3.057331591844558716e-02 6.077032089233398438e-01
1.692627370357513428e-01 -9.799161553382873535e-02 8.486151695251464844e-02
-7.118813693523406982e-02 3.079852089285850525e-02 1.897757351398468018e-01
-2.310864627361297607e-03 -3.911867737770080566e-02 7.620536088943481445e-01
1.240001469850540161e-01 -5.215784534811973572e-03 1.095518469810485840e-03
2.553285658359527588e-01 -8.865398168563842773e-02 1.051028072834014893e-02
4.371941089630126953e-02 7.002882659435272217e-03 4.718424975872039795e-01
1.141248419880867004e-01 -9.168028831481933594e-02 2.393471077084541321e-03
-1.503678038716316223e-02 2.341290563344955444e-02 -2.454799115657806396e-01
1.198244467377662659e-02 -5.863938480615615845e-02 5.736650824546813965e-01
1.052048429846763611e-02 -6.858557462692260742e-02 1.997008323669433594e-01
-9.914250671863555908e-02 3.207774087786674500e-02 3.978932276368141174e-03
2.370000816881656647e-02 -6.876447796821594238e-02 3.855980634689331055e-01
5.411432310938835144e-02 -1.310696266591548920e-02 7.411985397338867188e-01
-8.433848619461059570e-02 2.757424861192703247e-02 -2.536604404449462891e-01
1.953312605619430542e-01 -4.646540805697441101e-02 4.626795053482055664e-01
-4.885816201567649841e-02 2.080573514103889465e-02 4.849350154399871826e-01
-7.392276823520660400e-02 -4.062008857727050781e-02 -1.063585653901100159e-02
4.592674225568771362e-02 1.509800180792808533e-02 2.686331793665885925e-02
-5.445096269249916077e-02 -4.519892483949661255e-02 3.556658327579498291e-01
1.390392482280731201e-01 -2.024828828871250153e-02 4.601157605648040771e-01
4.329099133610725403e-02 -6.974661350250244141e-02 -3.996904194355010986e-01
1.372025310993194580e-01 -8.149268478155136108e-02 5.576484799385070801e-01
-4.513381794095039368e-02 1.018851250410079956e-02 6.462563276290893555e-01
-6.535336375236511230e-02 -4.442996904253959656e-02 1.017664968967437744e-01
1.994305551052093506e-01 -3.686846047639846802e-02 -3.050693571567535400e-01
1.152785569429397583e-01 -7.273681461811065674e-03 3.275059163570404053e-01
-5.834827199578285217e-02 -8.910944685339927673e-03 7.348905801773071289e-01
1.165286153554916382e-01 -1.235179416835308075e-02 -4.905561506748199463e-01
3.543043136596679688e-02 9.815897792577743530e-03 4.454357028007507324e-01
6.838250905275344849e-02 -7.995868474245071411e-02 3.462877273559570312e-01
2.519166469573974609e-01 -9.007790684700012207e-02 -1.187937334179878235e-01
-8.475847542285919189e-02 3.211118653416633606e-02 -1.462966948747634888e-02
1.745448559522628784e-01 -7.699535787105560303e-02 -5.950660705566406250e-01
-6.082430109381675720e-02 -4.456651210784912109e-02 -1.109133288264274597e-01
1.282067447900772095e-01 -2.486003004014492035e-02 6.030694246292114258e-01
2.312001585960388184e-01 -4.971161112189292908e-02 1.757587864995002747e-02
2.227324694395065308e-01 -9.817558526992797852e-02 -6.671296060085296631e-02
2.411423176527023315e-01 -5.962290242314338684e-02 -2.387534379959106445e-01
1.262257695198059082e-01 -1.930666342377662659e-02 5.310373902320861816e-01
2.262565344572067261e-01 -9.316702187061309814e-02 -2.743875682353973389e-01
-1.882695779204368591e-02 -4.631085693836212158e-02 -4.965663850307464600e-01
1.483662426471710205e-01 -4.382351785898208618e-02 -7.062435150146484375e-01
1.255941241979598999e-01 -1.105898432433605194e-02 3.439530730247497559e-01
-5.524088069796562195e-02 -3.466096147894859314e-02 5.896392464637756348e-01
-3.914870321750640869e-03 1.650127395987510681e-02 -4.231744706630706787e-01
-3.068367764353752136e-02 2.824021130800247192e-02 3.503197431564331055e-02
-8.636555075645446777e-02 -3.492829948663711548e-02 -4.396139085292816162e-02
1.077812686562538147e-01 -1.685135066509246826e-03 -2.052056193351745605e-01
5.350945517420768738e-02 -7.826097309589385986e-02 -1.697422862052917480e-01
2.071036547422409058e-01 -4.203796386718750000e-02 -3.429401218891143799e-01
6.180282309651374817e-02 -6.057514250278472900e-02 7.165441513061523438e-01
-8.621400594711303711e-02 1.665921509265899658e-02 -4.416163265705108643e-01
6.543138623237609863e-02 -2.769876271486282349e-03 -5.677749514579772949e-01
-4.771124199032783508e-02 -4.985466971993446350e-02 -8.782075345516204834e-02
6.611596047878265381e-02 -5.278579518198966980e-02 -7.247279882431030273e-01
9.661221504211425781e-02 -7.269369065761566162e-02 6.330466866493225098e-01
1.446650773286819458e-01 -8.770954608917236328e-02 4.491804242134094238e-01
2.552949823439121246e-02 -6.857634335756301880e-02 -2.935010492801666260e-01
-4.502126947045326233e-02 -1.800740323960781097e-02 -6.402599811553955078e-01
-6.060058251023292542e-02 3.676183521747589111e-03 6.936839818954467773e-01
-1.087760031223297119e-01 -8.455295115709304810e-03 -3.675361871719360352e-01
-1.104608476161956787e-01 -2.149385958909988403e-02 -1.180965378880500793e-01
1.399407535791397095e-02 -4.791741073131561279e-02 -6.307706236839294434e-01
1.954975426197052002e-01 -9.548161923885345459e-02 -2.734643816947937012e-01
-9.004805982112884521e-02 -2.806103974580764771e-02 4.153380990028381348e-01
3.536369651556015015e-02 -7.415608316659927368e-02 -1.517237126827239990e-01
-7.394310086965560913e-03 2.342462167143821716e-02 2.214944958686828613e-01
1.119455546140670776e-01 -1.690439879894256592e-03 -7.378377765417098999e-02
1.352350264787673950e-01 -1.581790484488010406e-02 -4.315923750400543213e-01
1.961406767368316650e-01 -8.709754794836044312e-02 4.473463296890258789e-01
-6.075784936547279358e-02 -4.620986804366111755e-02 7.569868117570877075e-02
-5.412882938981056213e-02 2.503219619393348694e-02 3.891352713108062744e-01
2.156950533390045166e-01 -4.657244682312011719e-02 2.617923319339752197e-01
1.836568862199783325e-01 -3.021305613219738007e-02 -3.196332454681396484e-01
1.893900483846664429e-01 -2.920563891530036926e-02 -1.449829339981079102e-01
2.052969038486480713e-01 -5.841552466154098511e-02 -5.541788935661315918e-01
7.610935717821121216e-02 1.326400786638259888e-03 -4.252169728279113770e-01
-2.531973645091056824e-02 2.683266624808311462e-02 1.596175730228424072e-01
-4.562795534729957581e-02 -5.123984813690185547e-02 1.894213557243347168e-01
2.424201369285583496e-02 1.683783903717994690e-02 2.769242823123931885e-01
-1.263530552387237549e-01 1.207857206463813782e-02 -3.005202412605285645e-01
3.053095191717147827e-02 1.347431167960166931e-02 -3.518925905227661133e-01
-4.475526884198188782e-02 -4.380152374505996704e-02 -3.534173369407653809e-01
1.052577048540115356e-02 -6.364589929580688477e-02 -3.184578120708465576e-01
6.580741703510284424e-02 -8.270628750324249268e-02 8.319843560457229614e-02
1.679842323064804077e-01 -3.804888203740119934e-02 5.458089709281921387e-01
1.643403768539428711e-01 -9.748595952987670898e-02 -7.516101747751235962e-02
-6.174422800540924072e-03 -5.040309950709342957e-02 -5.032252073287963867e-01
4.365821927785873413e-02 -5.459938943386077881e-02 -6.569262742996215820e-01
1.051403582096099854e-03 2.151837199926376343e-02 -2.253187298774719238e-01
2.879064157605171204e-02 1.865037158131599426e-02 -1.729544624686241150e-02
1.293795853853225708e-01 -3.910385444760322571e-02 -7.336822748184204102e-01
1.320070475339889526e-01 -9.422267973423004150e-02 7.560178637504577637e-02
-5.816647782921791077e-02 3.013097867369651794e-02 -1.075670197606086731e-01
-1.153120547533035278e-01 -1.692651771008968353e-02 3.456439971923828125e-01
1.760463714599609375e-01 -5.008039623498916626e-02 6.069676280021667480e-01
1.015367507934570312e-01 -2.704462036490440369e-03 -3.418308496475219727e-01
2.776176109910011292e-02 1.354511082172393799e-02 -3.665211796760559082e-01
1.090231537818908691e-01 -7.978138327598571777e-02 -4.851413071155548096e-01
-1.631723716855049133e-02 -4.441542923450469971e-02 6.624704599380493164e-01
1.875753253698348999e-01 -3.016630187630653381e-02 -2.530700564384460449e-01
1.309029757976531982e-01 -8.954529464244842529e-02 -3.127470314502716064e-01
1.181520670652389526e-01 -1.236074231564998627e-02 4.467553794384002686e-01
4.166206717491149902e-02 -7.715618610382080078e-02 -2.035038545727729797e-03
3.227657079696655273e-02 -7.473341375589370728e-02 1.409748792648315430e-01
1.195594668388366699e-01 -8.274210616946220398e-03 3.152035176753997803e-01
-7.939979434013366699e-02 5.394272506237030029e-03 6.542931795120239258e-01
9.715934097766876221e-02 -8.871609345078468323e-03 5.152235031127929688e-01
-5.423595383763313293e-02 -3.328527882695198059e-02 6.143579483032226562e-01
2.305632233619689941e-01 -4.953218996524810791e-02 3.868135064840316772e-02
2.558216154575347900e-01 -6.945393979549407959e-02 -1.925688236951828003e-02
3.459116071462631226e-02 1.579243689775466919e-03 -5.957838892936706543e-01
2.087105363607406616e-01 -9.257221221923828125e-02 3.254545927047729492e-01
7.321901619434356689e-02 4.652749747037887573e-03 3.261620104312896729e-01
-5.294543132185935974e-02 -4.911616444587707520e-02 9.030681848526000977e-02
-5.581401661038398743e-02 -4.538707062602043152e-02 3.268147706985473633e-01
1.135608479380607605e-01 -9.103751182556152344e-02 1.588315367698669434e-01
-4.091596230864524841e-02 -3.142942860722541809e-02 -5.688937902450561523e-01
4.963225126266479492e-02 1.431093364953994751e-02 1.216377969831228256e-02
8.945590257644653320e-02 -2.208231389522552490e-02 -7.227084636688232422e-01
9.250039607286453247e-02 1.493409276008605957e-03 2.382865250110626221e-01
-6.464941799640655518e-02 1.857890561223030090e-02 -4.503036141395568848e-01
1.210129708051681519e-01 -6.238906830549240112e-02 -7.152054309844970703e-01
2.262716293334960938e-01 -9.603065252304077148e-02 -1.834484040737152100e-01
2.004050463438034058e-02 1.029078289866447449e-02 5.102236270904541016e-01
1.751058995723724365e-01 -2.289740368723869324e-02 -3.533570095896720886e-03
-5.198373273015022278e-02 -1.454287581145763397e-02 7.459794282913208008e-01
1.015400663018226624e-01 -2.224461361765861511e-02 -6.946382522583007812e-01
1.823210418224334717e-01 -6.153506785631179810e-02 -6.490324139595031738e-01
-2.929669991135597229e-02 -5.325845256447792053e-02 -2.412210404872894287e-01
6.792432069778442383e-02 -8.303214609622955322e-02 -1.952496170997619629e-02
8.859585225582122803e-02 -5.058890953660011292e-02 -7.624519467353820801e-01
1.530613601207733154e-01 -2.185741066932678223e-02 -4.266947507858276367e-01
1.580107063055038452e-01 -2.546542696654796600e-02 -4.662719070911407471e-01
-8.544962108135223389e-02 1.963486149907112122e-02 5.131425857543945312e-01
-1.339805871248245239e-01 2.702766656875610352e-02 1.519989073276519775e-01
1.128586083650588989e-01 -4.051756113767623901e-03 -2.596219778060913086e-01
1.798057183623313904e-02 -3.076519817113876343e-03 -6.765787005424499512e-01
-9.934093058109283447e-02 2.884041517972946167e-02 -1.896796524524688721e-01
1.700939834117889404e-01 -2.829082496464252472e-02 -4.228109121322631836e-01
2.320392131805419922e-01 -9.628005325794219971e-02 9.695728123188018799e-02
3.477212041616439819e-02 -4.773218184709548950e-03 7.027532458305358887e-01
-4.645772650837898254e-02 2.660422772169113159e-02 -2.497196197509765625e-01
-1.219936460256576538e-01 -1.583040505647659302e-02 2.485359311103820801e-01
1.528894901275634766e-01 -1.544083468616008759e-02 -1.681307852268218994e-01
1.997241377830505371e-02 -6.751972436904907227e-02 -2.765657007694244385e-01
1.248122304677963257e-01 -7.084868848323822021e-02 6.802739500999450684e-01
5.563496798276901245e-02 1.210498437285423279e-02 -1.599124968051910400e-01
-1.099334806203842163e-01 3.071717545390129089e-02 1.793722212314605713e-01
5.055988952517509460e-02 -6.464595347642898560e-02 6.346184015274047852e-01
-7.703441381454467773e-02 -3.751434013247489929e-02 3.000566959381103516e-01
-1.429001390933990479e-01 -1.140035688877105713e-03 1.703778803348541260e-01
9.682774543762207031e-02 1.664254814386367798e-03 1.508007645606994629e-01
1.303838640451431274e-01 -5.984404683113098145e-02 -7.287456989288330078e-01
-5.521216616034507751e-02 3.061849996447563171e-02 -2.618634700775146484e-02
1.269290223717689514e-02 1.502897590398788452e-02 -3.990851640701293945e-01
1.057748943567276001e-01 -8.593898266553878784e-03 4.509235918521881104e-01
1.154936403036117554e-01 -3.238656371831893921e-02 -7.324455976486206055e-01
-6.612557172775268555e-02 2.915215864777565002e-02 2.680330872535705566e-01
-2.637999132275581360e-02 2.311064675450325012e-02 3.598445653915405273e-01
6.585705280303955078e-02 -7.679159939289093018e-02 4.410253763198852539e-01
1.034699231386184692e-01 -8.488014340400695801e-02 -3.280820250511169434e-01
-9.613732993602752686e-02 -1.577741093933582306e-02 -3.946338891983032227e-01
2.387953102588653564e-01 -6.922703981399536133e-02 -3.794752657413482666e-01
8.426281809806823730e-02 -8.351694792509078979e-02 3.242571353912353516e-01
1.845023930072784424e-01 -2.661607600748538971e-02 -3.665830940008163452e-02
1.070558577775955200e-01 -5.984812974929809570e-03 3.685637414455413818e-01
1.193494349718093872e-01 -8.658260852098464966e-02 -3.559943735599517822e-01
-3.053980693221092224e-02 -5.650769174098968506e-02 1.728939116001129150e-01
1.269214749336242676e-01 -7.546124979853630066e-03 -2.168057560920715332e-01
2.255359292030334473e-01 -9.664283692836761475e-02 -1.596073806285858154e-01
1.628717035055160522e-01 -9.052383899688720703e-02 4.063380360603332520e-01
1.258878707885742188e-01 -5.855329334735870361e-03 -6.971827894449234009e-02
2.086998671293258667e-01 -3.776463493704795837e-02 -1.263037621974945068e-01
-9.437574446201324463e-02 3.089740499854087830e-02 2.126809358596801758e-01
2.298690676689147949e-01 -9.677429497241973877e-02 -1.174893006682395935e-01
1.593010127544403076e-01 -9.568729996681213379e-02 -1.846653223037719727e-01
-5.158611014485359192e-02 2.931061759591102600e-02 -1.326747536659240723e-01
-6.810393929481506348e-02 9.369879961013793945e-03 -5.426319837570190430e-01
-8.135034143924713135e-02 1.363382861018180847e-02 -4.816853702068328857e-01
2.371206581592559814e-01 -9.605738520622253418e-02 3.019345737993717194e-02
1.283464580774307251e-01 -8.826875686645507812e-02 -3.436900377273559570e-01
2.228199392557144165e-01 -4.664256051182746887e-02 -2.183636128902435303e-01
-5.529848858714103699e-02 -4.808253049850463867e-02 1.663725450634956360e-02
1.148202568292617798e-01 -1.204816438257694244e-02 4.646687209606170654e-01
1.847355812788009644e-01 -2.754353918135166168e-02 9.733280539512634277e-02
7.810611277818679810e-02 -8.365801721811294556e-02 -1.668780744075775146e-01
1.476042345166206360e-02 -5.724029615521430969e-02 -5.015311837196350098e-01
3.060006722807884216e-02 -7.455049455165863037e-02 4.858667403459548950e-02
1.799024641513824463e-03 -4.699438810348510742e-02 7.029369473457336426e-01
1.936979591846466064e-03 -3.986321389675140381e-04 -6.640707850456237793e-01
9.773367643356323242e-02 1.247722655534744263e-03 -1.954183876514434814e-01
-6.636973470449447632e-03 -6.235665082931518555e-02 2.967919409275054932e-01
1.985618174076080322e-01 -9.088399261236190796e-02 3.818552196025848389e-01
6.758464872837066650e-02 -4.184330627322196960e-02 -7.794795036315917969e-01
3.714252263307571411e-02 -6.348943710327148438e-02 6.034913659095764160e-01
3.521630167961120605e-02 8.303642272949218750e-03 -4.712820947170257568e-01
2.504978328943252563e-02 -7.044541835784912109e-02 3.287138640880584717e-01
-8.834841847419738770e-02 -2.489272318780422211e-02 -3.333223760128021240e-01
1.112044900655746460e-01 -2.450125664472579956e-02 6.746429204940795898e-01
6.506275385618209839e-02 -1.704236306250095367e-02 7.493882775306701660e-01
-5.628125742077827454e-02 -2.172681502997875214e-02 -5.774294137954711914e-01
1.413388997316360474e-01 -1.170213520526885986e-02 -1.837033629417419434e-01
1.175075471401214600e-01 -5.775187164545059204e-02 -7.398955225944519043e-01
-2.737491950392723083e-02 2.761528268456459045e-02 9.742261469364166260e-02
2.109613865613937378e-01 -9.883542358875274658e-02 7.349209487438201904e-02
2.046004384756088257e-01 -9.680646657943725586e-02 2.137188315391540527e-01
5.865154787898063660e-02 1.186652481555938721e-02 -1.138750389218330383e-01
6.395149976015090942e-02 8.298341184854507446e-03 -2.792351543903350830e-01
-9.007294476032257080e-02 1.652900129556655884e-02 5.466477274894714355e-01
7.774846255779266357e-02 -1.864728145301342010e-02 7.302813529968261719e-01
1.563563048839569092e-01 -2.182074636220932007e-02 -3.938787281513214111e-01
9.926532208919525146e-02 -2.413334324955940247e-03 3.254105448722839355e-01
1.872307807207107544e-01 -9.859952330589294434e-02 -1.055873110890388489e-01
4.965808615088462830e-02 4.932247102260589600e-04 5.802803635597229004e-01
1.621803045272827148e-01 -9.753003716468811035e-02 -3.729481995105743408e-02
9.745498001575469971e-02 -8.788430690765380859e-02 -1.300871968269348145e-01
2.493309378623962402e-01 -6.557688862085342407e-02 -1.991188526153564453e-01
-2.033228799700737000e-02 -5.889865383505821228e-02 -1.087272986769676208e-01
8.519417047500610352e-02 -7.039181888103485107e-02 6.431797742843627930e-01
-7.246011495590209961e-02 5.032401531934738159e-03 6.691824793815612793e-01
-1.461353525519371033e-02 -4.684115946292877197e-02 -5.127647519111633301e-01
1.537494659423828125e-01 -8.174532651901245117e-02 5.606225728988647461e-01
1.889857500791549683e-01 -8.879771828651428223e-02 4.338245093822479248e-01
-2.640395238995552063e-02 -5.472678691148757935e-02 -2.223179340362548828e-01
3.589148074388504028e-02 -7.583951950073242188e-02 2.678717114031314850e-02
-4.213245585560798645e-02 -3.991648554801940918e-02 -4.515736103057861328e-01
4.706489294767379761e-02 -7.731562107801437378e-02 -1.314523518085479736e-01
-7.256872951984405518e-02 3.083051368594169617e-02 -1.117485687136650085e-01
2.357575893402099609e-01 -5.364137142896652222e-02 8.802887797355651855e-02
-4.213823005557060242e-02 -4.776444658637046814e-02 -2.725883424282073975e-01
1.178955435752868652e-01 -9.077797830104827881e-02 -1.684980988502502441e-01
-9.068195521831512451e-02 -2.279482036828994751e-02 5.082980990409851074e-01
-2.001312747597694397e-02 -5.194225162267684937e-02 5.114716291427612305e-01
1.300515681505203247e-01 -1.026570424437522888e-02 -3.061625957489013672e-01
2.583856880664825439e-01 -7.519548386335372925e-02 3.671007603406906128e-02
-9.837937355041503906e-02 -2.969859540462493896e-02 -1.394906267523765564e-02
5.318645387887954712e-02 -1.585891097784042358e-02 7.658659219741821289e-01
-6.801520287990570068e-02 -1.239026896655559540e-02 -5.757275223731994629e-01
-1.038034707307815552e-01 3.174446895718574524e-02 1.224794387817382812e-01
2.939090318977832794e-02 -6.770016252994537354e-02 4.674901962280273438e-01
-9.715589880943298340e-02 5.584917962551116943e-03 -4.736042320728302002e-01
2.078295797109603882e-01 -3.702504187822341919e-02 -2.352604642510414124e-03
-9.332999587059020996e-02 -2.946043387055397034e-02 -1.565679609775543213e-01
1.189044862985610962e-02 -5.493579059839248657e-02 6.375471353530883789e-01
2.065469473600387573e-01 -6.251822412014007568e-02 5.131855010986328125e-01
-5.646612867712974548e-02 -2.700709924101829529e-02 6.697352528572082520e-01
2.431413829326629639e-01 -5.942609906196594238e-02 -1.871865987777709961e-01
-1.417734622955322266e-01 2.191010117530822754e-02 2.188649475574493408e-01
-1.154658570885658264e-02 -6.187242269515991211e-02 2.327596545219421387e-01
1.805677264928817749e-01 -9.760637581348419189e-02 1.763759553432464600e-01
-1.149748861789703369e-01 -2.165512926876544952e-02 1.226299405097961426e-01
-8.995510637760162354e-02 2.853954955935478210e-02 -2.177630364894866943e-01
1.545850932598114014e-01 -1.642675139009952545e-02 -1.984403729438781738e-01
8.225297927856445312e-02 -7.574336975812911987e-02 5.434601306915283203e-01
2.464245259761810303e-01 -8.878155797719955444e-02 1.787747144699096680e-01
5.317883938550949097e-02 -7.067878544330596924e-02 -4.372839927673339844e-01
-8.353810012340545654e-02 -3.496362268924713135e-02 2.877945601940155029e-01
-4.286439344286918640e-02 -4.901919513940811157e-02 3.711721301078796387e-01
1.318755000829696655e-01 -9.423911571502685547e-02 -1.094710826873779297e-02
3.631641715764999390e-02 -3.118399716913700104e-02 -7.755601406097412109e-01
-1.205682158470153809e-01 2.717282250523567200e-02 2.760432064533233643e-01
-1.041854321956634521e-01 2.349951490759849548e-02 -3.017696142196655273e-01
2.459031790494918823e-01 -9.233319759368896484e-02 -1.444696784019470215e-01
1.585513800382614136e-01 -9.610685706138610840e-02 -1.536816656589508057e-01
-8.275330066680908203e-02 3.207034245133399963e-02 1.042987555265426636e-01
1.414863914251327515e-01 -9.538558125495910645e-02 -3.279916942119598389e-02
1.936136335134506226e-01 -4.479271173477172852e-02 -5.140159726142883301e-01
1.133950054645538330e-01 -8.315075933933258057e-02 4.822287857532501221e-01
9.474128484725952148e-02 -8.843524008989334106e-02 2.304445579648017883e-02
2.096903175115585327e-01 -9.648683667182922363e-02 -2.245200574398040771e-01
1.549102365970611572e-01 -9.597811102867126465e-02 1.738432049751281738e-01
-1.452662050724029541e-01 3.360800445079803467e-03 -3.808126226067543030e-02
7.728714495897293091e-03 -5.050186067819595337e-02 -5.731586813926696777e-01
1.672977954149246216e-01 -2.157259918749332428e-02 1.654355823993682861e-01
8.099637180566787720e-02 -8.067166060209274292e-02 4.102948904037475586e-01
-1.213229894638061523e-01 -1.456847973167896271e-02 3.057396411895751953e-01
-2.514992281794548035e-02 1.861244812607765198e-02 -4.280925989151000977e-01
-1.156305894255638123e-02 -5.988750606775283813e-02 3.458139300346374512e-01
-5.444187298417091370e-02 -2.990725263953208923e-02 6.519890427589416504e-01
1.500860154628753662e-01 -9.270632266998291016e-02 -2.809048295021057129e-01
7.561329007148742676e-02 -7.375099509954452515e-02 5.603469610214233398e-01
8.601829409599304199e-02 -7.665748894214630127e-02 -4.644464254379272461e-01
7.115265727043151855e-02 -8.772164583206176758e-04 5.010596513748168945e-01
1.946989595890045166e-01 -8.538834750652313232e-02 -4.833362996578216553e-01
1.206982284784317017e-01 -9.000186622142791748e-02 2.941331863403320312e-01
1.159479022026062012e-01 -3.158893436193466187e-03 8.174358308315277100e-02
-1.013088077306747437e-01 -2.697236463427543640e-02 -9.418614953756332397e-02
2.056396752595901489e-01 -3.590638935565948486e-02 -3.467610850930213928e-02
-8.663284778594970703e-02 2.199807763099670410e-02 -3.705747425556182861e-01
1.817606687545776367e-01 -9.814465045928955078e-02 1.415117084980010986e-01
2.133587002754211426e-01 -7.568565756082534790e-02 4.832309484481811523e-01
1.852420121431350708e-01 -3.262347728013992310e-02 3.039096295833587646e-01
1.226554438471794128e-02 1.121884956955909729e-02 5.214059352874755859e-01
1.250421404838562012e-01 -8.701993525028228760e-02 -3.677012920379638672e-01
-1.232481002807617188e-01 2.933644875884056091e-02 -3.663043677806854248e-02
-3.781843930482864380e-03 3.773819655179977417e-03 6.811493635177612305e-01
2.245542407035827637e-01 -8.920294046401977539e-02 3.268226087093353271e-01
6.461664289236068726e-02 -6.814780831336975098e-02 6.240699291229248047e-01
