-1.939827390015125275e-02 3.385741710662841797e-01 1.242478042840957642e-01
3.073059208691120148e-02 -6.437560543417930603e-03 1.099637597799301147e-01
3.559186356142163277e-03 9.487611055374145508e-02 1.873239874839782715e-01
3.244345635175704956e-02 -2.779171764850616455e-01 5.948453210294246674e-03
2.932956442236900330e-02 4.738286733627319336e-01 -4.058875143527984619e-02
-8.592763915657997131e-03 -2.790816426277160645e-01 1.696237772703170776e-01
2.193298377096652985e-02 1.035826429724693298e-01 1.554505974054336548e-01
-2.535018883645534515e-02 4.719918966293334961e-01 -4.563933238387107849e-02
3.286347538232803345e-02 -2.608300447463989258e-01 -9.393063373863697052e-05
2.935616672039031982e-02 -3.390368521213531494e-01 -3.837991505861282349e-02
3.560257703065872192e-02 2.209996581077575684e-01 4.246503487229347229e-02
-3.133048489689826965e-02 2.846078574657440186e-01 -6.245903298258781433e-02
2.754385024309158325e-02 1.462518274784088135e-01 1.290327459573745728e-01
1.006460655480623245e-02 2.603834122419357300e-02 -1.812521666288375854e-01
3.579890727996826172e-02 -2.088722772896289825e-02 4.919968172907829285e-02
2.917060814797878265e-02 -3.793395459651947021e-01 1.161327492445707321e-02
-1.911965943872928619e-02 4.615311324596405029e-01 -1.075831577181816101e-01
3.519894555211067200e-02 1.064069569110870361e-03 -5.013572424650192261e-02
-2.809592522680759430e-02 1.923150271177291870e-01 1.013218611478805542e-01
-2.417209185659885406e-02 4.926843345165252686e-01 -4.786021262407302856e-02
2.216510847210884094e-02 4.828437864780426025e-01 1.018043011426925659e-01
-1.829664781689643860e-02 1.512101888656616211e-01 1.538758128881454468e-01
1.764953136444091797e-02 3.041452467441558838e-01 -1.507922857999801636e-01
-1.951403170824050903e-02 -6.385232806205749512e-01 -1.331745181232690811e-02
2.935333922505378723e-02 -3.739733695983886719e-01 7.601369870826601982e-04
-2.584650181233882904e-02 3.631151914596557617e-01 7.913638651371002197e-02
-2.180507965385913849e-02 -3.403342664241790771e-01 -1.335166692733764648e-01
3.513295575976371765e-02 2.286476492881774902e-01 -4.060822725296020508e-02
-3.456119820475578308e-02 7.518940418958663940e-02 -7.058578729629516602e-02
-1.430874224752187729e-02 4.109649658203125000e-01 1.284891068935394287e-01
-2.945888601243495941e-02 3.837626874446868896e-01 -3.698806092143058777e-02
1.475514285266399384e-02 5.655871033668518066e-01 1.033291071653366089e-01
-1.978109776973724365e-02 -2.774719595909118652e-01 -1.496352851390838623e-01
-2.916963957250118256e-02 -3.714581727981567383e-01 -8.524790406227111816e-02
3.646268323063850403e-02 3.914023935794830322e-02 3.985617682337760925e-02
3.649746626615524292e-02 8.773238211870193481e-02 -2.777877449989318848e-02
2.034415490925312042e-02 -2.262089401483535767e-01 -1.362347453832626343e-01
-2.704684808850288391e-02 1.956775039434432983e-01 1.080106869339942932e-01
3.393440693616867065e-02 -1.656017303466796875e-01 -3.635097667574882507e-02
-2.148787491023540497e-02 -2.579763829708099365e-01 1.399767398834228516e-01
-3.171637654304504395e-02 1.031645387411117554e-01 -9.900412708520889282e-02
-3.709895536303520203e-02 -3.242389857769012451e-02 1.083486434072256088e-02
3.169657289981842041e-02 -2.470546066761016846e-01 5.961161851882934570e-02
3.678100556135177612e-02 -7.572172209620475769e-03 -3.023514058440923691e-03
-2.921690605580806732e-02 3.537317216396331787e-01 4.562326148152351379e-02
2.108986675739288330e-02 6.368210911750793457e-01 1.837256550788879395e-02
-1.023132354021072388e-02 4.354531168937683105e-01 1.348319202661514282e-01
1.616584509611129761e-02 -4.840062260627746582e-01 -9.451163560152053833e-02
-3.501046076416969299e-02 -2.348184436559677124e-01 -5.145134776830673218e-02
-3.504853695631027222e-02 -2.978903949260711670e-01 6.484095007181167603e-03
-1.736056059598922729e-02 -6.389443278312683105e-01 -4.297638684511184692e-02
2.666854299604892731e-02 3.363031446933746338e-01 -1.070936918258666992e-01
-2.696962840855121613e-02 -4.499025642871856689e-01 -7.776615023612976074e-02
2.115418203175067902e-02 4.895166158676147461e-01 1.046220064163208008e-01
-3.453071042895317078e-02 2.180581837892532349e-01 -8.079485036432743073e-03
1.527920924127101898e-02 -8.725834637880325317e-02 -1.665658652782440186e-01
1.075728423893451691e-02 7.105198502540588379e-01 2.496057003736495972e-02
-1.800238899886608124e-02 -3.323095142841339111e-01 1.430161148309707642e-01
-1.447203755378723145e-02 -6.547299027442932129e-01 4.924934357404708862e-02
3.260155394673347473e-02 1.682415604591369629e-04 -8.260665088891983032e-02
-3.584599122405052185e-02 -2.375006228685379028e-01 -2.851919457316398621e-02
-1.850475370883941650e-02 5.994558930397033691e-01 -1.917375251650810242e-02
-3.689440712332725525e-02 -8.353702723979949951e-03 1.687576994299888611e-02
-2.026684954762458801e-02 -6.310973167419433594e-01 1.089343335479497910e-02
3.708750754594802856e-02 7.035880535840988159e-02 1.065472792834043503e-02
-2.771536819636821747e-02 -4.990395009517669678e-01 -4.342950507998466492e-02
-3.042804449796676636e-02 1.100328192114830017e-01 -1.090328916907310486e-01
-3.591445088386535645e-02 1.140682026743888855e-01 1.616923697292804718e-02
-3.069193847477436066e-02 1.844303160905838013e-01 -9.674026817083358765e-02
-1.213361602276563644e-02 -2.780036032199859619e-01 1.641406416893005371e-01
1.754852011799812317e-02 -5.630720257759094238e-01 5.517509207129478455e-02
3.694968298077583313e-02 1.395042836666107178e-01 1.199779286980628967e-02
-3.123801574110984802e-02 3.331635594367980957e-01 -3.448658809065818787e-02
3.040287271142005920e-02 -3.352927267551422119e-01 3.106329776346683502e-02
-2.881382219493389130e-02 -3.075174093246459961e-01 9.426697343587875366e-02
-2.788347937166690826e-02 -4.097952693700790405e-02 1.204170882701873779e-01
-1.043897215276956558e-02 5.370036959648132324e-01 1.058327108621597290e-01
3.387172147631645203e-02 3.647826313972473145e-01 -4.754397086799144745e-03
-1.283401530236005783e-02 -6.851066946983337402e-01 -2.087360806763172150e-02
-1.010785810649394989e-02 -6.864812374114990234e-01 -3.695177286863327026e-02
-1.388080045580863953e-02 2.945268154144287109e-01 1.510644257068634033e-01
3.128779679536819458e-02 3.780781626701354980e-01 -5.757978558540344238e-02
3.069707006216049194e-02 -3.351907432079315186e-01 -2.329146664123982191e-04
-3.110191039741039276e-02 -3.852889537811279297e-01 -6.003579869866371155e-02
-3.306637704372406006e-02 -3.783210217952728271e-01 -2.273662015795707703e-02
2.727132849395275116e-02 -4.025709331035614014e-01 4.697483405470848083e-02
-3.700824826955795288e-02 -7.970850914716720581e-03 -2.740401029586791992e-02
-2.867840789258480072e-02 -1.989163309335708618e-01 -1.193806529045104980e-01
2.306878380477428436e-02 -4.225285649299621582e-01 8.603229373693466187e-02
-2.530187484808266163e-04 -5.906634330749511719e-01 1.077243164181709290e-01
3.595880046486854553e-02 2.152836471796035767e-01 -2.391372062265872955e-02
-2.392408810555934906e-02 -3.489080965518951416e-01 1.167821884155273438e-01
2.227409422630444169e-04 5.017997622489929199e-01 1.351421475410461426e-01
2.151469327509403229e-02 -5.021306872367858887e-01 -4.464375227689743042e-02
2.999366074800491333e-02 -2.308337390422821045e-01 8.625444024801254272e-02
-1.967691816389560699e-02 5.288643240928649902e-01 6.005785986781120300e-02
-3.398525342345237732e-02 1.621363013982772827e-01 4.565460234880447388e-02
-2.846243977546691895e-02 -3.446382582187652588e-01 -9.768752008676528931e-02
-2.730878442525863647e-02 2.216794490814208984e-01 -1.165924072265625000e-01
-2.658183500170707703e-02 4.427595734596252441e-01 3.136420249938964844e-02
1.921885460615158081e-02 -3.817728757858276367e-01 -1.109643876552581787e-01
1.787937246263027191e-02 -5.866287350654602051e-01 7.289429195225238800e-03
2.034715749323368073e-02 -3.780417442321777344e-01 -1.060727089643478394e-01
2.262640744447708130e-02 -4.157116115093231201e-01 -7.923419773578643799e-02
-3.342270478606224060e-02 -3.718320429325103760e-01 -1.029939763247966766e-02
2.393275126814842224e-02 -2.081768959760665894e-01 -1.217276975512504578e-01
3.260603919625282288e-02 6.065978109836578369e-02 9.591889381408691406e-02
7.233600132167339325e-03 2.689154446125030518e-01 -1.751712262630462646e-01
-2.564561739563941956e-02 -2.790056169033050537e-01 1.185402348637580872e-01
-2.431969158351421356e-02 2.293957918882369995e-01 1.192730143666267395e-01
-2.459956146776676178e-02 1.332424134016036987e-01 -1.418622434139251709e-01
-9.882783517241477966e-03 -3.666549026966094971e-01 -1.571222096681594849e-01
-2.917330525815486908e-02 -3.121739625930786133e-01 -9.947913885116577148e-02
-2.728020586073398590e-02 -3.658116161823272705e-01 9.353591501712799072e-02
3.435271233320236206e-02 3.281152844429016113e-01 -2.109544165432453156e-02
3.542277961969375610e-02 -4.804431647062301636e-02 5.257767066359519958e-02
3.047007508575916290e-02 -1.425527334213256836e-01 -8.660209923982620239e-02
1.905095949769020081e-02 -3.851956427097320557e-01 1.220265477895736694e-01
-3.719507530331611633e-02 -1.081205978989601135e-01 -6.687362911179661751e-04
2.232090197503566742e-02 -4.214042425155639648e-01 -7.939914613962173462e-02
-2.303369715809822083e-02 -1.248454526066780090e-01 -1.517788767814636230e-01
1.947976462543010712e-02 1.178607195615768433e-01 -1.576553583145141602e-01
2.213766053318977356e-02 -4.012462496757507324e-01 -8.806369453668594360e-02
2.707449346780776978e-02 -3.898030221462249756e-01 5.902997031807899475e-02
1.330424007028341293e-02 6.385310888290405273e-01 -7.928125560283660889e-02
-2.373844012618064880e-02 -3.422929048538208008e-01 1.188472062349319458e-01
-2.580709196627140045e-02 1.796122044324874878e-01 1.178627237677574158e-01
2.620601095259189606e-02 -2.420195639133453369e-01 1.142922490835189819e-01
-1.799333468079566956e-02 -6.531683206558227539e-01 -1.155610475689172745e-02
2.359390631318092346e-02 -2.951832711696624756e-01 1.195795461535453796e-01
1.890817470848560333e-02 1.212251111865043640e-01 1.643681228160858154e-01
7.064464152790606022e-04 -7.033699154853820801e-01 -1.815881207585334778e-02
2.994463220238685608e-02 -3.582595586776733398e-01 4.932876676321029663e-03
-3.167683258652687073e-02 1.549018323421478271e-01 -9.241363406181335449e-02
2.204266376793384552e-02 -2.672048844397068024e-02 1.550844162702560425e-01
-2.886607311666011810e-03 -6.534904837608337402e-01 -7.265698909759521484e-02
-4.459881223738193512e-03 7.131778597831726074e-01 1.240327488631010056e-02
1.171961892396211624e-02 1.541665494441986084e-01 1.778816431760787964e-01
-2.667148970067501068e-02 9.770249575376510620e-02 -1.341673284769058228e-01
-1.323489192873239517e-02 6.496554613113403320e-01 2.191494591534137726e-02
3.382064029574394226e-02 4.087382927536964417e-02 8.333814144134521484e-02
1.495605893433094025e-02 -4.886946082115173340e-01 1.094443574547767639e-01
1.422736886888742447e-02 5.188032984733581543e-01 -1.213178485631942749e-01
-1.717586629092693329e-02 3.026650846004486084e-01 -1.509987860918045044e-01
1.569873467087745667e-02 -5.523043870925903320e-01 7.787942886352539062e-02
3.688574582338333130e-02 6.100742518901824951e-02 2.615730650722980499e-02
3.238578140735626221e-02 -2.559714019298553467e-01 4.110874608159065247e-02
-1.120958384126424789e-02 2.942552566528320312e-01 1.577356159687042236e-01
-3.614322841167449951e-02 1.177584901452064514e-01 1.276766415685415268e-04
2.280615642666816711e-02 3.831707537174224854e-01 1.231683194637298584e-01
1.537016686052083969e-02 6.607353091239929199e-01 -5.528215691447257996e-02
-3.395034745335578918e-02 -1.092008650302886963e-01 7.076588273048400879e-02
2.882399037480354309e-02 3.872060477733612061e-01 -8.070799708366394043e-02
3.590923547744750977e-02 1.245620474219322205e-01 -4.015568271279335022e-02
3.399366140365600586e-02 -2.101365923881530762e-01 2.035695873200893402e-02
-2.335687540471553802e-02 3.891401886940002441e-01 -1.050379201769828796e-01
2.159037441015243530e-02 2.162098437547683716e-01 1.502717733383178711e-01
-2.418844401836395264e-02 4.112024307250976562e-01 7.624137401580810547e-02
3.601858392357826233e-02 -5.908828973770141602e-02 3.466029092669487000e-02
-2.854033373296260834e-02 -4.851960390806198120e-02 1.164591014385223389e-01
-2.751368656754493713e-02 4.314962327480316162e-01 -3.876433894038200378e-02
-2.046087197959423065e-02 -5.399257540702819824e-01 -8.511851727962493896e-02
-2.157317288219928741e-02 -6.978508085012435913e-02 -1.589918285608291626e-01
2.901015244424343109e-02 5.121290087699890137e-01 -2.045226283371448517e-03
3.315261378884315491e-02 3.040924370288848877e-01 6.328156590461730957e-02
-2.243028394877910614e-02 -6.035729050636291504e-01 1.660390757024288177e-02
-1.507812761701643467e-03 2.505463063716888428e-01 -1.808023005723953247e-01
-2.944241464138031006e-02 2.454266697168350220e-01 8.017997443675994873e-02
2.181222289800643921e-02 -4.159714579582214355e-01 -8.519511669874191284e-02
3.461717069149017334e-02 1.704316288232803345e-01 6.860256195068359375e-02
3.237234055995941162e-02 -2.098991274833679199e-01 6.284058839082717896e-02
2.995060384273529053e-02 -3.280233144760131836e-01 -3.406878933310508728e-02
-3.400919213891029358e-02 2.195503860712051392e-01 -3.871230781078338623e-02
2.102900296449661255e-02 6.164888739585876465e-01 4.500662162899971008e-02
-1.884589903056621552e-02 -3.883353471755981445e-01 -1.349589228630065918e-01
-3.053094819188117981e-02 -4.122118949890136719e-01 4.739361256361007690e-02
1.117971073836088181e-02 7.159152626991271973e-01 -1.187291648238897324e-02
3.082871064543724060e-02 -1.129275336861610413e-01 -8.784083276987075806e-02
3.076478093862533569e-02 -3.374972939491271973e-02 1.082584261894226074e-01
-1.105767022818326950e-02 6.089798212051391602e-01 7.233807444572448730e-02
2.154464460909366608e-02 -4.511853158473968506e-01 -7.314977049827575684e-02
-2.398501522839069366e-02 -4.501714408397674561e-01 -9.833690524101257324e-02
8.516221307218074799e-03 -6.575648784637451172e-01 4.516050964593887329e-02
-3.472959157079458237e-03 6.541466116905212402e-01 7.414550334215164185e-02
3.101667016744613647e-02 4.609856605529785156e-01 -6.192257627844810486e-03
3.455668687820434570e-02 2.493975684046745300e-02 7.384856790304183960e-02
-2.448960021138191223e-02 2.879407107830047607e-01 -1.222243756055831909e-01
-3.527902439236640930e-02 1.630203127861022949e-01 1.337443385273218155e-02
2.002857252955436707e-02 5.695244073867797852e-01 -8.079428970813751221e-02
-2.529185451567173004e-02 -5.591185092926025391e-01 -2.598150819540023804e-02
-3.309989348053932190e-02 1.672732681035995483e-01 -7.394803315401077271e-02
1.298505812883377075e-02 6.702703833580017090e-01 -6.068984046578407288e-02
-2.405150048434734344e-02 -3.989227414131164551e-01 1.061154976487159729e-01
-2.135184593498706818e-02 -4.241645634174346924e-01 1.138193681836128235e-01
3.441916778683662415e-02 2.541962563991546631e-01 -4.777120426297187805e-02
3.236702457070350647e-02 3.724398314952850342e-01 5.099432542920112610e-02
-2.627628482878208160e-02 -1.641953289508819580e-01 1.260296404361724854e-01
3.388688713312149048e-02 2.312155067920684814e-01 6.973169744014739990e-02
-1.682403683662414551e-02 -4.037975370883941650e-01 -1.376920342445373535e-01
-3.401514515280723572e-02 -3.485709428787231445e-01 -1.093203108757734299e-02
-1.550128683447837830e-03 1.160331889986991882e-01 -1.889846473932266235e-01
-2.960895560681819916e-02 -4.824103116989135742e-01 -1.211911626160144806e-02
1.940544508397579193e-02 6.371114253997802734e-01 4.243260622024536133e-02
-3.175821527838706970e-02 -3.203161358833312988e-01 6.463737785816192627e-02
3.189500793814659119e-02 -2.035558223724365234e-01 7.167410105466842651e-02
1.897495239973068237e-02 -5.009666681289672852e-01 8.229536563158035278e-02
2.850175090134143829e-02 -2.906483709812164307e-01 -7.068813592195510864e-02
-8.541016839444637299e-03 4.755970239639282227e-01 -1.394130289554595947e-01
-3.436790406703948975e-02 1.835291981697082520e-01 -4.750936478376388550e-02
-2.140751294791698456e-02 9.033175557851791382e-02 -1.576022505760192871e-01
-1.287258975207805634e-02 -1.463659666478633881e-02 -1.812260150909423828e-01
3.694467619061470032e-02 7.398568093776702881e-02 2.358409017324447632e-02
5.634579341858625412e-03 5.733287930488586426e-01 -1.208601593971252441e-01
-3.623208031058311462e-02 -2.290932983160018921e-01 -5.568276159465312958e-03
-2.552440948784351349e-02 -1.840159893035888672e-01 1.286068558692932129e-01
-3.534139320254325867e-02 8.119070902466773987e-03 -6.595620512962341309e-02
-1.909410394728183746e-02 5.458071827888488770e-01 5.502685531973838806e-02
-3.536620736122131348e-02 1.675457805395126343e-01 4.651372320950031281e-03
-2.423532120883464813e-02 5.117394328117370605e-01 -1.061823568306863308e-03
-3.596979752182960510e-02 9.585178643465042114e-02 -3.828913345932960510e-02
7.770296651870012283e-03 -4.618123471736907959e-01 1.378010064363479614e-01
3.295459598302841187e-02 9.868963807821273804e-02 -8.138640224933624268e-02
-2.086309343576431274e-02 -5.862882733345031738e-01 -5.771401897072792053e-02
-1.936269737780094147e-02 3.602780699729919434e-01 -1.329362839460372925e-01
2.009384520351886749e-02 4.897314310073852539e-01 -1.082104593515396118e-01
2.575941570103168488e-02 -1.427567899227142334e-01 -1.202916875481605530e-01
-1.714041456580162048e-02 -9.841878712177276611e-02 1.641712635755538940e-01
-1.938520185649394989e-02 2.202970236539840698e-01 1.430105268955230713e-01
2.448535524308681488e-02 -3.303059339523315430e-01 -9.328879415988922119e-02
3.067514300346374512e-02 4.492470920085906982e-01 -3.224819898605346680e-02
3.321092203259468079e-02 3.916793465614318848e-01 -2.504087984561920166e-03
-3.321148082613945007e-02 6.925354897975921631e-02 7.287640124559402466e-02
3.017607331275939941e-02 2.060918658971786499e-01 -9.975758194923400879e-02
3.590191155672073364e-02 1.301285531371831894e-02 -3.819802775979042053e-02
3.524474427103996277e-02 2.990819811820983887e-01 -1.782391453161835670e-03
-1.226154156029224396e-02 -5.614289045333862305e-01 -1.056153401732444763e-01
-5.373909138143062592e-03 6.907457858324050903e-02 -1.889847069978713989e-01
-2.536245249211788177e-02 -1.899422109127044678e-01 1.289907097816467285e-01
1.707193255424499512e-02 6.803885698318481445e-01 7.692305371165275574e-04
1.083538960665464401e-02 1.374951377511024475e-02 1.828626543283462524e-01
2.462260238826274872e-02 5.091710090637207031e-01 7.764011621475219727e-02
-3.137635812163352966e-02 -3.337365984916687012e-01 6.535991281270980835e-02
-3.640703856945037842e-02 9.874697774648666382e-02 -1.012402493506669998e-02
-2.549552544951438904e-02 -4.934081137180328369e-01 -7.180423289537429810e-02
-3.661180287599563599e-02 -1.897208690643310547e-01 4.615575075149536133e-03
-2.023527212440967560e-02 -5.828523635864257812e-01 6.262362748384475708e-02
-1.529724430292844772e-02 1.845270097255706787e-01 -1.694038212299346924e-01
-2.918210253119468689e-02 1.598864793777465820e-03 -1.240254193544387817e-01
2.547279559075832367e-02 3.322043418884277344e-01 1.197698563337326050e-01
-1.530756894499063492e-02 6.090017557144165039e-01 -5.837792530655860901e-02
-1.618745550513267517e-02 -2.177680730819702148e-01 1.605876237154006958e-01
-2.076438814401626587e-02 -4.958271682262420654e-01 -1.003221198916435242e-01
-1.676488481462001801e-02 3.116169869899749756e-01 1.394708454608917236e-01
-3.703387081623077393e-02 -8.003594726324081421e-02 1.472102478146553040e-02
-3.280639275908470154e-02 -3.837887048721313477e-01 1.754612475633621216e-02
-2.819123677909374237e-02 -5.129407644271850586e-01 7.352100685238838196e-03
-3.211142867803573608e-02 3.109056651592254639e-01 8.374381810426712036e-03
-3.184434026479721069e-02 3.114097118377685547e-01 1.843019016087055206e-02
1.102088391780853271e-02 -5.512139201164245605e-01 -9.124412387609481812e-02
1.745175570249557495e-02 2.152684628963470459e-01 1.626272201538085938e-01
-4.411633592098951340e-03 -5.586951375007629395e-01 1.189946383237838745e-01
1.902014762163162231e-02 -1.721169948577880859e-01 -1.480638831853866577e-01
-2.828408963978290558e-02 2.110010534524917603e-01 9.683950990438461304e-02
6.128621753305196762e-03 -6.860011816024780273e-01 -9.550324641168117523e-03
-3.356805816292762756e-02 -2.999536693096160889e-01 4.582774266600608826e-02
-1.783978007733821869e-02 -1.489725559949874878e-01 -1.666415184736251831e-01
-1.341398805379867554e-02 6.102933287620544434e-01 -7.180763781070709229e-02
-3.335371613502502441e-02 1.849840879440307617e-01 4.941650107502937317e-02
-2.782839350402355194e-02 3.419217169284820557e-01 -8.399332314729690552e-02
3.574196621775627136e-02 -9.060881286859512329e-02 3.220224007964134216e-02
-3.059150651097297668e-02 1.906818002462387085e-01 -9.654270857572555542e-02
3.359345346689224243e-02 3.325428962707519531e-01 -3.811183571815490723e-02
2.953477948904037476e-02 3.077819645404815674e-01 9.867337346076965332e-02
-2.398667298257350922e-02 -1.738971620798110962e-01 1.365792751312255859e-01
-2.454040013253688812e-02 1.542528532445430756e-02 -1.479084342718124390e-01
1.718806661665439606e-02 -2.447032034397125244e-01 -1.457040756940841675e-01
3.064286895096302032e-02 -2.738415896892547607e-01 -5.048596113920211792e-02
2.289613336324691772e-02 1.212567985057830811e-01 -1.448183059692382812e-01
-3.613487584516406059e-03 -5.681127905845642090e-01 1.161964610219001770e-01
3.656600043177604675e-02 -8.191788569092750549e-03 2.921130694448947906e-02
-2.322886697947978973e-02 -5.783687233924865723e-01 -3.967824950814247131e-02
-1.793680712580680847e-02 6.065719127655029297e-01 3.954828716814517975e-03
-2.996551990509033203e-02 1.718587279319763184e-01 9.000518172979354858e-02
-2.738850563764572144e-02 -4.001980721950531006e-01 -9.113620221614837646e-02
1.872725039720535278e-02 -2.765265107154846191e-01 1.448403894901275635e-01
-3.721846640110015869e-02 -1.145636662840843201e-02 -8.838926441967487335e-03
-1.607332006096839905e-02 -5.764621496200561523e-01 -8.882205933332443237e-02
-2.051979675889015198e-02 -6.107264757156372070e-01 -4.070659354329109192e-02
1.959357596933841705e-02 2.488120198249816895e-01 1.537537872791290283e-01
-2.348260208964347839e-02 -5.707472562789916992e-01 4.012327268719673157e-02
-3.099205531179904938e-02 -4.488020837306976318e-01 -8.481515105813741684e-04
3.263120353221893311e-02 -2.706652879714965820e-01 1.140183396637439728e-02
2.328778989613056183e-02 -1.501034200191497803e-01 1.424335837364196777e-01
-1.702605374157428741e-02 -6.147511601448059082e-01 6.400057673454284668e-02
-2.419623918831348419e-02 -3.239838778972625732e-01 1.195702180266380310e-01
3.074119798839092255e-02 -2.434644103050231934e-01 -6.033961847424507141e-02
-3.546111658215522766e-02 -1.853923685848712921e-02 5.069504678249359131e-02
-9.987297467887401581e-03 -3.174456954002380371e-02 1.805392503738403320e-01
2.433376200497150421e-02 1.462902426719665527e-01 1.444718986749649048e-01
-3.438026085495948792e-02 -1.554583013057708740e-01 6.234741210937500000e-02
3.135210648179054260e-02 3.292799592018127441e-01 7.814850658178329468e-02
-3.920937422662973404e-03 -4.815680384635925293e-01 -1.374289542436599731e-01
-2.509096451103687286e-02 4.740465283393859863e-01 3.182984888553619385e-02
2.440579049289226532e-02 -3.707907497882843018e-01 -8.145384490489959717e-02
4.234570544213056564e-03 -5.045859217643737793e-01 -1.252627968788146973e-01
-2.768550813198089600e-02 -7.021529972553253174e-02 1.215369850397109985e-01
-3.172529116272926331e-02 -3.709076344966888428e-01 4.834458231925964355e-02
1.682879216969013214e-02 5.968820452690124512e-01 8.351700752973556519e-02
-3.180118277668952942e-03 -4.048633873462677002e-01 -1.540845930576324463e-01
1.134631689637899399e-02 -6.289892792701721191e-01 -4.243927448987960815e-02
4.363853018730878830e-03 -3.598265349864959717e-01 -1.573718190193176270e-01
1.500231679528951645e-02 4.548897147178649902e-01 -1.344897747039794922e-01
-2.945969067513942719e-02 2.732789516448974609e-02 -1.214923635125160217e-01
-3.307311981916427612e-02 -3.305498063564300537e-01 4.312330856919288635e-02
3.119327872991561890e-02 -1.413280963897705078e-01 -7.995539158582687378e-02
-2.605898119509220123e-02 -4.946242868900299072e-01 -6.615594774484634399e-02
-6.296760868281126022e-03 -6.628606915473937988e-01 7.028377801179885864e-02
2.978602610528469086e-02 4.226638376712799072e-01 -5.975676700472831726e-02
2.439475618302822113e-02 5.963384509086608887e-01 -8.023481816053390503e-03
1.659967005252838135e-02 -5.253801941871643066e-01 -7.438200712203979492e-02
-1.758997701108455658e-02 4.864311516284942627e-01 9.316795319318771362e-02
1.371246296912431717e-02 -6.250435113906860352e-01 -2.050293423235416412e-02
2.664432488381862640e-02 4.517067670822143555e-01 8.400337398052215576e-02
-3.708149865269660950e-02 -9.790806472301483154e-02 -2.521955780684947968e-02
-1.386069227010011673e-02 1.659351736307144165e-01 1.654025763273239136e-01
1.200100034475326538e-02 -5.005895346403121948e-02 1.802704483270645142e-01
-2.204336598515510559e-02 4.977225661277770996e-01 5.564457550644874573e-02
3.256031870841979980e-02 3.161900937557220459e-01 6.779225915670394897e-02
2.499984763562679291e-02 -4.412187635898590088e-01 -4.167828708887100220e-02
-2.831601910293102264e-02 -3.312351703643798828e-01 9.344667941331863403e-02
-3.569134697318077087e-02 -1.878022104501724243e-01 3.664757683873176575e-02
2.037885226309299469e-02 -5.490443706512451172e-01 -1.069849915802478790e-02
3.169086575508117676e-02 -3.043971955776214600e-01 9.468824602663516998e-03
-1.350580994039773941e-02 -2.078962922096252441e-01 1.676418334245681763e-01
-1.701582409441471100e-02 1.067733764648437500e-01 1.610531806945800781e-01
-3.034945018589496613e-02 1.341435313224792480e-01 9.231308847665786743e-02
-3.400192037224769592e-02 1.416905596852302551e-02 6.874652206897735596e-02
3.350658342242240906e-02 1.652292013168334961e-01 8.271431177854537964e-02
-2.655550464987754822e-02 3.452129960060119629e-01 7.877604663372039795e-02
-3.104861080646514893e-02 1.654168590903282166e-04 9.787935763597488403e-02
2.176724188029766083e-02 -4.636990427970886230e-01 -6.533922255039215088e-02
-2.567882463335990906e-02 -3.454061150550842285e-01 1.079313233494758606e-01
3.056007809937000275e-02 4.677712917327880859e-01 -1.716535165905952454e-02
-3.583480417728424072e-02 -1.322624534368515015e-01 -5.570673197507858276e-02
1.238430198282003403e-02 6.809591054916381836e-01 -5.500228330492973328e-02
-3.479877486824989319e-02 -3.102221190929412842e-01 -1.806252449750900269e-02
-1.057116128504276276e-02 4.522858262062072754e-01 -1.407150179147720337e-01
3.229345008730888367e-02 4.018200933933258057e-01 3.612890839576721191e-02
-6.460027303546667099e-03 -4.251691997051239014e-01 1.508207023143768311e-01
9.688108228147029877e-03 -5.688063502311706543e-01 -8.870162069797515869e-02
3.074556030333042145e-02 -3.308340907096862793e-01 -7.305959239602088928e-03
7.717304397374391556e-03 7.505620829761028290e-03 -1.845356971025466919e-01
2.589100599288940430e-02 -3.887592256069183350e-01 7.423794269561767578e-02
-2.047877758741378784e-02 4.157253205776214600e-01 1.001674756407737732e-01
-1.324034482240676880e-02 -5.697635412216186523e-01 -1.002233028411865234e-01
2.541444636881351471e-02 5.813230276107788086e-01 5.353486631065607071e-05
-2.090608887374401093e-02 5.673413276672363281e-01 -1.284494809806346893e-02
-2.984200790524482727e-02 3.624487221240997314e-01 -4.618379473686218262e-02
3.080716915428638458e-02 -3.208748400211334229e-01 -1.819535344839096069e-02
6.504730321466922760e-03 4.563799202442169189e-01 -1.495675593614578247e-01
-3.623808175325393677e-02 -5.693510174751281738e-02 3.772266209125518799e-02
-4.530099686235189438e-04 -5.542547106742858887e-01 -1.153402402997016907e-01
-3.679750487208366394e-02 -1.723461300134658813e-01 1.845415448769927025e-03
2.802198007702827454e-02 3.396438360214233398e-01 -9.750232845544815063e-02
-3.663590922951698303e-02 3.716684877872467041e-02 -3.334030508995056152e-02
1.968969404697418213e-02 1.590978354215621948e-01 -1.555486917495727539e-01
2.244311384856700897e-02 -1.203018352389335632e-01 -1.393308937549591064e-01
-2.493970468640327454e-02 4.938533008098602295e-01 -2.838140912353992462e-02
-3.019204922020435333e-02 -1.502645015716552734e-01 -1.137580871582031250e-01
1.029159408062696457e-02 -4.912224709987640381e-01 -1.153992712497711182e-01
3.672229126095771790e-02 -1.850662007927894592e-02 -1.565564423799514771e-03
3.639155626296997070e-02 3.893225640058517456e-02 -2.896296605467796326e-02
1.776240579783916473e-02 1.700725033879280090e-02 -1.634470075368881226e-01
-2.026432007551193237e-02 -4.369935393333435059e-01 -1.193525642156600952e-01
-9.695691056549549103e-03 -7.033228278160095215e-01 -2.396208234131336212e-03
4.562673624604940414e-03 7.326281070709228516e-01 -5.339371971786022186e-03
2.962576970458030701e-02 4.006655216217041016e-01 7.504183053970336914e-02
2.483678050339221954e-02 -1.377919316291809082e-01 -1.259675025939941406e-01
-2.644458226859569550e-02 4.265285730361938477e-01 4.516020044684410095e-02
-1.181759499013423920e-02 -6.819164752960205078e-01 -3.407789021730422974e-02
2.322727628052234650e-02 -2.191462665796279907e-01 -1.237909272313117981e-01
3.696325048804283142e-02 1.274608522653579712e-01 1.609334722161293030e-02
2.059946022927761078e-02 5.043193697929382324e-01 1.025752723217010498e-01
2.363591268658638000e-02 -4.972203075885772705e-01 -7.374281063675880432e-03
-3.207934275269508362e-02 -6.877337396144866943e-02 -1.032904982566833496e-01
2.741565741598606110e-02 1.387017518281936646e-01 -1.220270618796348572e-01
1.733478531241416931e-02 1.423981934785842896e-01 -1.635256111621856689e-01
-1.071793027222156525e-02 6.774617433547973633e-01 -2.175689488649368286e-02
6.968605797737836838e-03 2.199884206056594849e-01 -1.794225573539733887e-01
-1.695309765636920929e-02 2.922257781028747559e-02 -1.727101057767868042e-01
-2.403073385357856750e-02 -1.654137969017028809e-01 1.368941366672515869e-01
2.176371589303016663e-02 -4.944691956043243408e-01 -4.717841744422912598e-02
-3.231049701571464539e-02 -3.876206278800964355e-01 2.875774167478084564e-02
3.100808896124362946e-02 3.341970145702362061e-01 -7.326682657003402710e-02
-3.379708528518676758e-02 1.338929682970046997e-02 -8.576554059982299805e-02
3.036264143884181976e-02 4.495266675949096680e-01 4.374483600258827209e-02
2.587431482970714569e-02 -4.554680585861206055e-01 -2.525569405406713486e-03
5.833999020978808403e-04 4.910358488559722900e-01 -1.447775512933731079e-01
3.360918536782264709e-02 1.942324638366699219e-01 7.853779941797256470e-02
3.281363844871520996e-02 -2.496776878833770752e-01 3.304302319884300232e-02
-3.716870397329330444e-02 -1.053146421909332275e-01 -1.781374216079711914e-02
2.988656796514987946e-02 -2.032332122325897217e-01 -8.044117689132690430e-02
1.109727751463651657e-02 4.717564284801483154e-01 -1.398769766092300415e-01
-2.204570174217224121e-02 2.706372737884521484e-01 1.244331598281860352e-01
3.367117419838905334e-02 -2.025902569293975830e-01 -2.510462142527103424e-02
-3.419069945812225342e-02 -6.716887652873992920e-02 -8.277361840009689331e-02
-2.070114389061927795e-02 1.579193621873855591e-01 -1.557438373565673828e-01
2.647376153618097305e-03 9.784519672393798828e-02 -1.885921061038970947e-01
2.980524674057960510e-02 1.859246343374252319e-01 1.125610023736953735e-01
2.299874462187290192e-02 -3.478104472160339355e-01 1.107954606413841248e-01
2.864557504653930664e-02 2.939947247505187988e-01 -1.006690114736557007e-01
3.297862410545349121e-02 -1.729707978665828705e-02 -7.750260829925537109e-02
2.557942643761634827e-03 3.821359276771545410e-01 1.602989584207534790e-01
-9.466343559324741364e-03 -2.286394536495208740e-01 1.731610149145126343e-01
1.300342194736003876e-02 -6.156652420759201050e-02 -1.733921170234680176e-01
-3.724974766373634338e-02 -5.189970135688781738e-02 2.294257981702685356e-03
1.573604531586170197e-02 5.930348038673400879e-01 8.945075422525405884e-02
2.483468316495418549e-02 -4.105635583400726318e-01 7.519117742776870728e-02
1.249902788549661636e-02 -1.459636986255645752e-01 1.750021874904632568e-01
2.929489687085151672e-02 5.057552456855773926e-01 -1.023375778459012508e-03
2.567328698933124542e-02 -4.574627280235290527e-01 -8.570955134928226471e-03
-3.270076215267181396e-02 -3.978611528873443604e-01 -4.521735943853855133e-03
3.167422488331794739e-02 4.224199950695037842e-01 -2.952586300671100616e-02
2.644424512982368469e-02 -3.948350548744201660e-01 6.476683169603347778e-02
-2.526059746742248535e-02 -1.171106323599815369e-01 1.333846598863601685e-01
1.629259437322616577e-02 -5.749383568763732910e-01 5.802330374717712402e-02
-3.722642734646797180e-02 -8.088298887014389038e-02 -1.811819709837436676e-02
2.268790639936923981e-02 -3.555116951465606689e-01 -9.843958169221878052e-02
-3.562622144818305969e-02 1.360734999179840088e-01 1.593105867505073547e-02
2.556834183633327484e-02 5.250500440597534180e-01 -5.942476168274879456e-02
2.800505049526691437e-02 -4.067363142967224121e-01 1.996809430420398712e-02
-1.542305201292037964e-02 -6.744892001152038574e-01 -3.702496178448200226e-03
3.582125529646873474e-02 1.839772313833236694e-01 4.590105637907981873e-02
2.774283289909362793e-02 -2.901137471199035645e-01 -7.829004526138305664e-02
-2.540130168199539185e-02 1.481283605098724365e-01 1.237960532307624817e-01
-2.109192498028278351e-02 5.513885989785194397e-03 1.516789644956588745e-01
3.257406875491142273e-02 -2.661027312278747559e-01 -1.072052400559186935e-02
-3.076792135834693909e-02 2.369747459888458252e-01 -8.494770526885986328e-02
2.883487753570079803e-02 -9.424176812171936035e-02 -1.060049086809158325e-01
-3.709656000137329102e-02 -6.008319556713104248e-03 -2.194005064666271210e-02
3.560821339488029480e-02 -7.448418438434600830e-02 4.220886901021003723e-02
-3.577881678938865662e-02 1.435630917549133301e-01 -1.827740855515003204e-02
9.350475156679749489e-04 -5.764166712760925293e-01 1.123879402875900269e-01
-2.392011135816574097e-02 5.074340701103210449e-01 -3.692702576518058777e-02
-2.337385341525077820e-02 4.873841702938079834e-01 -6.327728182077407837e-02
3.216930106282234192e-02 3.737403750419616699e-01 -4.652403295040130615e-02
2.579054236412048340e-02 5.742201805114746094e-01 8.956774137914180756e-03
3.247637674212455750e-02 -2.643784880638122559e-01 3.171915188431739807e-02
3.330048918724060059e-02 2.680034190416336060e-02 8.856874704360961914e-02
-2.319490164518356323e-02 -3.189078271389007568e-01 -1.315035670995712280e-01
-1.943098264746367931e-03 5.891611427068710327e-02 1.877652406692504883e-01
-1.905998960137367249e-02 4.682189226150512695e-01 9.139729291200637817e-02
2.372966147959232330e-02 5.808185935020446777e-01 -4.375840350985527039e-02
8.289473131299018860e-03 4.982360303401947021e-01 -1.384695917367935181e-01
2.868038788437843323e-02 -8.445319533348083496e-02 1.193633750081062317e-01
2.825291827321052551e-02 4.592068493366241455e-01 -6.232464313507080078e-02
3.580122813582420349e-02 8.033378422260284424e-02 -4.364543035626411438e-02
1.961318217217922211e-02 -5.090011954307556152e-01 -6.014948710799217224e-02
-3.159566223621368408e-02 3.301188945770263672e-01 5.613400600850582123e-03
-2.187247015535831451e-02 -3.343858420848846436e-01 1.286095231771469116e-01
7.641304284334182739e-03 -6.788753867149353027e-01 -3.757114987820386887e-03
5.521520972251892090e-03 2.259652018547058105e-01 -1.803999245166778564e-01
3.515716642141342163e-02 -1.355927884578704834e-01 3.084291331470012665e-02
-2.258358709514141083e-02 3.508499264717102051e-01 -1.196327432990074158e-01
-3.044941276311874390e-02 1.467872709035873413e-01 -1.045829057693481445e-01
2.160100638866424561e-02 -1.515477523207664490e-02 1.569899469614028931e-01
1.894680224359035492e-02 -5.488154888153076172e-01 5.148357152938842773e-02
1.647211611270904541e-02 6.385127305984497070e-01 -6.464924663305282593e-02
-3.610179573297500610e-02 7.497096806764602661e-02 -4.078206047415733337e-02
-2.800314500927925110e-02 -3.028632998466491699e-01 -1.092805191874504089e-01
1.163198467111214995e-04 4.386311471462249756e-01 -1.556618213653564453e-01
-1.462168153375387192e-02 2.975414395332336426e-01 -1.589598953723907471e-01
-2.374881133437156677e-02 5.208582878112792969e-01 -2.900043502449989319e-03
-2.855403721332550049e-02 1.716635674238204956e-01 -1.155250668525695801e-01
1.972433552145957947e-02 6.249835491180419922e-01 -5.096973478794097900e-02
-3.043707460165023804e-02 -4.191046059131622314e-01 -5.334229022264480591e-02
2.079977281391620636e-02 5.830574035644531250e-01 6.942255795001983643e-02
-9.570646099746227264e-03 -5.030356645584106445e-01 1.296015232801437378e-01
3.573574870824813843e-02 1.989269554615020752e-01 -3.413752466440200806e-02
-1.504263002425432205e-02 5.475459694862365723e-01 8.241513371467590332e-02
2.881092578172683716e-02 -3.853223621845245361e-01 -7.728133350610733032e-03
2.349762991070747375e-02 5.988370776176452637e-01 -2.923656441271305084e-02
-2.211418002843856812e-02 5.476388931274414062e-01 1.874028239399194717e-03
-3.666372597217559814e-02 6.568232085555791855e-03 2.270191535353660583e-02
-3.089745528995990753e-02 -3.057590685784816742e-02 9.991525858640670776e-02
-1.474989671260118484e-02 -5.984897613525390625e-01 -8.329717814922332764e-02
6.009798031300306320e-03 -6.002506613731384277e-01 9.477743506431579590e-02
-3.044134471565485001e-03 4.745603203773498535e-01 1.388878673315048218e-01
-2.612844854593276978e-02 2.378746271133422852e-01 -1.214240416884422302e-01
2.433824352920055389e-02 5.906510949134826660e-01 -2.307147905230522156e-02
-2.327960170805454254e-02 -1.583968698978424072e-01 1.405692547559738159e-01
2.855041809380054474e-02 -2.053227424621582031e-01 1.044853031635284424e-01
3.442262858152389526e-02 1.791788339614868164e-01 -5.988805741071701050e-02
2.927903644740581512e-02 -1.310625225305557251e-01 1.103739663958549500e-01
3.656392171978950500e-02 1.366916298866271973e-01 -2.231924235820770264e-02
-2.743901312351226807e-02 1.341225206851959229e-01 -1.268732696771621704e-01
2.201838791370391846e-02 8.115493506193161011e-02 -1.490542292594909668e-01
3.099372424185276031e-02 -2.455585598945617676e-01 7.046284526586532593e-02
-1.368254190310835838e-03 5.858377814292907715e-01 -1.171224638819694519e-01
-3.192366659641265869e-02 7.853011041879653931e-02 8.498664945363998413e-02
1.449659094214439392e-02 -6.227585673332214355e-01 2.008855901658535004e-02
-3.035668656229972839e-02 2.885912060737609863e-01 5.787653103470802307e-02
-3.281392902135848999e-02 -3.264854550361633301e-01 4.884149879217147827e-02
2.086758613586425781e-02 -5.354694724082946777e-01 -2.180009894073009491e-02
-1.065986976027488708e-02 6.005309522151947021e-02 1.780345141887664795e-01
-7.523661013692617416e-03 7.009750604629516602e-01 -1.074863015674054623e-03
-6.362170912325382233e-03 -4.814175069332122803e-01 1.389925479888916016e-01
-1.261257380247116089e-02 -4.975183308124542236e-01 1.251214891672134399e-01
3.667997568845748901e-02 7.382921874523162842e-02 3.467230498790740967e-02
-2.923730760812759399e-02 -4.873183667659759521e-01 -2.066176384687423706e-02
-1.316330302506685257e-02 5.691327899694442749e-02 -1.801646500825881958e-01
3.611869877204298973e-03 3.632591068744659424e-01 -1.672756373882293701e-01
-3.058789484202861786e-02 1.503186821937561035e-01 8.799615502357482910e-02
3.027836978435516357e-02 -3.303953409194946289e-01 3.965725749731063843e-02
-2.640225284267216921e-04 -4.860073924064636230e-01 1.399896293878555298e-01
2.738316915929317474e-02 -1.143429875373840332e-01 1.247891336679458618e-01
1.929131709039211273e-02 3.812841176986694336e-01 1.366842389106750488e-01
2.538220770657062531e-02 -4.503355026245117188e-01 -2.723395265638828278e-02
-3.396035730838775635e-02 2.126687765121459961e-01 2.691197767853736877e-02
5.325053818523883820e-03 -1.484647989273071289e-01 1.838357001543045044e-01
-2.717747911810874939e-02 -4.963310062885284424e-01 4.720016196370124817e-02
1.248036697506904602e-02 -6.428512334823608398e-01 1.610164716839790344e-02
3.666445380076766014e-03 2.918214201927185059e-01 -1.759019941091537476e-01
2.366561070084571838e-02 1.154069080948829651e-01 -1.416607350111007690e-01
-5.131457466632127762e-03 -1.070060506463050842e-01 1.849897354841232300e-01
-2.606457658112049103e-02 3.408689498901367188e-01 -9.969681501388549805e-02
-3.214783221483230591e-02 -3.811755776405334473e-01 -4.541097581386566162e-02
2.957300655543804169e-02 -2.035236507654190063e-01 9.639743715524673462e-02
-2.772203460335731506e-02 4.393251538276672363e-01 -4.260177374817430973e-04
-3.036821633577346802e-02 3.686448633670806885e-01 -2.211370877921581268e-02
3.167298808693885803e-02 3.753624558448791504e-01 6.026313826441764832e-02
2.454409562051296234e-02 4.241176247596740723e-01 1.055956110358238220e-01
2.319388091564178467e-02 2.468581646680831909e-01 -1.363371610641479492e-01
2.098601870238780975e-02 -2.792762815952301025e-01 -1.248442009091377258e-01
1.749086380004882812e-02 -4.940927326679229736e-01 9.494188427925109863e-02
-2.469129860401153564e-02 -2.176312059164047241e-01 1.300330609083175659e-01
-1.872507855296134949e-02 -6.159196496009826660e-01 -5.257563292980194092e-02
-3.147226199507713318e-02 -5.564381927251815796e-02 9.557282179594039917e-02
1.820868579670786858e-03 -4.452633857727050781e-02 1.890030950307846069e-01
3.358280286192893982e-02 2.011965960264205933e-02 8.531924337148666382e-02
1.955547556281089783e-02 -1.740166544914245605e-01 1.546369791030883789e-01
2.567348070442676544e-02 1.656174957752227783e-01 -1.303361505270004272e-01
-1.080454792827367783e-02 6.344686746597290039e-01 -7.087623327970504761e-02
-2.279945276677608490e-02 5.335643291473388672e-01 9.704551659524440765e-03
3.488383442163467407e-02 -1.640134453773498535e-01 -6.167452782392501831e-03
-1.964890770614147186e-02 3.378083109855651855e-01 -1.361989974975585938e-01
3.676127642393112183e-02 3.761082887649536133e-03 2.287713997066020966e-02
2.499247342348098755e-02 5.136942863464355469e-01 7.280460745096206665e-02
-2.069752290844917297e-02 3.995173573493957520e-01 1.035490408539772034e-01
5.556363612413406372e-03 -2.495874166488647461e-01 -1.714556068181991577e-01
-2.597060613334178925e-02 -5.397596955299377441e-01 3.127578645944595337e-02
-2.935972996056079865e-02 -2.471178770065307617e-01 -1.092034280300140381e-01
-2.630270831286907196e-02 4.712562859058380127e-01 -1.472171489149332047e-02
-1.039903704077005386e-02 5.894434452056884766e-01 8.507993072271347046e-02
2.115089632570743561e-02 5.226148366928100586e-01 -9.282127767801284790e-02
3.142839670181274414e-02 4.324252307415008545e-01 -2.780214510858058929e-02
-3.125182539224624634e-02 -1.168993636965751648e-01 -1.081523895263671875e-01
1.394935511052608490e-02 4.502265155315399170e-01 -1.381806284189224243e-01
-2.177277021110057831e-02 5.456428527832031250e-01 1.835199818015098572e-02
-1.796320080757141113e-02 -7.185132801532745361e-02 -1.696245372295379639e-01
-2.039301395416259766e-02 3.749461472034454346e-01 -1.251738816499710083e-01
-2.346435002982616425e-02 2.251281291246414185e-01 -1.374755799770355225e-01
-1.594766043126583099e-02 6.310364007949829102e-01 -1.741700340062379837e-03
7.060090545564889908e-03 1.165838092565536499e-01 -1.844350099563598633e-01
3.306210786104202271e-02 -5.115234106779098511e-02 -7.332833111286163330e-02
2.682746015489101410e-02 2.709736824035644531e-01 -1.154279783368110657e-01
-2.025749906897544861e-02 -2.412668168544769287e-01 -1.523209512233734131e-01
-3.015734441578388214e-02 -4.496181905269622803e-01 3.088388405740261078e-02
2.533464506268501282e-02 -2.891457378864288330e-01 1.102826818823814392e-01
3.086071275174617767e-02 -1.501351445913314819e-01 9.460432827472686768e-02
1.922289095818996429e-02 -1.276323646306991577e-01 -1.515313088893890381e-01
-3.367134556174278259e-02 -3.099064826965332031e-01 -5.109042301774024963e-02
2.569128945469856262e-02 1.594866067171096802e-01 -1.305405348539352417e-01
-1.892583072185516357e-02 -6.396908164024353027e-01 2.317773923277854919e-02
-3.262047097086906433e-02 2.360800206661224365e-01 -6.099726259708404541e-02
1.537905191071331501e-03 6.097221374511718750e-01 -1.096666753292083740e-01
-1.095332112163305283e-02 -1.921511627733707428e-02 -1.840843856334686279e-01
2.839440107345581055e-02 1.501382607966661453e-02 1.263224035501480103e-01
2.858652547001838684e-02 4.728263616561889648e-01 -5.205431953072547913e-02
-1.140083186328411102e-02 6.372978091239929199e-01 -6.535637378692626953e-02
3.613816946744918823e-02 2.084154784679412842e-01 3.081294335424900055e-02
3.705548867583274841e-02 7.651776075363159180e-02 1.556754950433969498e-02
-2.666622214019298553e-02 -3.059802949428558350e-01 1.088616102933883667e-01
-3.533356636762619019e-02 -2.638103663921356201e-01 2.073102816939353943e-02
-1.679261960089206696e-02 5.771886706352233887e-01 -6.944879889488220215e-02
2.339166775345802307e-02 6.023697853088378906e-01 2.745434083044528961e-02
2.772915735840797424e-02 -3.365559875965118408e-01 7.642249017953872681e-02
-1.837242394685745239e-02 -3.775682151317596436e-01 -1.384473443031311035e-01
-3.716333303600549698e-03 6.731474995613098145e-01 6.145416200160980225e-02
-1.887890510261058807e-02 -6.140521168708801270e-01 5.179040879011154175e-02
1.622311538085341454e-05 -7.191459089517593384e-02 1.884472668170928955e-01
3.014520928263664246e-02 2.562856078147888184e-01 -9.462104737758636475e-02
2.999381162226200104e-03 -3.997372686862945557e-01 -1.516938358545303345e-01
3.561024740338325500e-02 2.518165707588195801e-01 3.130010515451431274e-02
1.873930916190147400e-02 -4.196757376194000244e-01 1.141599938273429871e-01
-2.012800984084606171e-02 -3.143679201602935791e-01 1.383243054151535034e-01
-8.633340708911418915e-03 4.548520743846893311e-01 1.341093629598617554e-01
-6.425313185900449753e-03 6.852357983589172363e-01 -5.222817882895469666e-02
-7.705802272539585829e-05 -1.496761590242385864e-01 1.854130774736404419e-01
-2.357974089682102203e-02 5.032165646553039551e-01 3.178248181939125061e-02
3.281820332631468773e-03 -4.366829395294189453e-01 -1.437330543994903564e-01
-3.426885604858398438e-02 1.447522938251495361e-01 4.554910212755203247e-02
2.974032983183860779e-02 3.427751064300537109e-01 -8.334197849035263062e-02
1.985562033951282501e-02 -3.708200901746749878e-02 1.622236520051956177e-01
-3.307991102337837219e-02 -2.306350916624069214e-01 6.841782480478286743e-02
-3.098378889262676239e-02 -4.409783482551574707e-01 1.732191257178783417e-02
1.971841603517532349e-02 4.373808801174163818e-01 -1.225423738360404968e-01
-2.006019838154315948e-02 5.790556073188781738e-01 5.219796439632773399e-04
7.643625140190124512e-03 -5.677216649055480957e-01 -9.601350128650665283e-02
3.183734416961669922e-02 -1.946587115526199341e-01 7.486961781978607178e-02
-2.633079513907432556e-02 -4.877951443195343018e-01 -6.697345525026321411e-02
1.707505807280540466e-02 3.338773250579833984e-01 1.505307257175445557e-01
-2.476348355412483215e-02 -6.351922452449798584e-02 1.368601769208908081e-01
-2.761747746262699366e-04 -3.675336837768554688e-01 -1.600109189748764038e-01
2.848545834422111511e-02 -6.680109351873397827e-02 1.219958215951919556e-01
-2.314197272062301636e-02 -4.756640642881393433e-02 1.441333591938018799e-01
-1.182034891098737717e-02 6.030274033546447754e-01 7.183168083429336548e-02
3.113200888037681580e-02 2.456913292407989502e-01 9.599679708480834961e-02
3.172573447227478027e-02 4.166536927223205566e-01 3.883666172623634338e-02
-8.839910849928855896e-03 6.494494080543518066e-01 -7.035879045724868774e-02
3.192401304841041565e-02 2.137053757905960083e-02 -9.007427841424942017e-02
3.286927565932273865e-02 -2.587668597698211670e-01 1.947650499641895294e-02
3.010077774524688721e-02 4.570510983467102051e-01 4.343361780047416687e-02
-1.492397766560316086e-02 6.157124042510986328e-01 -5.608608573675155640e-02
-3.141745552420616150e-02 -4.000465273857116699e-01 3.941297158598899841e-02
3.566727787256240845e-02 1.592064648866653442e-01 5.295827612280845642e-02
3.083898127079010010e-02 3.232194185256958008e-01 -7.741322368383407593e-02
