6.346243023872375488e-01 -2.869146876037120819e-02 -2.064483761787414551e-01
1.810929775238037109e-01 -7.546161860227584839e-02 1.622076779603958130e-01
-1.730066165328025818e-02 1.741130463778972626e-02 3.058354854583740234e-01
4.262037873268127441e-01 7.478105276823043823e-02 -5.145691335201263428e-02
-2.118699997663497925e-02 -8.321320265531539917e-02 1.135137528181076050e-01
7.841674983501434326e-02 -5.464059114456176758e-02 -2.433309555053710938e-01
-7.646926045417785645e-01 -2.435066737234592438e-02 1.676393896341323853e-01
-6.709945797920227051e-01 3.097489848732948303e-02 1.978179961442947388e-01
-9.680131673812866211e-01 -1.097257342189550400e-02 4.377949237823486328e-02
-5.425709486007690430e-01 7.413001358509063721e-02 2.735896967351436615e-02
-5.245391726493835449e-01 6.462166458368301392e-02 1.358756870031356812e-01
8.932811617851257324e-01 -4.083004221320152283e-02 2.042547333985567093e-03
-4.165510833263397217e-01 -4.054155573248863220e-02 2.373659759759902954e-01
-3.441035151481628418e-01 8.137626200914382935e-02 -4.963409155607223511e-02
1.337243020534515381e-01 -8.911333978176116943e-02 -1.334464456886053085e-02
3.156890571117401123e-01 7.884868979454040527e-02 8.514010906219482422e-02
2.036120370030403137e-02 -3.440693486481904984e-03 -3.041907846927642822e-01
-4.783281385898590088e-01 7.448519766330718994e-02 7.911254465579986572e-02
8.303108811378479004e-01 -4.683937132358551025e-02 -5.568072572350502014e-02
4.832067787647247314e-01 6.755977123975753784e-02 -9.430069476366043091e-02
4.319360852241516113e-01 6.929296255111694336e-02 -1.031992733478546143e-01
1.397046893835067749e-01 -7.779998332262039185e-02 1.513135880231857300e-01
9.457013010978698730e-02 8.566531538963317871e-02 -2.977990172803401947e-02
5.108811259269714355e-01 -5.949422344565391541e-02 1.810989826917648315e-01
-2.637194693088531494e-01 -8.579442650079727173e-02 -1.123918965458869934e-02
-6.646157801151275635e-02 -7.896217703819274902e-02 -1.464491933584213257e-01
-6.617558002471923828e-01 -5.740296468138694763e-02 1.006137803196907043e-01
-1.763528287410736084e-01 -8.528240025043487549e-02 6.877639889717102051e-02
2.908349931240081787e-01 7.439187169075012207e-02 -1.115180328488349915e-01
5.576235055923461914e-01 6.722832471132278442e-02 -5.126417800784111023e-02
5.474331974983215332e-01 6.556232273578643799e-02 -7.639552652835845947e-02
1.255743652582168579e-01 -8.887830376625061035e-02 -2.886082418262958527e-02
3.952563405036926270e-01 5.798515677452087402e-02 -1.744087487459182739e-01
-6.298378109931945801e-01 -4.464702308177947998e-02 1.713694632053375244e-01
-3.938484191894531250e-01 -8.137989789247512817e-02 -4.067036323249340057e-03
5.844550132751464844e-01 -6.814976036548614502e-02 1.066870167851448059e-01
-3.053947538137435913e-02 -6.789703667163848877e-02 -2.028032243251800537e-01
5.572645068168640137e-01 -5.878402292728424072e-02 1.708227097988128662e-01
-2.164575755596160889e-01 -2.638156153261661530e-02 2.864323854446411133e-01
-6.101905703544616699e-01 6.956515461206436157e-02 -3.960379213094711304e-02
4.063153266906738281e-01 9.230136871337890625e-03 2.875836789608001709e-01
7.345288991928100586e-01 -4.995218664407730103e-02 1.365430951118469238e-01
2.733890414237976074e-01 5.880411341786384583e-02 2.172677367925643921e-01
7.468777298927307129e-01 4.459913447499275208e-02 1.271374970674514771e-01
-8.243366479873657227e-01 3.623811900615692139e-02 -1.278173774480819702e-01
-3.381059467792510986e-01 7.505634427070617676e-02 1.268428564071655273e-01
7.119744271039962769e-02 -6.309089809656143188e-02 -2.187541723251342773e-01
8.403065800666809082e-02 8.426439017057418823e-02 7.933440804481506348e-02
-2.720960974693298340e-01 -7.198992371559143066e-02 1.563822329044342041e-01
-2.727208435535430908e-01 1.547345053404569626e-02 2.921866476535797119e-01
6.250749826431274414e-01 -5.381171777844429016e-02 -1.493285298347473145e-01
2.769129276275634766e-01 4.878842830657958984e-02 -2.256352752447128296e-01
-3.616122007369995117e-01 -6.565359979867935181e-02 1.694163084030151367e-01
2.462253719568252563e-02 -7.696906477212905884e-02 -1.598461419343948364e-01
-2.679939568042755127e-01 8.381159603595733643e-02 4.877278953790664673e-02
4.312344789505004883e-01 7.312846183776855469e-02 -6.904542446136474609e-02
2.570301890373229980e-01 -7.111781090497970581e-02 1.774011850357055664e-01
5.604046583175659180e-02 -4.167938232421875000e-02 -2.717004120349884033e-01
-3.202717304229736328e-01 1.201131846755743027e-03 2.912683188915252686e-01
-2.722415328025817871e-01 -2.546184509992599487e-02 -2.853562235832214355e-01
3.662229776382446289e-01 2.544311247766017914e-02 2.793996930122375488e-01
-7.229316234588623047e-01 -1.627887971699237823e-02 -2.110267579555511475e-01
6.666290760040283203e-02 8.405414223670959473e-02 8.471544831991195679e-02
4.967926070094108582e-02 -8.123482018709182739e-02 1.310627609491348267e-01
6.589394807815551758e-01 5.502437055110931396e-02 1.215842515230178833e-01
-4.512991607189178467e-01 -5.205211415886878967e-02 -2.123393565416336060e-01
-7.025211453437805176e-01 9.795118123292922974e-03 2.103776782751083374e-01
-2.487060986459255219e-02 -8.777587115764617920e-02 6.017845124006271362e-02
-4.351126253604888916e-01 6.451003998517990112e-02 1.639983355998992920e-01
-3.369671404361724854e-01 8.283449709415435791e-02 -1.463985536247491837e-02
4.348941147327423096e-01 3.763674199581146240e-02 2.502461969852447510e-01
-1.310199648141860962e-01 2.466946281492710114e-02 2.957776784896850586e-01
-8.372160792350769043e-01 -1.616967469453811646e-02 1.457306146621704102e-01
-1.621239259839057922e-02 7.421985268592834473e-02 -1.527287065982818604e-01
-2.282069325447082520e-01 -8.612393587827682495e-02 -3.981808573007583618e-02
9.538327455520629883e-01 -2.269124798476696014e-02 -2.375975623726844788e-02
-4.326467867940664291e-03 1.597262546420097351e-02 -2.976687252521514893e-01
-9.608082771301269531e-01 -2.102658711373806000e-02 -4.626447334885597229e-03
-6.223905682563781738e-01 2.024049498140811920e-02 -2.348316162824630737e-01
-4.416739046573638916e-01 3.006348153576254845e-03 -2.787910103797912598e-01
2.004721909761428833e-01 8.420102298259735107e-02 4.164126515388488770e-02
1.420297324657440186e-01 -8.551830798387527466e-02 -8.585543185472488403e-02
2.008647918701171875e-01 -3.323239088058471680e-02 -2.762750685214996338e-01
5.121240615844726562e-01 5.905964970588684082e-02 -1.355974525213241577e-01
-6.755737066268920898e-01 -4.460647702217102051e-02 -1.709430962800979614e-01
2.327931523323059082e-01 4.702502861618995667e-02 -2.357609719038009644e-01
1.962868273258209229e-01 -5.720852687954902649e-02 -2.288237363100051880e-01
6.285697221755981445e-01 3.838582336902618408e-02 2.025869488716125488e-01
5.620166063308715820e-01 3.957582265138626099e-02 -1.903463751077651978e-01
8.127917051315307617e-01 1.627577655017375946e-02 -1.425178050994873047e-01
3.465311229228973389e-01 2.557015977799892426e-02 -2.609724104404449463e-01
2.518294155597686768e-01 2.942956425249576569e-02 2.859379947185516357e-01
-1.024703085422515869e-01 6.156731024384498596e-02 2.217097133398056030e-01
-5.351273417472839355e-01 7.151034660637378693e-03 2.555124163627624512e-01
7.531967759132385254e-02 8.409082144498825073e-02 -6.336154043674468994e-02
6.061608791351318359e-01 6.387041509151458740e-02 -4.946158081293106079e-02
1.276052892208099365e-01 6.486434489488601685e-02 2.083353996276855469e-01
-6.960744261741638184e-01 6.364603340625762939e-02 -2.656282484531402588e-02
1.673390120267868042e-01 -8.386988192796707153e-02 -9.975045174360275269e-02
-8.864937424659729004e-01 -1.718327403068542480e-02 1.137362793087959290e-01
3.325627148151397705e-01 2.276733517646789551e-02 2.862651646137237549e-01
-7.392249256372451782e-02 -5.741674453020095825e-02 -2.372099310159683228e-01
5.672203302383422852e-01 -3.627257421612739563e-02 -2.132282555103302002e-01
8.298825025558471680e-01 3.035994246602058411e-02 -9.758458286523818970e-02
2.664411067962646484e-01 1.508385408669710159e-02 -2.818183302879333496e-01
-1.818106174468994141e-01 6.711520999670028687e-02 -1.846369653940200806e-01
4.199461042881011963e-01 7.441990822553634644e-02 8.891645818948745728e-02
-4.375507682561874390e-02 -8.869528770446777344e-02 3.873951360583305359e-02
-6.247491836547851562e-01 6.847815215587615967e-02 3.935053944587707520e-02
-7.707952260971069336e-01 5.247996374964714050e-02 7.206633687019348145e-02
-6.823363155126571655e-02 5.214593559503555298e-02 -2.394672036170959473e-01
3.069196939468383789e-01 -8.316912502050399780e-02 7.966072112321853638e-02
-4.491741955280303955e-01 -6.980156898498535156e-02 1.215351670980453491e-01
7.182416319847106934e-01 -9.511856362223625183e-03 -1.957067698240280151e-01
4.772996008396148682e-01 7.071217149496078491e-02 9.847819805145263672e-02
-1.929741203784942627e-01 4.215325415134429932e-02 2.666303515434265137e-01
-1.259567141532897949e-01 3.599236160516738892e-02 -2.734743654727935791e-01
-9.426306188106536865e-02 -3.948590159416198730e-02 2.761020660400390625e-01
7.126132398843765259e-02 -2.522936090826988220e-02 -2.926646173000335693e-01
-5.860843062400817871e-01 7.085260748863220215e-02 -4.489929601550102234e-02
-2.548567950725555420e-01 6.282237917184829712e-02 2.042504698038101196e-01
7.882465124130249023e-01 4.335354641079902649e-02 1.024486720561981201e-01
5.536863207817077637e-01 5.582412332296371460e-02 -1.359284371137619019e-01
-3.645779192447662354e-01 -5.638695508241653442e-02 -2.147536128759384155e-01
2.159862518310546875e-01 -7.288029044866561890e-02 1.729725152254104614e-01
-7.323893718421459198e-03 6.610926240682601929e-02 -1.920559555292129517e-01
-5.970433950424194336e-01 3.774468228220939636e-02 2.073122859001159668e-01
8.157432675361633301e-01 -5.290878191590309143e-02 -1.598144648596644402e-03
2.173469960689544678e-01 -7.351582497358322144e-02 -1.644963473081588745e-01
-1.845511943101882935e-01 8.602423965930938721e-02 -1.387150678783655167e-02
-4.053723216056823730e-01 -6.366441398859024048e-02 -1.798655837774276733e-01
-2.852907776832580566e-01 -6.995522975921630859e-02 1.645549237728118896e-01
-4.844891130924224854e-01 -6.390019506216049194e-02 -1.579632461071014404e-01
-8.392671346664428711e-01 4.200936108827590942e-02 -9.048449993133544922e-02
7.270058393478393555e-01 -4.208204522728919983e-02 1.694374084472656250e-01
-7.232678532600402832e-01 -5.736075714230537415e-02 5.034273490309715271e-02
-3.841413855552673340e-01 8.127282559871673584e-02 -1.892487332224845886e-02
-9.885320663452148438e-01 9.481878019869327545e-03 6.989498622715473175e-03
2.467321753501892090e-01 -6.416832655668258667e-02 -2.011528760194778442e-01
3.817293643951416016e-01 -7.122729718685150146e-02 1.564334779977798462e-01
-2.367807552218437195e-02 -4.288933426141738892e-02 -2.708807885646820068e-01
-1.939037293195724487e-01 -7.920843362808227539e-02 -1.326191127300262451e-01
5.815225243568420410e-01 5.836531147360801697e-02 -1.103936359286308289e-01
1.260455697774887085e-01 6.377823650836944580e-02 -1.939027458429336548e-01
1.954254508018493652e-01 7.896700501441955566e-02 -9.704982489347457886e-02
-9.355483949184417725e-02 -6.641285121440887451e-02 2.039008736610412598e-01
7.898876070976257324e-02 2.558929147198796272e-03 3.118568062782287598e-01
-7.062259316444396973e-01 4.978659749031066895e-02 1.309737116098403931e-01
4.338004887104034424e-01 -8.179420232772827148e-02 8.036210201680660248e-03
6.213664412498474121e-01 6.458736211061477661e-02 5.211471766233444214e-02
1.309686005115509033e-01 -8.677417039871215820e-02 -7.129390537738800049e-02
-7.308191657066345215e-01 -2.947782352566719055e-02 -1.891547590494155884e-01
-1.886076927185058594e-01 8.488621562719345093e-02 -4.557002708315849304e-02
6.043088436126708984e-01 -6.190934777259826660e-02 1.387934535741806030e-01
-2.681004405021667480e-01 -5.038585048168897629e-03 2.962503135204315186e-01
4.906535744667053223e-01 -7.902687788009643555e-02 -1.394593808799982071e-02
-4.574636518955230713e-01 -6.108595058321952820e-02 -1.786188334226608276e-01
-3.258210420608520508e-01 -8.093217760324478149e-02 7.150751352310180664e-02
3.964909911155700684e-01 2.418060973286628723e-02 -2.550698518753051758e-01
-1.611713320016860962e-01 7.662551105022430420e-02 -1.346495002508163452e-01
5.821042880415916443e-02 8.595011383295059204e-02 5.214436724781990051e-02
-9.180529117584228516e-01 -3.249352797865867615e-02 -1.499930862337350845e-02
-2.426753193140029907e-01 8.505922555923461914e-02 -1.535236928611993790e-02
-5.653605982661247253e-02 8.463373035192489624e-02 8.151708543300628662e-02
-8.834135532379150391e-01 2.786376141011714935e-02 9.983213245868682861e-02
3.494403064250946045e-01 2.219078503549098969e-02 2.849948704242706299e-01
-5.674267411231994629e-01 4.399782419204711914e-02 2.010699510574340820e-01
4.108510613441467285e-01 -7.892940938472747803e-02 8.987826853990554810e-02
4.648490846157073975e-01 -2.115029608830809593e-03 -2.609176635742187500e-01
-3.151845932006835938e-01 -5.302181094884872437e-02 2.238547503948211670e-01
-2.989034354686737061e-01 -7.807205617427825928e-02 -1.202982366085052490e-01
2.454719971865415573e-03 5.177045613527297974e-02 2.534666657447814941e-01
-2.363741099834442139e-01 -7.174688577651977539e-02 1.640171259641647339e-01
-8.439623117446899414e-01 -3.941550850868225098e-02 -9.170715510845184326e-02
-3.498420715332031250e-01 8.093656599521636963e-02 6.148959323763847351e-02
-1.993837505578994751e-01 5.420439876616001129e-03 -3.002556860446929932e-01
-5.630764961242675781e-01 6.323496252298355103e-02 -1.300131827592849731e-01
-5.929259657859802246e-01 -2.419589459896087646e-02 2.261195927858352661e-01
-2.104435712099075317e-01 7.413960993289947510e-02 1.565276533365249634e-01
-6.306657791137695312e-01 -6.731224060058593750e-02 -3.953460603952407837e-02
4.344082176685333252e-01 9.690151549875736237e-03 2.835175395011901855e-01
-6.047492027282714844e-01 -2.883617207407951355e-02 -2.293718308210372925e-01
1.290830373764038086e-01 8.349517732858657837e-02 -6.117246299982070923e-02
5.808987617492675781e-01 -5.594379827380180359e-02 1.750354915857315063e-01
-8.357363939285278320e-02 8.606121689081192017e-02 -3.954964131116867065e-02
1.852518320083618164e-01 8.494933694601058960e-02 9.718012996017932892e-03
5.674494504928588867e-01 5.314394831657409668e-02 -1.429184228181838989e-01
2.976775467395782471e-01 -8.224825561046600342e-02 -8.706075698137283325e-02
6.045871973037719727e-01 -7.232183963060379028e-02 3.361263871192932129e-02
-6.367082595825195312e-01 5.148341134190559387e-02 -1.597896963357925415e-01
4.434165358543395996e-01 -8.024974912405014038e-02 5.209008976817131042e-02
2.830075323581695557e-01 7.816698402166366577e-02 1.055529788136482239e-01
4.333649277687072754e-01 4.463142529129981995e-02 2.347885817289352417e-01
7.586454749107360840e-01 -5.954698845744132996e-02 -5.120406858623027802e-03
-6.905990839004516602e-01 -6.241808086633682251e-02 1.816318742930889130e-02
-4.632133841514587402e-01 -6.500188261270523071e-02 -1.587352752685546875e-01
-5.028264522552490234e-01 -2.866229042410850525e-02 2.412907332181930542e-01
-8.731341958045959473e-01 -2.717523090541362762e-02 9.866162389516830444e-02
-1.007184088230133057e-01 3.525131568312644958e-02 -2.751714885234832764e-01
9.550569206476211548e-02 3.924778848886489868e-02 -2.641735076904296875e-01
-5.314687490463256836e-01 7.351237535476684570e-02 -5.361617729067802429e-02
4.073078036308288574e-01 -7.672763615846633911e-02 -1.021694317460060120e-01
-1.062961667776107788e-01 5.089531466364860535e-02 -2.423863112926483154e-01
-4.982938244938850403e-02 -8.905295282602310181e-02 -3.096051700413227081e-02
-2.512409389019012451e-01 2.401028014719486237e-02 2.875401079654693604e-01
-4.631245136260986328e-01 7.606004178524017334e-02 6.848748028278350830e-02
6.392264366149902344e-01 5.690040066838264465e-02 -8.803594857454299927e-02
4.565850198268890381e-01 6.247651949524879456e-02 -1.370458900928497314e-01
-5.677222013473510742e-01 5.755949392914772034e-02 1.556043326854705811e-01
-3.528723418712615967e-01 7.885961234569549561e-02 8.832130581140518188e-02
5.857931971549987793e-01 -7.339199632406234741e-02 -2.252728864550590515e-02
9.239408969879150391e-01 2.643776684999465942e-02 1.382937002927064896e-02
3.138594329357147217e-01 -8.399733155965805054e-02 -5.848865211009979248e-02
-8.506793975830078125e-01 -1.224674656987190247e-02 -1.619678735733032227e-01
-5.059185624122619629e-01 -1.393185369670391083e-02 -2.655091285705566406e-01
-8.597576022148132324e-01 1.780148968100547791e-02 -1.515196263790130615e-01
-9.211798906326293945e-01 -2.507628314197063446e-02 5.893089622259140015e-02
-4.051132202148437500e-01 2.959864446893334389e-03 -2.835829257965087891e-01
-3.915296792984008789e-01 5.331551656126976013e-02 2.152472287416458130e-01
-2.266597151756286621e-01 -7.964814454317092896e-02 1.151561215519905090e-01
-3.946169614791870117e-01 -5.596577376127243042e-02 -2.109911441802978516e-01
7.805596590042114258e-01 3.337326645851135254e-02 1.532572209835052490e-01
-1.141779646277427673e-01 -6.905163824558258057e-02 -1.954973489046096802e-01
3.253360092639923096e-01 -4.733898863196372986e-02 2.499761730432510376e-01
-1.684309393167495728e-01 -8.670130372047424316e-02 -5.530012398958206177e-02
-7.690358161926269531e-01 -3.661203430965542793e-03 -2.025910764932632446e-01
5.853608846664428711e-01 6.338230520486831665e-02 -7.142410427331924438e-02
-2.120365500450134277e-01 -3.889155760407447815e-02 -2.719042599201202393e-01
-7.526111006736755371e-01 5.657817795872688293e-02 5.187947303056716919e-02
1.972369551658630371e-01 5.869459360837936401e-02 -2.054962217807769775e-01
-4.044126570224761963e-01 -7.230074703693389893e-02 -1.332244426012039185e-01
-6.075153946876525879e-01 4.735899716615676880e-02 -1.840637922286987305e-01
2.435203790664672852e-01 -7.480861246585845947e-02 -1.539130359888076782e-01
-5.409110803157091141e-03 2.276510372757911682e-02 3.016818463802337646e-01
-2.439538948237895966e-02 -7.936973124742507935e-02 1.424913555383682251e-01
-5.682469606399536133e-01 7.035011798143386841e-02 6.843953579664230347e-02
-2.488536387681961060e-01 -8.619634062051773071e-02 -9.350364096462726593e-03
5.589264035224914551e-01 -6.952671706676483154e-02 -9.347663819789886475e-02
9.150041341781616211e-01 9.373691864311695099e-03 -8.596792817115783691e-02
-3.303553164005279541e-02 8.080397546291351318e-02 1.232310086488723755e-01
1.577295958995819092e-01 -4.708701744675636292e-02 -2.564597427845001221e-01
-1.168014854192733765e-01 4.559371620416641235e-02 2.645736336708068848e-01
5.671367645263671875e-01 -5.736685357987880707e-03 2.629622817039489746e-01
-1.763740479946136475e-01 8.259128034114837646e-02 -8.178161829710006714e-02
1.834239959716796875e-01 7.454690337181091309e-02 1.547653228044509888e-01
-5.596944689750671387e-01 2.681460790336132050e-02 -2.406799048185348511e-01
-8.857426643371582031e-01 -3.882459551095962524e-02 -1.625574566423892975e-02
2.521773874759674072e-01 -7.878031581640243530e-02 -1.275450736284255981e-01
2.200346887111663818e-01 4.725554212927818298e-02 2.561717629432678223e-01
-5.518294870853424072e-03 8.309621363878250122e-02 -8.372944593429565430e-02
5.120647326111793518e-02 6.260440498590469360e-02 -2.036105543375015259e-01
-1.283225044608116150e-02 4.225117713212966919e-02 2.744649350643157959e-01
3.586382865905761719e-01 -7.490669190883636475e-02 -1.302719563245773315e-01
2.166159600019454956e-01 -8.482309430837631226e-02 8.359630405902862549e-02
-9.670270979404449463e-02 -7.450345158576965332e-02 1.666696071624755859e-01
-8.237312436103820801e-01 -4.824322089552879333e-02 3.167293034493923187e-03
-5.882034897804260254e-01 7.179780304431915283e-02 -1.116885617375373840e-02
-6.671275198459625244e-02 8.097342401742935181e-02 -1.055882200598716736e-01
-8.029845952987670898e-01 5.298644676804542542e-02 1.583744585514068604e-02
4.505002498626708984e-01 -5.363311246037483215e-02 -2.008347064256668091e-01
-5.991119742393493652e-01 7.057012617588043213e-02 3.142172470688819885e-02
-3.417555391788482666e-01 7.190151512622833252e-02 1.469397842884063721e-01
-1.860443651676177979e-01 -6.676955521106719971e-02 1.940071731805801392e-01
5.432095006108283997e-02 6.968715786933898926e-02 1.909132897853851318e-01
-1.386017352342605591e-01 6.897554546594619751e-02 -1.784949898719787598e-01
-1.675752550363540649e-01 -8.460181951522827148e-02 -8.745000511407852173e-02
2.615496702492237091e-02 -5.851864814758300781e-02 -2.342567443847656250e-01
-8.068573474884033203e-01 -5.060473084449768066e-02 -6.887855008244514465e-03
-2.495010048151016235e-01 -1.426412351429462433e-02 -2.954827845096588135e-01
-4.673635214567184448e-02 -3.483526781201362610e-02 -2.836425900459289551e-01
8.447944521903991699e-01 -4.383502528071403503e-02 8.706622570753097534e-02
-7.252026200294494629e-01 -3.015094622969627380e-02 1.728448718786239624e-01
1.906697601079940796e-01 7.314848154783248901e-02 1.624468117952346802e-01
-4.956650435924530029e-01 6.752704828977584839e-02 -1.278562396764755249e-01
-7.087544798851013184e-01 5.454411730170249939e-02 1.054201126098632812e-01
7.325851321220397949e-01 4.785013571381568909e-02 -8.409113436937332153e-02
-4.001098871231079102e-01 -6.600333750247955322e-02 -1.703196018934249878e-01
1.655777692794799805e-01 8.521269261837005615e-02 -4.811763763427734375e-03
4.650948345661163330e-01 -7.575687766075134277e-02 -8.676268160343170166e-02
1.126100346446037292e-01 3.578089550137519836e-02 2.844518125057220459e-01
-4.312026128172874451e-02 -1.892222277820110321e-02 3.036983013153076172e-01
-5.250029563903808594e-01 2.789219655096530914e-02 -2.460214793682098389e-01
4.504642784595489502e-01 6.754960119724273682e-02 1.371346116065979004e-01
-1.811538189649581909e-01 2.527983672916889191e-02 2.920570969581604004e-01
7.074517011642456055e-01 -3.451470658183097839e-02 1.962587982416152954e-01
-4.288913607597351074e-01 7.095970958471298218e-02 -1.260253489017486572e-01
-1.281090825796127319e-01 2.680567093193531036e-02 -2.866743206977844238e-01
-3.222005665302276611e-01 5.057518929243087769e-02 2.339335829019546509e-01
-3.025639355182647705e-01 8.358519524335861206e-02 3.110497258603572845e-02
-2.958514690399169922e-01 -4.523435235023498535e-02 -2.528935670852661133e-01
8.963736891746520996e-01 -2.531634457409381866e-02 -8.778355270624160767e-02
-5.341270565986633301e-01 6.334671378135681152e-02 1.394393444061279297e-01
1.742453128099441528e-01 4.404219239950180054e-02 -2.487150281667709351e-01
6.782359480857849121e-01 3.286095708608627319e-02 -1.684515178203582764e-01
4.226582050323486328e-01 -4.312915727496147156e-02 2.465299218893051147e-01
-1.253351271152496338e-01 -8.861179649829864502e-02 5.183102563023567200e-03
-1.358531787991523743e-02 8.504407852888107300e-02 7.598721981048583984e-02
-2.092362791299819946e-01 8.474210649728775024e-02 5.393415316939353943e-02
1.503086183220148087e-03 1.197788957506418228e-02 3.092408478260040283e-01
-2.736822366714477539e-01 -2.962076477706432343e-02 2.766716182231903076e-01
2.836850285530090332e-01 5.950522795319557190e-02 -1.905502825975418091e-01
-2.938508391380310059e-01 7.052495330572128296e-02 -1.567498743534088135e-01
-9.105750918388366699e-02 3.554492443799972534e-02 2.839397788047790527e-01
3.919045627117156982e-01 -6.911785155534744263e-02 -1.549093425273895264e-01
-9.033045172691345215e-01 3.812875971198081970e-02 -2.173326537013053894e-02
5.219402313232421875e-01 4.196686670184135437e-02 -1.952396333217620850e-01
4.001611769199371338e-01 7.561972737312316895e-02 -5.672042816877365112e-02
-4.045245647430419922e-01 6.798917800188064575e-02 1.542177498340606689e-01
2.062489688396453857e-01 5.738021433353424072e-02 -2.089265733957290649e-01
-1.794519126415252686e-01 -8.580243587493896484e-02 -6.787499785423278809e-02
-2.105852514505386353e-01 5.015943571925163269e-02 2.476696074008941650e-01
2.771869599819183350e-01 7.686071842908859253e-02 1.197751387953758240e-01
9.134492874145507812e-01 -3.559451550245285034e-02 4.658035561442375183e-02
1.603714972734451294e-01 8.541674166917800903e-02 5.879222415387630463e-03
-3.759064376354217529e-01 7.847023755311965942e-02 8.354246616363525391e-02
7.171674370765686035e-01 2.397491037845611572e-02 2.035117298364639282e-01
4.465257525444030762e-01 -7.071017473936080933e-02 -1.312153637409210205e-01
-5.759104490280151367e-01 5.517377331852912903e-02 -1.653286516666412354e-01
4.367489814758300781e-01 7.613141089677810669e-02 4.335827752947807312e-02
-7.707169055938720703e-01 5.427095293998718262e-02 -6.382508575916290283e-02
3.142687976360321045e-01 -4.929928481578826904e-02 -2.357913851737976074e-01
5.577467083930969238e-01 4.755772650241851807e-02 1.972463428974151611e-01
-6.878569126129150391e-01 5.586447939276695251e-02 -1.159882172942161560e-01
-6.841785311698913574e-01 -6.268545985221862793e-02 -4.539760947227478027e-02
6.875927448272705078e-01 -5.731267854571342468e-02 -1.037818491458892822e-01
1.357746124267578125e-01 2.460232377052307129e-02 -2.838368117809295654e-01
-8.756589889526367188e-01 4.145012423396110535e-02 -4.871435835957527161e-02
-7.763489484786987305e-01 -5.047244206070899963e-02 5.990523472428321838e-02
3.765263035893440247e-02 -4.568223655223846436e-02 -2.648277282714843750e-01
3.272708654403686523e-01 6.026327610015869141e-02 -1.798127293586730957e-01
4.036327898502349854e-01 5.759581923484802246e-02 -1.739808619022369385e-01
3.479164838790893555e-02 -8.219718188047409058e-02 1.236353144049644470e-01
8.982640504837036133e-01 2.549941651523113251e-02 -5.469138920307159424e-02
-8.154343813657760620e-02 -5.098193511366844177e-02 -2.536396980285644531e-01
8.364362120628356934e-01 3.230130672454833984e-02 -8.480582386255264282e-02
-3.210299909114837646e-01 -6.766032427549362183e-02 -1.786185204982757568e-01
1.650791764259338379e-01 -5.959206819534301758e-02 -2.244446575641632080e-01
8.973982334136962891e-01 2.812408283352851868e-02 7.777845859527587891e-02
1.798490881919860840e-01 -5.985491350293159485e-02 -2.224403023719787598e-01
-8.993234038352966309e-01 -3.624267131090164185e-02 -2.138691721484065056e-03
-4.840478599071502686e-01 5.204301327466964722e-02 -2.001040875911712646e-01
6.465209126472473145e-01 2.731128782033920288e-02 2.210002988576889038e-01
-4.688638150691986084e-01 3.345280140638351440e-02 -2.471698671579360962e-01
-7.816186547279357910e-01 -2.154418081045150757e-02 -1.826370656490325928e-01
-8.107802867889404297e-01 4.536224901676177979e-02 -9.550757706165313721e-02
-8.243805170059204102e-01 -2.836339734494686127e-02 -1.483443528413772583e-01
-3.994454443454742432e-01 -5.883786827325820923e-02 1.891916394233703613e-01
-6.478902101516723633e-01 6.171680614352226257e-02 -9.947180747985839844e-02
2.623427212238311768e-01 -8.686497062444686890e-02 -2.271569333970546722e-02
5.088318586349487305e-01 5.149965360760688782e-02 1.975250542163848877e-01
-6.300126314163208008e-01 5.419987440109252930e-02 -1.508500576019287109e-01
-7.934325933456420898e-01 5.232219398021697998e-02 4.726513102650642395e-02
-5.938658714294433594e-01 6.055726483464241028e-02 1.308642029762268066e-01
4.252063035964965820e-01 -1.355397701263427734e-02 2.840380072593688965e-01
-2.184507846832275391e-01 6.889832019805908203e-02 1.831111609935760498e-01
-1.061174124479293823e-01 -8.483328670263290405e-02 8.927953988313674927e-02
2.868035137653350830e-01 -6.164580211043357849e-02 2.132319360971450806e-01
-3.985952436923980713e-01 7.950457930564880371e-02 -5.150150135159492493e-02
7.192455232143402100e-02 -4.539748281240463257e-02 2.685335874557495117e-01
-5.697657465934753418e-01 -7.039199769496917725e-02 -6.402499973773956299e-02
-6.841396689414978027e-01 5.301857739686965942e-02 1.273486465215682983e-01
3.187370598316192627e-01 -8.044992387294769287e-02 1.057607233524322510e-01
5.819686055183410645e-01 5.515617132186889648e-02 1.586702018976211548e-01
5.968471169471740723e-01 -7.122366875410079956e-02 6.605387479066848755e-02
1.356538832187652588e-01 8.514159917831420898e-02 4.950727149844169617e-02
-9.531335234642028809e-01 2.558740973472595215e-02 -3.404063358902931213e-02
-3.051697313785552979e-01 -7.683867961168289185e-02 -1.283541321754455566e-01
5.537382960319519043e-01 7.001388818025588989e-02 2.617241814732551575e-02
8.577781915664672852e-02 -8.555484563112258911e-02 9.141332656145095825e-02
-6.510109901428222656e-01 -5.129641667008399963e-02 -1.558450311422348022e-01
9.155513718724250793e-03 3.848876431584358215e-02 -2.690347135066986084e-01
-5.713095664978027344e-01 -6.316450983285903931e-02 1.129155158996582031e-01
7.680104374885559082e-01 4.450787976384162903e-02 1.123224794864654541e-01
-5.945170521736145020e-01 7.096421718597412109e-02 -3.000998310744762421e-02
8.668640851974487305e-01 3.332135453820228577e-02 -4.864458739757537842e-02
-1.533865183591842651e-02 -4.161987826228141785e-02 -2.730935513973236084e-01
-5.338847041130065918e-01 -6.314007937908172607e-02 -1.451514214277267456e-01
9.088618308305740356e-02 7.299908250570297241e-02 -1.536409258842468262e-01
-2.492481321096420288e-01 7.012637704610824585e-02 1.732138991355895996e-01
-1.961021274328231812e-01 -3.292182087898254395e-02 2.796996235847473145e-01
-4.590545892715454102e-01 -8.906331844627857208e-03 -2.754121422767639160e-01
-2.353368103504180908e-01 -7.914267480373382568e-02 1.172918751835823059e-01
-3.523747622966766357e-01 8.166771382093429565e-02 -3.836226463317871094e-02
-3.297710716724395752e-01 -3.400760143995285034e-02 2.632762193679809570e-01
-4.141081273555755615e-01 -7.153450697660446167e-02 1.223582625389099121e-01
7.537936568260192871e-01 -2.783068828284740448e-02 1.917774677276611328e-01
-5.422762632369995117e-01 6.827969849109649658e-02 -1.041275113821029663e-01
3.790468871593475342e-01 -6.977931410074234009e-02 1.647903025150299072e-01
-2.767315506935119629e-01 8.398247510194778442e-02 -2.950686402618885040e-02
6.447446346282958984e-01 5.312640964984893799e-02 1.409074068069458008e-01
-1.369294375181198120e-01 7.405673712491989136e-02 1.645854264497756958e-01
9.642417728900909424e-02 -6.376454979181289673e-02 2.180716842412948608e-01
6.166706606745719910e-02 -8.232919871807098389e-02 -1.230034008622169495e-01
-6.149677038192749023e-01 5.087587982416152954e-02 1.654148548841476440e-01
1.326383799314498901e-01 8.182343095541000366e-02 1.025760546326637268e-01
-7.885427027940750122e-02 4.876480624079704285e-02 2.591631412506103516e-01
-8.883655071258544922e-01 3.823006153106689453e-02 4.484804719686508179e-02
9.541296958923339844e-02 -7.483009248971939087e-02 -1.689091920852661133e-01
3.314089179039001465e-01 -8.038486540317535400e-02 -9.535921365022659302e-02
-7.675598263740539551e-01 5.003246292471885681e-02 -1.007364466786384583e-01
8.015495538711547852e-01 4.344954341650009155e-02 -5.238599330186843872e-02
-6.897506304085254669e-03 -8.962746709585189819e-02 -9.483609348535537720e-03
-2.801033258438110352e-01 8.433718234300613403e-02 -1.218690257519483566e-02
6.129499673843383789e-01 -6.182919442653656006e-02 1.355009227991104126e-01
-7.298222780227661133e-01 5.019680410623550415e-02 -1.238486692309379578e-01
4.742636382579803467e-01 -7.990922778844833374e-02 2.059283480048179626e-02
-3.231543302536010742e-01 -5.561984330415725708e-02 -2.232791185379028320e-01
-7.513507604598999023e-01 -2.008294314146041870e-02 1.800925582647323608e-01
-2.553566098213195801e-01 -8.504280447959899902e-02 -5.032873898744583130e-02
1.864568591117858887e-01 8.386674523353576660e-02 5.859227105975151062e-02
5.299443602561950684e-01 -7.275106012821197510e-02 9.561605006456375122e-02
4.722532927989959717e-01 -5.936759710311889648e-02 1.910081654787063599e-01
-7.318751811981201172e-01 -5.406649783253669739e-02 -9.342657029628753662e-02
-2.294792979955673218e-01 8.332974463701248169e-02 7.252223044633865356e-02
-7.452034950256347656e-01 5.833425745368003845e-02 -4.507815092802047729e-02
-1.385687887668609619e-01 4.005882143974304199e-02 -2.658856511116027832e-01
-2.962768971920013428e-01 8.408819139003753662e-02 1.885481993667781353e-03
-1.665996611118316650e-01 8.513660728931427002e-02 5.888053029775619507e-02
6.660472601652145386e-02 7.621803134679794312e-02 -1.362050473690032959e-01
3.379409611225128174e-01 8.342628367245197296e-03 2.959312200546264648e-01
3.685722649097442627e-01 -8.383774757385253906e-02 3.202233836054801941e-02
4.105188548564910889e-01 -7.467330247163772583e-02 1.273924112319946289e-01
-1.592231243848800659e-01 2.621218934655189514e-02 -2.864984571933746338e-01
9.233217835426330566e-01 -3.257362917065620422e-02 5.350890010595321655e-02
4.361759722232818604e-01 7.607918977737426758e-02 -1.663419418036937714e-02
5.631958842277526855e-01 6.942702084779739380e-02 2.361265942454338074e-02
5.168080795556306839e-03 -7.518343627452850342e-02 1.685004830360412598e-01
-5.183629393577575684e-01 7.272480428218841553e-02 7.524511218070983887e-02
1.785697788000106812e-01 7.872745394706726074e-02 1.247890219092369080e-01
5.746113602072000504e-03 -7.056165486574172974e-02 -1.918323338031768799e-01
-1.418245024979114532e-02 8.614430576562881470e-02 5.577265098690986633e-02
6.010861396789550781e-01 -1.297635957598686218e-03 2.559938728809356689e-01
-2.348861992359161377e-01 7.666099071502685547e-02 -1.268156617879867554e-01
-4.891318827867507935e-02 -7.911248505115509033e-02 -1.461834013462066650e-01
8.016858696937561035e-01 -5.174934864044189453e-02 -4.886340349912643433e-02
-1.313717663288116455e-01 7.592122256755828857e-02 -1.411110311746597290e-01
-2.094273455440998077e-02 -6.148814782500267029e-02 -2.256196290254592896e-01
-2.130209952592849731e-01 7.681864500045776367e-02 -1.284219324588775635e-01
4.985825121402740479e-01 -7.111465185880661011e-02 -1.098405793309211731e-01
2.105841785669326782e-01 7.489026337862014771e-02 1.485925316810607910e-01
1.191768497228622437e-01 5.160674452781677246e-02 -2.344972491264343262e-01
-1.978522092103958130e-01 -6.810167431831359863e-02 -1.932613253593444824e-01
-1.761399209499359131e-01 -8.440575003623962402e-02 -8.797718584537506104e-02
2.390335798263549805e-01 6.986575573682785034e-02 1.742160767316818237e-01
7.120129466056823730e-01 5.445205047726631165e-02 -4.972440004348754883e-02
4.666086733341217041e-01 -5.751420557498931885e-02 -1.848695725202560425e-01
-4.053537547588348389e-01 -8.075218647718429565e-02 1.021315529942512512e-02
8.029292225837707520e-01 -3.977335989475250244e-02 -1.127238497138023376e-01
-5.966356024146080017e-02 -5.031045153737068176e-02 2.553628981113433838e-01
-1.791673526167869568e-02 -3.457478433847427368e-02 -2.839750349521636963e-01
3.274317979812622070e-01 -8.535866439342498779e-02 2.104542963206768036e-02
4.413060843944549561e-01 1.949678733944892883e-02 2.754686474800109863e-01
2.436398863792419434e-01 8.256932348012924194e-02 -3.377075493335723877e-02
-2.348920255899429321e-01 -4.381601512432098389e-02 -2.613543868064880371e-01
-7.496651262044906616e-02 7.614827901124954224e-02 1.558784842491149902e-01
-2.274306714534759521e-01 2.744965255260467529e-02 2.860584557056427002e-01
6.569871902465820312e-01 3.305064514279365540e-02 -1.758452802896499634e-01
-3.387190699577331543e-01 -7.965620607137680054e-02 8.105949312448501587e-02
-5.116456747055053711e-01 6.187157705426216125e-02 -1.545349359512329102e-01
2.322187870740890503e-01 8.188789337873458862e-02 7.618273794651031494e-02
-2.084887772798538208e-02 -8.711493760347366333e-02 7.086009532213211060e-02
-4.569751322269439697e-01 9.615155868232250214e-03 2.698196768760681152e-01
-1.365197002887725830e-01 -8.818752318620681763e-02 -2.860139496624469757e-02
1.925681382417678833e-01 -1.706078276038169861e-02 3.028708100318908691e-01
1.744269877672195435e-01 -7.633311301469802856e-02 -1.542692929506301880e-01
3.050133287906646729e-01 6.341192126274108887e-02 -1.708401590585708618e-01
-7.462357878684997559e-01 -3.463576734066009521e-02 1.528571993112564087e-01
-7.116498947143554688e-01 -2.027324773371219635e-02 -2.104096263647079468e-01
-3.871994614601135254e-01 -7.661549001932144165e-02 9.196186065673828125e-02
2.985328435897827148e-01 7.826787978410720825e-02 -7.370173186063766479e-02
9.559257626533508301e-01 4.175472073256969452e-03 -4.985510557889938354e-02
-8.145018219947814941e-01 -4.768780618906021118e-02 3.766666725277900696e-02
4.227931797504425049e-01 7.713562995195388794e-02 2.289691707119345665e-03
-1.689891219139099121e-01 8.366517722606658936e-02 -6.942977756261825562e-02
1.196134835481643677e-02 2.600569836795330048e-02 2.985994219779968262e-01
-1.903206855058670044e-02 6.304042041301727295e-02 -2.044306844472885132e-01
5.849088430404663086e-01 -3.164490312337875366e-02 -2.161015421152114868e-01
-5.115231275558471680e-01 6.612699478864669800e-02 1.318684518337249756e-01
3.554779291152954102e-01 -7.588282227516174316e-02 1.333415806293487549e-01
7.066215872764587402e-01 3.099581599235534668e-02 1.934488266706466675e-01
3.242461979389190674e-01 -5.803763493895530701e-02 -2.109637111425399780e-01
-5.686497688293457031e-01 3.613749518990516663e-02 2.181715369224548340e-01
8.191272020339965820e-01 -5.218580365180969238e-02 3.547214716672897339e-02
7.716959714889526367e-01 -5.599865689873695374e-02 6.678394973278045654e-02
-2.887084186077117920e-01 4.477677121758460999e-02 2.519569098949432373e-01
8.493626117706298828e-01 -4.806011542677879333e-02 -5.650072358548641205e-03
1.285731941461563110e-01 -5.016928166151046753e-02 -2.516607046127319336e-01
3.004322052001953125e-01 6.971008330583572388e-02 1.645708680152893066e-01
-3.124557733535766602e-01 -7.329240441322326660e-02 1.402060389518737793e-01
-2.875900268554687500e-01 -8.294313400983810425e-02 -7.209276407957077026e-02
3.737128078937530518e-01 7.914465665817260742e-02 3.227739781141281128e-02
-7.882199883460998535e-01 5.071524158120155334e-02 6.911548227071762085e-02
9.782241582870483398e-01 5.676206201314926147e-03 2.406439743936061859e-02
3.534367084503173828e-01 -4.789583012461662292e-02 -2.333438098430633545e-01
7.204116135835647583e-02 8.582029491662979126e-02 -3.249187767505645752e-02
1.285147070884704590e-01 4.004741832613945007e-02 2.766284644603729248e-01
2.739611268043518066e-01 -7.637049257755279541e-02 -1.395776271820068359e-01
-3.266138136386871338e-01 8.165603131055831909e-02 -5.355325713753700256e-02
-3.810409903526306152e-01 -6.875749677419662476e-02 -1.608673036098480225e-01
-6.300902366638183594e-01 6.875124573707580566e-02 -2.520370483398437500e-02
-2.065321803092956543e-01 8.576558530330657959e-02 -1.055539865046739578e-02
-7.972632646560668945e-01 5.399479344487190247e-02 -4.351287148892879486e-03
-9.828938245773315430e-01 -6.812999024987220764e-03 2.430697344243526459e-02
3.582011442631483078e-03 -6.431664526462554932e-02 -2.161190956830978394e-01
-2.770888060331344604e-02 4.023981466889381409e-02 2.779697775840759277e-01
4.350197315216064453e-02 -8.933109045028686523e-02 2.716662362217903137e-02
-5.657110363245010376e-03 -8.960781246423721313e-02 8.873837999999523163e-03
9.140982478857040405e-02 7.792344689369201660e-02 -1.220362260937690735e-01
4.500302076339721680e-01 6.992411613464355469e-02 -9.044998884201049805e-02
-2.965287268161773682e-01 -6.149037554860115051e-02 -2.075780034065246582e-01
5.508397221565246582e-01 3.382857143878936768e-02 -2.068070471286773682e-01
-6.816068887710571289e-01 -4.931376129388809204e-02 -1.506832540035247803e-01
-8.611949086189270020e-01 -4.045442491769790649e-02 3.999635577201843262e-02
-5.908197164535522461e-01 -6.973090022802352905e-02 -5.061069875955581665e-02
4.848744273185729980e-01 -7.947462052106857300e-02 1.561224553734064102e-02
-2.090570889413356781e-02 -5.185612291097640991e-02 2.529399693012237549e-01
3.612115383148193359e-01 4.940934851765632629e-02 2.343509048223495483e-01
4.800089821219444275e-02 8.435934782028198242e-02 8.246362209320068359e-02
-2.030031234025955200e-01 -1.583466306328773499e-02 2.971797287464141846e-01
-8.304969966411590576e-02 -5.624579638242721558e-02 -2.402577698230743408e-01
1.544237285852432251e-01 -8.181459456682205200e-02 -1.196279600262641907e-01
-1.145548000931739807e-01 -8.297283202409744263e-02 1.067603081464767456e-01
5.996217131614685059e-01 -2.966319397091865540e-02 -2.150074839591979980e-01
-4.409963190555572510e-01 -3.892058506608009338e-02 -2.459436804056167603e-01
6.040286421775817871e-01 3.501380234956741333e-02 -1.889116168022155762e-01
8.919479250907897949e-01 -3.758925944566726685e-02 -4.176997765898704529e-02
-4.591252207756042480e-01 -3.631360828876495361e-02 2.375259250402450562e-01
8.503525853157043457e-01 -3.769194334745407104e-02 1.140722632408142090e-01
6.821569800376892090e-01 4.390790686011314392e-02 -1.325134932994842529e-01
-3.533194959163665771e-02 -8.949209004640579224e-02 6.865657866001129150e-03
5.559325814247131348e-01 3.917808458209037781e-02 2.214259505271911621e-01
5.985308885574340820e-01 -7.196013629436492920e-02 -3.586361557245254517e-02
-2.629042863845825195e-01 -3.419051319360733032e-02 -2.754523456096649170e-01
6.577154994010925293e-01 -6.374818086624145508e-02 9.814861416816711426e-02
6.260100752115249634e-02 5.761714652180671692e-02 -2.202684730291366577e-01
-4.809901416301727295e-01 7.762762159109115601e-02 -3.931711427867412567e-03
2.259552180767059326e-01 -7.293909788131713867e-02 -1.663176864385604858e-01
-1.815795004367828369e-01 -8.769552409648895264e-02 -1.047303155064582825e-02
-8.551251888275146484e-01 -3.069869615137577057e-02 -1.217036917805671692e-01
-6.989461183547973633e-01 5.814957618713378906e-02 8.785082399845123291e-02
-9.086264371871948242e-01 1.882032305002212524e-02 1.012515500187873840e-01
-7.974166274070739746e-01 -5.136470869183540344e-02 -3.434065729379653931e-02
-4.068379998207092285e-01 3.422610089182853699e-02 -2.550661861896514893e-01
7.358437180519104004e-01 -6.092428788542747498e-02 5.081062763929367065e-02
-7.555058598518371582e-01 -5.658913031220436096e-02 -1.396864373236894608e-02
-2.173853516578674316e-01 7.164497673511505127e-02 -1.598274409770965576e-01
-8.047775179147720337e-02 7.904342561960220337e-02 1.358358860015869141e-01
-4.908035397529602051e-01 7.611945271492004395e-02 -4.327986761927604675e-02
2.123990803956985474e-01 8.080199360847473145e-02 9.714893996715545654e-02
8.865161538124084473e-01 -3.381422907114028931e-02 -6.913163512945175171e-02
4.524676203727722168e-01 7.344678789377212524e-02 -5.174556747078895569e-02
-8.506579995155334473e-01 4.662896692752838135e-02 1.644969172775745392e-02
-9.929507970809936523e-03 -4.506330564618110657e-02 2.686135768890380859e-01
4.958694875240325928e-01 -7.895132154226303101e-02 -2.029772615060210228e-03
-6.093844771385192871e-01 -1.006825827062129974e-02 -2.467906922101974487e-01
6.714548170566558838e-02 -8.958182483911514282e-02 1.068250834941864014e-02
-3.009452298283576965e-02 -8.842482417821884155e-02 -5.114328116178512573e-02
1.557165756821632385e-02 6.375593692064285278e-02 -2.007803767919540405e-01
-5.832782387733459473e-01 4.427646100521087646e-02 -1.999525129795074463e-01
9.415408372879028320e-01 1.284538302570581436e-02 8.606880903244018555e-02
-3.598473072052001953e-01 -7.111135125160217285e-02 -1.528214663267135620e-01
-4.738079309463500977e-01 7.247957587242126465e-02 -9.889464080333709717e-02
-1.634869873523712158e-01 -8.285244554281234741e-02 -1.069500595331192017e-01
2.548471689224243164e-01 5.671802908182144165e-02 -2.048670351505279541e-01
-2.853900492191314697e-01 -7.153466343879699707e-02 1.562595814466476440e-01
4.004722833633422852e-01 7.553838938474655151e-02 8.577039092779159546e-02
7.390845417976379395e-01 -3.306905552744865417e-02 -1.625324487686157227e-01
4.139362275600433350e-01 7.761319726705551147e-02 1.447484083473682404e-02
-4.439836144447326660e-01 7.901591062545776367e-02 2.373492904007434845e-02
-3.157447874546051025e-01 8.346696943044662476e-02 2.017437480390071869e-02
-5.894046425819396973e-01 6.624221801757812500e-02 -9.695516526699066162e-02
3.648677766323089600e-01 -5.924253538250923157e-02 2.114156037569046021e-01
9.368479847908020020e-01 -2.315772511065006256e-02 -5.109261721372604370e-02
6.188849732279777527e-02 8.664002269506454468e-02 2.587609738111495972e-02
-5.851607322692871094e-01 6.205957010388374329e-02 1.261775195598602295e-01
9.160316735506057739e-02 9.439217858016490936e-03 3.100213706493377686e-01
7.090361118316650391e-01 9.495070204138755798e-03 2.232646346092224121e-01
-6.757639646530151367e-01 4.449845105409622192e-02 -1.707081198692321777e-01
7.063485980033874512e-01 -6.107183173298835754e-02 -6.333886086940765381e-02
5.755162239074707031e-01 -7.285491377115249634e-02 -4.661742597818374634e-02
8.543548732995986938e-02 8.562566339969635010e-02 -3.360676020383834839e-02
-6.593421697616577148e-01 6.690418720245361328e-02 -1.159432623535394669e-02
-8.359050378203392029e-03 -8.013311773538589478e-02 -1.402657181024551392e-01
-4.821689724922180176e-01 7.383918762207031250e-02 -8.179833739995956421e-02
-7.431442737579345703e-01 -3.910895437002182007e-02 1.409175395965576172e-01
-1.704301089048385620e-01 -6.010530889034271240e-02 -2.248614132404327393e-01
-8.728573322296142578e-01 3.988107293844223022e-02 -6.775896996259689331e-02
-6.627485156059265137e-01 -6.133785471320152283e-02 -8.821289986371994019e-02
5.780771002173423767e-02 -6.006412580609321594e-02 -2.288763672113418579e-01
-6.002435088157653809e-01 -6.345289200544357300e-02 9.541996568441390991e-02
6.314544677734375000e-01 6.456969678401947021e-02 1.488380040973424911e-02
-1.530269831418991089e-01 8.203753829002380371e-02 -9.068741649389266968e-02
-8.214081525802612305e-01 -4.641193151473999023e-02 -6.323911249637603760e-02
-1.554758995771408081e-01 -5.045697093009948730e-02 -2.521730959415435791e-01
8.815750479698181152e-02 -8.071740716695785522e-02 1.341754347085952759e-01
2.808503806591033936e-01 -8.407162874937057495e-02 -7.074757665395736694e-02
-1.452528983354568481e-01 8.524682372808456421e-02 -4.816521704196929932e-02
5.167476534843444824e-01 -7.118873298168182373e-02 1.153944730758666992e-01
-4.627651274204254150e-01 7.826935499906539917e-02 2.086277119815349579e-02
-4.101651906967163086e-01 -5.697612836956977844e-02 -2.047341167926788330e-01
5.765093863010406494e-02 -8.357740938663482666e-02 -1.127283573150634766e-01
2.252518236637115479e-01 -6.115941703319549561e-02 -2.139624655246734619e-01
-6.574748754501342773e-01 6.444229930639266968e-02 6.299795955419540405e-02
-1.892402172088623047e-01 -6.801073253154754639e-02 -1.944584697484970093e-01
7.123060822486877441e-01 4.919483885169029236e-02 1.242972984910011292e-01
-7.802743315696716309e-01 5.585883185267448425e-02 4.739251453429460526e-03
4.355819821357727051e-01 6.802379339933395386e-02 -1.109274178743362427e-01
2.425767630338668823e-01 -6.548897176980972290e-02 2.034899443387985229e-01
-4.473478496074676514e-01 7.865214347839355469e-02 -2.799072302877902985e-02
8.346003890037536621e-01 -5.008843913674354553e-02 -9.486679919064044952e-03
-5.011047720909118652e-01 7.334711402654647827e-02 -7.705356180667877197e-02
4.069256186485290527e-01 4.899337515234947205e-02 -2.027427256107330322e-01
1.468748897314071655e-01 -8.728177845478057861e-02 6.193026900291442871e-02
-7.618028521537780762e-01 5.257657915353775024e-02 -8.782242238521575928e-02
-5.376113057136535645e-01 -3.500103950500488281e-02 -2.347372770309448242e-01
2.037244588136672974e-01 -8.682167530059814453e-02 5.691012740135192871e-02
-6.854151487350463867e-01 -6.012406200170516968e-02 6.068221479654312134e-02
-4.481298327445983887e-01 -7.533380389213562012e-02 7.539918273687362671e-02
6.846632361412048340e-01 1.791522838175296783e-02 -1.935831755399703979e-01
1.231267154216766357e-01 7.082874327898025513e-02 -1.622792631387710571e-01
-5.956188589334487915e-02 6.667792052030563354e-02 2.040906399488449097e-01
-1.856302767992019653e-01 -3.320611268281936646e-02 -2.819759547710418701e-01
7.272162474691867828e-04 4.862710088491439819e-02 -2.477688044309616089e-01
3.272581994533538818e-01 -6.591723859310150146e-02 1.916839331388473511e-01
-5.825957655906677246e-01 2.107449434697628021e-02 -2.430343180894851685e-01
-8.485067486763000488e-01 -4.283909127116203308e-02 -5.863629654049873352e-02
7.112018764019012451e-02 8.589687943458557129e-02 5.062149465084075928e-02
