9.327515959739685059e-02 1.961343288421630859e-01 -8.385071530938148499e-03
-7.147274911403656006e-02 9.747057408094406128e-02 1.524438243359327316e-02
-8.322595804929733276e-02 3.575129061937332153e-02 -1.388350315392017365e-02
-5.310301110148429871e-02 7.552493810653686523e-01 -3.830625675618648529e-03
1.066335961222648621e-01 -5.732154846191406250e-01 1.125530898571014404e-02
-5.910972133278846741e-02 5.199782848358154297e-01 1.263974886387586594e-02
2.172952983528375626e-03 1.574071645736694336e-01 -1.577195525169372559e-02
-5.005587264895439148e-02 -3.848152458667755127e-01 1.071596331894397736e-02
-2.331437356770038605e-02 2.179136276245117188e-01 -1.568550616502761841e-02
1.169974207878112793e-01 -2.957909405231475830e-01 1.224157121032476425e-02
6.684724986553192139e-02 -7.262697815895080566e-01 -7.653419394046068192e-03
-6.543843075633049011e-03 -5.459722876548767090e-01 1.027133222669363022e-02
-1.504389643669128418e-01 5.189182758331298828e-01 -7.871522568166255951e-03
-1.109030693769454956e-01 -3.285485133528709412e-02 1.093504019081592560e-02
-3.553844243288040161e-02 3.957561552524566650e-01 -1.411953195929527283e-02
4.308452457189559937e-02 -5.578835010528564453e-01 1.240004412829875946e-02
1.487442851066589355e-01 -4.330196976661682129e-01 -8.141688071191310883e-03
1.063967123627662659e-01 -6.501215696334838867e-01 -9.397385641932487488e-03
9.661004692316055298e-02 9.234679490327835083e-02 -1.042466610670089722e-02
-1.265466064214706421e-01 2.746567502617835999e-02 -9.184998460114002228e-03
1.457031220197677612e-01 -7.122502923011779785e-01 -4.123239777982234955e-03
2.407061122357845306e-02 -3.930906355381011963e-01 -1.421354711055755615e-02
-7.418204098939895630e-02 5.235894322395324707e-01 1.255784556269645691e-02
-3.507973626255989075e-02 -4.057537019252777100e-01 -1.110455021262168884e-02
9.564067423343658447e-02 2.458698153495788574e-01 -5.963240284472703934e-03
1.316581815481185913e-01 -6.516589522361755371e-01 8.169859647750854492e-03
7.920232415199279785e-02 -4.503335654735565186e-01 1.375610660761594772e-02
9.160421788692474365e-02 -3.250813782215118408e-01 1.401512976735830307e-02
-1.500970423221588135e-01 5.018565654754638672e-01 -8.084907196462154388e-03
3.498358279466629028e-02 5.188766121864318848e-01 5.723145790398120880e-03
8.759816735982894897e-02 2.862384319305419922e-01 6.217543967068195343e-03
-5.095601081848144531e-02 8.691950142383575439e-02 -1.564755104482173920e-02
1.054466292262077332e-01 -4.484311044216156006e-01 1.264718826860189438e-02
7.583939284086227417e-02 -3.541440665721893311e-01 1.457883697003126144e-02
1.037881337106227875e-02 -3.812837004661560059e-01 -1.406404096633195877e-02
-1.198938563466072083e-01 -1.610321104526519775e-01 5.759226623922586441e-03
-1.689839363098144531e-01 4.729654788970947266e-01 4.991008434444665909e-03
-9.907887130975723267e-02 7.815359234809875488e-01 4.263450391590595245e-03
2.636215090751647949e-02 -3.390083611011505127e-01 1.531806867569684982e-02
5.899053812026977539e-02 -8.115130066871643066e-01 7.541483500972390175e-04
4.523139074444770813e-02 1.351599954068660736e-02 1.561931055039167404e-02
-1.023863330483436584e-01 7.156685590744018555e-01 7.525086402893066406e-03
-5.618188902735710144e-02 2.715036869049072266e-01 1.544633600860834122e-02
7.549844682216644287e-02 1.683660149574279785e-01 1.169290114194154739e-02
1.368415951728820801e-01 -7.461007833480834961e-01 -4.082649014890193939e-03
-5.541651695966720581e-02 5.630460977554321289e-01 1.174236647784709930e-02
3.056312166154384613e-02 -7.212533950805664062e-01 6.335590966045856476e-03
-1.096366941928863525e-01 3.114100694656372070e-01 -1.281020790338516235e-02
4.666663706302642822e-02 -5.091972947120666504e-01 1.333478372544050217e-02
3.961987048387527466e-02 -3.098544180393218994e-01 1.556771527975797653e-02
4.289472848176956177e-02 -6.509753465652465820e-01 -9.491316974163055420e-03
1.016365885734558105e-01 -3.843270242214202881e-01 -1.284279115498065948e-02
3.374579176306724548e-02 -3.451935648918151855e-01 -1.484108623117208481e-02
9.456182271242141724e-02 2.211530208587646484e-01 7.420533802360296249e-03
4.513433203101158142e-02 -6.865131203085184097e-03 -1.543641369789838791e-02
-9.031002223491668701e-02 -1.228577867150306702e-01 1.194057893007993698e-02
1.937130838632583618e-02 -2.226938679814338684e-02 -1.616821810603141785e-02
9.963822364807128906e-02 -1.347006261348724365e-01 -1.284388918429613113e-02
-1.214287057518959045e-01 3.970134556293487549e-01 -1.167601905763149261e-02
-3.276753053069114685e-02 -1.061240956187248230e-01 -1.548383012413978577e-02
-5.201880261301994324e-02 -4.076966941356658936e-01 -9.228998795151710510e-03
-1.060014292597770691e-01 -6.650114059448242188e-02 -1.052737142890691757e-02
-1.425070166587829590e-01 6.596798300743103027e-01 6.571633275598287582e-03
-9.787268936634063721e-02 5.365543961524963379e-01 -1.164514478296041489e-02
2.259382791817188263e-02 -4.568931758403778076e-01 1.376707945019006729e-02
1.212125718593597412e-01 -6.129496097564697266e-01 -9.282703511416912079e-03
8.807180449366569519e-03 1.610644757747650146e-01 1.586528308689594269e-02
9.954432398080825806e-02 -4.679142534732818604e-01 -1.237265300005674362e-02
9.571557492017745972e-02 -3.006097376346588135e-01 1.383225247263908386e-02
8.499481528997421265e-02 8.768431842327117920e-02 1.208925247192382812e-02
-5.508942157030105591e-02 4.895544350147247314e-01 1.313766930252313614e-02
2.803595177829265594e-02 -7.538862526416778564e-02 1.641653850674629211e-02
1.874673366546630859e-02 -6.108192205429077148e-01 -9.508389979600906372e-03
-1.292067319154739380e-01 5.598961710929870605e-01 -9.593027643859386444e-03
-3.904218599200248718e-02 -5.376771464943885803e-02 1.598860509693622589e-02
-1.525735855102539062e-01 4.523398876190185547e-01 8.397337980568408966e-03
7.611846178770065308e-02 -6.618164777755737305e-01 -9.797261096537113190e-03
-1.039644852280616760e-01 7.492483854293823242e-01 -5.950341466814279556e-03
6.369956582784652710e-02 -2.802297174930572510e-01 1.529595628380775452e-02
5.679634958505630493e-02 3.281262889504432678e-02 1.492363587021827698e-02
-4.807614907622337341e-02 -1.696427762508392334e-01 -1.422665454447269440e-02
2.963263727724552155e-02 5.081062316894531250e-01 7.330288179218769073e-03
-3.528431430459022522e-02 3.285590708255767822e-01 -1.487085595726966858e-02
4.959674179553985596e-02 1.753193140029907227e-01 -1.363040320575237274e-02
1.580494269728660583e-02 3.925785422325134277e-01 -1.223008241504430771e-02
-1.525077372789382935e-01 4.475130736827850342e-01 -8.116904646158218384e-03
-1.205821633338928223e-01 4.845672249794006348e-01 1.138009317219257355e-02
-1.061709299683570862e-01 -2.111971080303192139e-01 7.293967064470052719e-03
1.275345385074615479e-01 -6.900039315223693848e-01 7.628028281033039093e-03
1.261886060237884521e-01 -7.185444831848144531e-01 6.903989240527153015e-03
5.693545565009117126e-02 -5.554301664233207703e-02 1.545601245015859604e-02
-1.651714593172073364e-01 2.968057394027709961e-01 -5.178686697036027908e-03
-8.634480834007263184e-02 7.637292742729187012e-01 5.397046916186809540e-03
-4.274353384971618652e-02 -3.016348183155059814e-01 1.319479197263717651e-02
-1.438386887311935425e-01 4.459522664546966553e-02 6.444756407290697098e-03
-1.169400736689567566e-01 3.700568899512290955e-02 -1.071134768426418304e-02
-2.863549813628196716e-02 -4.327009320259094238e-01 -1.099686510860919952e-02
1.560286730527877808e-01 -5.281224250793457031e-01 -6.368326488882303238e-03
-8.460799604654312134e-02 2.429138123989105225e-01 1.468177232891321182e-02
1.455759406089782715e-01 -5.458695292472839355e-01 8.259092457592487335e-03
8.421296626329421997e-02 -1.248483881354331970e-01 1.425307802855968475e-02
9.776104986667633057e-02 6.066516041755676270e-02 1.106579694896936417e-02
-1.753279268741607666e-01 5.036389827728271484e-01 1.935161533765494823e-03
-5.761132761836051941e-02 4.946952164173126221e-01 1.306687481701374054e-02
-1.204971000552177429e-01 2.947480082511901855e-01 1.233012415468692780e-02
-1.713500358164310455e-02 7.161954045295715332e-02 -1.623412966728210449e-02
-1.271400302648544312e-01 3.320200145244598389e-01 -1.137048564851284027e-02
8.025805652141571045e-02 -2.272260189056396484e-01 1.472890656441450119e-02
8.047872781753540039e-02 -7.831387519836425781e-01 -5.273686256259679794e-03
1.725180447101593018e-01 -4.977423846721649170e-01 -4.910973366349935532e-04
1.474908739328384399e-02 6.089839935302734375e-01 3.729952266439795494e-03
-1.365103423595428467e-01 6.656581759452819824e-01 7.063501514494419098e-03
-7.582468539476394653e-02 -4.250235855579376221e-01 -3.300973214209079742e-03
-6.585184019058942795e-03 3.802251219749450684e-01 1.380146201699972153e-02
-1.633875221014022827e-01 4.366173148155212402e-01 -6.214768625795841217e-03
9.654567390680313110e-02 -1.640073023736476898e-03 -1.191857643425464630e-02
1.959208771586418152e-02 4.834607243537902832e-01 -9.519236162304878235e-03
-1.210308149456977844e-01 -9.157644212245941162e-02 -7.492188364267349243e-03
8.296448737382888794e-02 -2.721212208271026611e-01 -1.419541705399751663e-02
3.849003091454505920e-02 4.231810867786407471e-01 9.463047608733177185e-03
-1.538994312286376953e-01 3.485258221626281738e-01 -8.012290112674236298e-03
-1.218455508351325989e-01 1.936371624469757080e-01 1.197495963424444199e-02
-4.046300426125526428e-02 3.011923730373382568e-01 -1.511960756033658981e-02
-1.233568042516708374e-02 5.669438242912292480e-01 -9.654656052589416504e-03
1.519769728183746338e-01 -3.063862919807434082e-01 -7.258563302457332611e-03
-5.214402079582214355e-02 -8.117993175983428955e-02 1.528868544846773148e-02
-9.859289228916168213e-02 9.042913466691970825e-02 1.351364329457283020e-02
4.642448574304580688e-02 -3.646866679191589355e-01 1.509688328951597214e-02
-1.009747162461280823e-01 6.182596087455749512e-01 1.028530206531286240e-02
8.972541242837905884e-02 -3.426500558853149414e-01 1.405455358326435089e-02
-3.654250130057334900e-02 5.119161009788513184e-01 1.240599714219570160e-02
-2.140768337994813919e-04 -3.458033502101898193e-01 -1.422241982072591782e-02
1.152188405394554138e-01 1.572095453739166260e-01 4.615087993443012238e-03
-4.451758041977882385e-02 2.231491506099700928e-01 -1.556947641074657440e-02
6.345937401056289673e-02 1.265600323677062988e-01 1.348600164055824280e-02
2.912807278335094452e-02 -5.246555209159851074e-01 1.272949296981096268e-02
-3.295734152197837830e-02 -3.346398174762725830e-01 -1.277193799614906311e-02
3.487782925367355347e-02 1.829561889171600342e-01 1.463908795267343521e-02
7.226616889238357544e-02 -4.143008589744567871e-01 -1.382326055318117142e-02
5.917142610996961594e-03 3.405891656875610352e-01 -1.371801830828189850e-02
-5.206615664064884186e-03 5.277362465858459473e-01 -1.034166850149631500e-02
-9.683674201369285583e-03 3.737879097461700439e-01 1.401879265904426575e-02
5.102274194359779358e-02 -3.956143856048583984e-01 -1.432270649820566177e-02
1.089190393686294556e-01 -2.417464852333068848e-01 -1.251123100519180298e-02
4.218992963433265686e-02 -1.354467570781707764e-01 1.613308489322662354e-02
-1.599947959184646606e-01 1.133245602250099182e-01 -1.952028367668390274e-03
-3.784330096095800400e-03 5.544707775115966797e-01 -9.379464201629161835e-03
1.426838338375091553e-01 -3.516941368579864502e-01 -9.057601913809776306e-03
3.143378719687461853e-02 -4.379067718982696533e-01 -1.372685190290212631e-02
6.531106680631637573e-02 4.575641825795173645e-03 1.464684680104255676e-02
6.155506521463394165e-02 3.250927329063415527e-01 9.571632370352745056e-03
8.329288102686405182e-04 5.524639487266540527e-01 9.126857854425907135e-03
4.631716758012771606e-02 4.043852388858795166e-01 9.078780189156532288e-03
1.024714484810829163e-01 1.588366031646728516e-01 7.972970604896545410e-03
-7.163424789905548096e-02 4.170176386833190918e-02 1.503723766654729843e-02
-6.997266411781311035e-02 3.983916342258453369e-01 -1.399124879390001297e-02
7.488690316677093506e-02 -8.107817769050598145e-01 3.584145568311214447e-03
-8.004509657621383667e-02 -3.767578601837158203e-01 6.012685131281614304e-03
-7.449468225240707397e-02 1.687342822551727295e-01 1.519667450338602066e-02
1.018090471625328064e-01 3.436796739697456360e-02 1.100505143404006958e-02
-2.689718455076217651e-02 -2.863189578056335449e-01 1.440317090600728989e-02
-9.035675227642059326e-02 6.175886839628219604e-02 -1.355043984949588776e-02
1.135684326291084290e-01 -4.972744882106781006e-01 -1.131407450884580612e-02
-2.810700237751007080e-02 8.050265908241271973e-02 -1.613231748342514038e-02
6.871971487998962402e-02 -6.964617967605590820e-01 9.322083555161952972e-03
-5.404166877269744873e-02 5.963066220283508301e-01 -1.078587584197521210e-02
1.236975714564323425e-01 -4.888856410980224609e-01 1.107365358620882034e-02
9.268070757389068604e-02 1.299551315605640411e-02 1.236807927489280701e-02
5.733522027730941772e-02 -6.939982771873474121e-01 -8.583574555814266205e-03
-2.605188265442848206e-02 2.483859658241271973e-01 -1.549465581774711609e-02
-1.325346380472183228e-01 1.204952970147132874e-01 1.006966922432184219e-02
-1.563221588730812073e-02 7.493972778320312500e-02 1.656231842935085297e-02
-9.591726586222648621e-03 -8.240116387605667114e-02 1.653302274644374847e-02
-5.967829748988151550e-02 -3.954010009765625000e-01 -8.581612259149551392e-03
-1.547002345323562622e-01 1.750740408897399902e-01 6.601978093385696411e-03
3.191966190934181213e-02 -5.620474815368652344e-01 1.202295813709497452e-02
1.486594416201114655e-02 -3.191032111644744873e-01 1.537714898586273193e-02
-1.154864281415939331e-01 7.349267005920410156e-01 -6.130394060164690018e-03
-4.742567613720893860e-02 -3.918871581554412842e-01 1.081204973161220551e-02
-1.350673884153366089e-01 4.195057749748229980e-01 -1.036971900612115860e-02
1.261975020170211792e-01 -7.920991182327270508e-01 3.277633804827928543e-03
3.222572058439254761e-02 -3.490940332412719727e-01 1.525702234357595444e-02
4.791636019945144653e-02 -6.679213643074035645e-01 -9.143526665866374969e-03
-1.127027496695518494e-01 -4.572055488824844360e-02 -9.982501156628131866e-03
6.033983081579208374e-02 4.641659855842590332e-01 1.455483608879148960e-03
2.967237122356891632e-02 -3.262755870819091797e-01 -1.499985996633768082e-02
-1.064338460564613342e-01 -2.061281800270080566e-01 -6.874939426779747009e-03
4.587825387716293335e-02 -2.492485642433166504e-01 -1.542473398149013519e-02
-4.281031340360641479e-02 5.966781377792358398e-01 1.057460624724626541e-02
3.815290331840515137e-02 -6.718208789825439453e-01 9.162159636616706848e-03
5.451052915304899216e-03 -1.097942516207695007e-01 1.656391657888889313e-02
-9.350726008415222168e-02 -1.604318618774414062e-01 -1.034438796341419220e-02
1.215915977954864502e-01 -7.416916489601135254e-01 6.471714936196804047e-03
-8.859217911958694458e-02 7.844994664192199707e-01 3.966537304222583771e-03
-6.115072220563888550e-02 4.272520244121551514e-01 -1.379946433007717133e-02
-1.030628085136413574e-01 -1.420325338840484619e-01 9.918530471622943878e-03
-3.993515297770500183e-02 5.355724692344665527e-01 -1.184513233602046967e-02
-8.778034150600433350e-02 1.507785916328430176e-01 1.450647134333848953e-02
-8.633399754762649536e-02 1.610804907977581024e-02 1.394286286085844040e-02
4.389613494277000427e-02 -6.114369034767150879e-01 1.120593026280403137e-02
-1.480178982019424438e-01 3.892480134963989258e-01 -8.935335092246532440e-03
-1.084220111370086670e-01 -3.844401240348815918e-02 -1.068724039942026138e-02
-5.721488967537879944e-03 -3.461267352104187012e-01 -1.401946786791086197e-02
1.042727455496788025e-01 -7.677748203277587891e-01 -5.828570574522018433e-03
-9.076215326786041260e-02 -3.419165611267089844e-01 -4.339677747339010239e-03
7.557395100593566895e-02 -3.971198797225952148e-01 1.431193947792053223e-02
1.511431932449340820e-01 -5.430381298065185547e-01 7.471224293112754822e-03
8.559758216142654419e-02 -5.839927196502685547e-01 -1.134527754038572311e-02
-1.423588693141937256e-01 4.974714815616607666e-01 9.361111558973789215e-03
4.416753724217414856e-02 -7.034271359443664551e-01 8.266312070190906525e-03
-1.044157296419143677e-01 -2.141042426228523254e-02 1.189286354929208755e-02
2.993467263877391815e-02 3.325978517532348633e-01 1.261763647198677063e-02
-2.619340084493160248e-02 2.000829577445983887e-01 -1.579349674284458160e-02
-3.839227184653282166e-02 -2.207575738430023193e-01 -1.416204404085874557e-02
-9.566083550453186035e-02 -2.359370589256286621e-01 8.580631576478481293e-03
-5.207190290093421936e-02 -6.765639781951904297e-02 -1.495825406163930893e-02
8.947619795799255371e-02 -6.248542666435241699e-01 1.100104860961437225e-02
9.564612060785293579e-03 2.892622053623199463e-01 1.449852064251899719e-02
-4.668124020099639893e-02 9.050974994897842407e-02 -1.577272824943065643e-02
8.543501049280166626e-02 -7.958105206489562988e-01 5.159278865903615952e-03
1.317779421806335449e-01 -1.889429092407226562e-01 -9.674666449427604675e-03
-1.340815052390098572e-02 4.353668093681335449e-01 1.310784183442592621e-02
9.573043137788772583e-02 1.942304521799087524e-02 1.195799373090267181e-02
-7.064410299062728882e-02 2.681753933429718018e-01 1.512798294425010681e-02
8.046232908964157104e-02 -2.052688300609588623e-01 -1.436256803572177887e-02
-3.493582084774971008e-02 3.091306388378143311e-01 -1.504845637828111649e-02
-7.403267174959182739e-02 4.762496650218963623e-01 1.326814759522676468e-02
-4.263336583971977234e-02 -2.002560794353485107e-01 1.465600822120904922e-02
-4.368886724114418030e-02 -3.131831288337707520e-01 1.291650347411632538e-02
-5.152484402060508728e-02 6.566738486289978027e-01 9.044830687344074249e-03
1.269455105066299438e-01 -5.028808712959289551e-01 -1.026101130992174149e-02
-4.858168540522456169e-04 -4.632788524031639099e-02 1.666033081710338593e-02
-1.626313775777816772e-01 4.026260077953338623e-01 -6.420837249606847763e-03
1.458898186683654785e-01 -2.361325025558471680e-01 -7.796677295118570328e-03
5.803811177611351013e-02 1.068708002567291260e-01 -1.389733981341123581e-02
-5.586148472502827644e-04 5.153176784515380859e-01 -1.035682857036590576e-02
-4.747686907649040222e-02 -3.433588147163391113e-01 -1.144564244896173477e-02
-1.616819761693477631e-02 4.521795213222503662e-01 -1.273495331406593323e-02
-6.277938932180404663e-02 5.073398351669311523e-04 -1.487511675804853439e-02
1.544863879680633545e-01 -1.504646241664886475e-01 -3.527338849380612373e-03
5.108736455440521240e-02 1.362176239490509033e-02 1.535626780241727829e-02
-1.464269757270812988e-01 3.457142114639282227e-01 -9.161063469946384430e-03
-8.673068135976791382e-02 4.390869438648223877e-01 -1.318961940705776215e-02
-1.325395852327346802e-01 -7.855063676834106445e-02 5.455596838146448135e-03
-6.341971457004547119e-02 4.981973469257354736e-01 -1.282563153654336929e-02
1.343831121921539307e-01 -5.744032859802246094e-01 9.220692329108715057e-03
1.368925720453262329e-01 -3.276903629302978516e-01 1.013353932648897171e-02
3.427331894636154175e-02 -2.300971448421478271e-01 -1.565177179872989655e-02
-1.481230258941650391e-01 6.943661570549011230e-01 4.579878412187099457e-03
3.336868248879909515e-03 -4.731710255146026611e-01 -1.221613679081201553e-02
-6.254852563142776489e-02 4.906042516231536865e-01 1.314159110188484192e-02
5.248222872614860535e-02 -4.376398921012878418e-01 1.433047465980052948e-02
6.179853808134794235e-04 3.091178536415100098e-01 1.458192523568868637e-02
-5.186560750007629395e-02 -3.998748064041137695e-01 -9.494596160948276520e-03
3.705024346709251404e-02 -9.717284142971038818e-02 -1.589931361377239227e-02
1.318405121564865112e-01 -2.141810953617095947e-01 1.018058508634567261e-02
5.659906193614006042e-02 -9.938191622495651245e-02 1.562291011214256287e-02
-6.345573812723159790e-02 1.093512773513793945e-02 1.530774589627981186e-02
-7.379598915576934814e-02 5.359396934509277344e-01 -1.216168794780969620e-02
3.460956364870071411e-02 -5.152944326400756836e-01 1.304682064801454544e-02
3.681030869483947754e-02 -5.599775314331054688e-01 1.221288274973630905e-02
-1.486229002475738525e-01 3.035164773464202881e-01 9.097081609070301056e-03
1.267250031232833862e-01 -5.636629462242126465e-01 1.006159652024507523e-02
5.116830766201019287e-02 2.624627351760864258e-01 1.227118354290723801e-02
3.237985819578170776e-02 4.766635596752166748e-02 1.591283828020095825e-02
1.431630700826644897e-01 -3.461214005947113037e-01 9.311304427683353424e-03
-2.151967398822307587e-02 5.386683940887451172e-01 1.118206419050693512e-02
-5.358418449759483337e-03 3.432481884956359863e-01 -1.412347797304391861e-02
-1.459247618913650513e-01 5.167444944381713867e-01 -8.476487360894680023e-03
-1.434766314923763275e-02 4.205532744526863098e-02 -1.627621799707412720e-02
7.716234028339385986e-02 -5.150348544120788574e-01 1.307142432779073715e-02
-4.265225958079099655e-03 3.011035919189453125e-02 -1.630339771509170532e-02
8.879094570875167847e-02 -1.706633158028125763e-02 -1.283946260809898376e-02
1.552345603704452515e-01 -2.192705869674682617e-01 5.538048222661018372e-03
-4.268396273255348206e-02 -1.454665064811706543e-01 -1.476107724010944366e-02
-8.793988078832626343e-02 3.715552985668182373e-01 1.397968735545873642e-02
-1.104819849133491516e-01 6.727308034896850586e-01 -8.451872505247592926e-03
2.971649356186389923e-02 1.016106531023979187e-01 -1.538702845573425293e-02
1.238575503230094910e-01 -2.977996170520782471e-01 1.157778780907392502e-02
5.731629580259323120e-02 9.087977930903434753e-03 1.507215946912765503e-02
2.339731156826019287e-02 2.571059763431549072e-01 -1.408524997532367706e-02
-7.375838607549667358e-02 6.648942828178405762e-01 -9.225624613463878632e-03
1.348815485835075378e-02 2.317748665809631348e-01 1.505213789641857147e-02
8.646684885025024414e-02 -4.714123606681823730e-01 1.332159992307424545e-02
-7.475478202104568481e-02 2.898034825921058655e-02 -1.438356842845678329e-02
2.428702451288700104e-02 -2.477038800716400146e-01 -1.558683626353740692e-02
6.179548054933547974e-02 -3.980481624603271484e-02 1.514156255871057510e-02
3.564711287617683411e-02 -7.528799176216125488e-01 -4.099276848137378693e-03
-8.307573944330215454e-02 7.286543250083923340e-01 7.142031099647283554e-03
1.137781515717506409e-01 -6.684169173240661621e-02 -1.074708905071020126e-02
-5.756729841232299805e-02 5.503039956092834473e-01 -1.187694352120161057e-02
5.590207129716873169e-02 -6.315464973449707031e-01 1.096737198531627655e-02
-9.010629355907440186e-02 1.445938646793365479e-01 1.435130648314952850e-02
-1.247389987111091614e-01 2.524992525577545166e-01 1.189586333930492401e-02
1.623711735010147095e-01 -4.780110418796539307e-01 5.729469470679759979e-03
1.132483631372451782e-01 -2.679259777069091797e-01 -1.219443045556545258e-02
4.048484191298484802e-02 -2.935891747474670410e-01 -1.524216216057538986e-02
4.566376283764839172e-02 2.025382518768310547e-01 1.372684724628925323e-02
1.028174236416816711e-01 -1.975393593311309814e-01 -1.288157701492309570e-02
-1.903112605214118958e-02 1.795992851257324219e-01 -1.588511094450950623e-02
1.128331348299980164e-01 -4.811046421527862549e-01 1.193785481154918671e-02
-1.080631613731384277e-01 4.398462176322937012e-01 1.254878006875514984e-02
-8.756686747074127197e-02 -8.953611552715301514e-02 1.272312644869089127e-02
9.439849108457565308e-02 2.145266234874725342e-01 7.702055387198925018e-03
-1.226210445165634155e-01 5.875701308250427246e-01 -9.638235904276371002e-03
-1.006903722882270813e-01 3.063779473304748535e-01 1.370811183005571365e-02
-7.261705398559570312e-02 4.955632984638214111e-01 -1.280445978045463562e-02
3.231817111372947693e-02 -3.764121234416961670e-01 -1.451325789093971252e-02
3.592864423990249634e-02 5.172488093376159668e-01 -5.537754390388727188e-03
8.050809055566787720e-02 -7.222082018852233887e-01 8.548764511942863464e-03
-1.276123076677322388e-01 6.354689002037048340e-01 8.572570979595184326e-03
-1.556505076587200165e-02 4.140427410602569580e-01 -1.339279394596815109e-02
1.346915811300277710e-01 -4.117876291275024414e-01 -1.003732532262802124e-02
6.301959604024887085e-02 -2.133677303791046143e-01 1.547118276357650757e-02
5.474430695176124573e-02 -3.898698389530181885e-01 1.479964144527912140e-02
4.700949415564537048e-02 -6.452157497406005859e-01 1.038600690662860870e-02
1.346082091331481934e-01 -7.217264771461486816e-01 5.930259823799133301e-03
-1.197191998362541199e-01 5.811101198196411133e-02 -1.062952168285846710e-02
9.886464476585388184e-02 1.415908634662628174e-01 9.143448434770107269e-03
5.674734711647033691e-02 1.512803137302398682e-04 -1.488267257809638977e-02
-1.680777035653591156e-02 -1.071353908628225327e-02 1.659683138132095337e-02
-1.259464472532272339e-01 7.583305835723876953e-01 -4.210606217384338379e-03
8.154114335775375366e-02 -3.474404215812683105e-01 1.440084259957075119e-02
-1.146136373281478882e-01 7.289290428161621094e-02 -1.141543313860893250e-02
1.513537485152482986e-03 4.719443991780281067e-02 -1.624860614538192749e-02
1.396124064922332764e-02 -2.287074327468872070e-01 -1.566050760447978973e-02
-2.138728741556406021e-04 3.249257504940032959e-01 -1.419487688690423965e-02
-1.223668977618217468e-01 1.457656733691692352e-03 -9.390165098011493683e-03
1.333529800176620483e-01 -6.863716840744018555e-01 7.170808967202901840e-03
-1.387875080108642578e-01 -8.455359190702438354e-02 -9.729531593620777130e-04
1.225033849477767944e-01 -7.625275254249572754e-01 -4.974578972905874252e-03
-1.032406911253929138e-01 -1.802015900611877441e-01 8.906580507755279541e-03
1.298290044069290161e-01 -7.421501278877258301e-01 5.688312929123640060e-03
8.406687527894973755e-02 -3.172692060470581055e-01 1.441014651209115982e-02
-5.549924820661544800e-02 4.839497506618499756e-01 1.323097199201583862e-02
-3.027306310832500458e-02 -2.729879021644592285e-01 -1.391391456127166748e-02
1.123222634196281433e-01 -1.674757897853851318e-01 1.216142717748880386e-02
-2.153002284467220306e-02 5.574227571487426758e-01 1.066833641380071640e-02
-3.725114464759826660e-02 -4.446398913860321045e-01 -9.832438081502914429e-03
-1.250712573528289795e-02 -3.159742653369903564e-01 1.466015819460153580e-02
3.353165835142135620e-02 1.476820409297943115e-01 1.508968509733676910e-02
7.096137851476669312e-02 -8.026579618453979492e-01 4.125112667679786682e-03
-9.133065491914749146e-02 4.010102152824401855e-01 -1.336253155022859573e-02
-3.695344319567084312e-03 5.866215825080871582e-01 -8.155856281518936157e-03
-4.824969917535781860e-02 3.857116401195526123e-01 -1.431739702820777893e-02
-2.592486329376697540e-02 4.139986038208007812e-01 1.388241257518529892e-02
1.289726346731185913e-01 4.559636116027832031e-02 5.434380844235420227e-03
6.295252591371536255e-02 -4.523392319679260254e-01 -1.360084395855665207e-02
-3.794842213392257690e-02 5.714736878871917725e-02 1.631717383861541748e-02
8.642053604125976562e-02 -3.031268902122974396e-02 1.342731621116399765e-02
5.761029571294784546e-02 1.774355173110961914e-01 -1.301281526684761047e-02
3.346360847353935242e-02 -1.042500585317611694e-01 1.632562093436717987e-02
-6.162603944540023804e-02 3.663633167743682861e-01 1.466640923172235489e-02
9.793890640139579773e-03 4.587809443473815918e-01 -1.111854705959558487e-02
-1.612383574247360229e-01 4.564241766929626465e-01 6.907062605023384094e-03
8.509977906942367554e-02 8.539381623268127441e-02 -1.190332975238561630e-02
1.665152981877326965e-02 2.792613506317138672e-01 -1.411466486752033234e-02
1.041915714740753174e-01 -1.857483386993408203e-01 1.303023193031549454e-02
1.245804503560066223e-01 -4.002507030963897705e-02 -8.701520971953868866e-03
-6.283865869045257568e-02 5.868677496910095215e-01 1.130956597626209259e-02
2.301239781081676483e-02 -5.119594335556030273e-01 1.279071625322103500e-02
-1.775741018354892731e-02 5.932062864303588867e-01 9.275433607399463654e-03
-2.464245632290840149e-02 -4.942860901355743408e-01 -9.624059312045574188e-03
9.785777330398559570e-02 -2.556309401988983154e-01 -1.335997227579355240e-02
-8.129701018333435059e-02 4.237485229969024658e-01 1.374321524053812027e-02
8.522514998912811279e-02 -6.523275375366210938e-01 1.049082912504673004e-02
-1.286388784646987915e-01 2.988111376762390137e-01 -1.122166868299245834e-02
-1.678086370229721069e-01 3.992792963981628418e-01 -5.146355833858251572e-03
-7.667126506567001343e-02 2.808730304241180420e-01 1.488234568387269974e-02
1.344909071922302246e-01 -3.586401045322418213e-01 1.048368215560913086e-02
7.891704887151718140e-02 -2.896474301815032959e-01 1.471685525029897690e-02
-6.297063082456588745e-02 -2.065888047218322754e-01 1.319744624197483063e-02
-1.166603490710258484e-01 4.045060276985168457e-02 1.124659180641174316e-02
2.123999036848545074e-02 1.891491115093231201e-01 -1.496913563460111618e-02
5.707640200853347778e-02 -4.848521649837493896e-01 1.372025534510612488e-02
-1.490826308727264404e-01 1.046129837632179260e-01 -6.129070650786161423e-03
8.043851703405380249e-02 3.636216819286346436e-01 3.317368915304541588e-03
-4.153319448232650757e-02 -6.507451832294464111e-02 -1.542595680803060532e-02
7.400887459516525269e-02 -4.044904708862304688e-01 1.430100575089454651e-02
-1.283111572265625000e-01 5.826474428176879883e-01 -9.314688853919506073e-03
9.807740896940231323e-02 -1.087342426180839539e-01 -1.280874758958816528e-02
6.339573115110397339e-02 -3.128258287906646729e-01 1.516697369515895844e-02
-8.449607342481613159e-02 3.368360996246337891e-01 -1.403885707259178162e-02
2.521120384335517883e-02 -3.679169416427612305e-01 -1.453495584428310394e-02
6.082113832235336304e-02 -5.189823508262634277e-01 1.321555674076080322e-02
9.187040850520133972e-03 -5.522315502166748047e-01 1.122282072901725769e-02
1.270103268325328827e-03 4.173613488674163818e-01 -1.260052993893623352e-02
-1.049466580152511597e-01 7.583111524581909180e-02 1.286306604743003845e-02
9.511893242597579956e-02 -4.793483614921569824e-01 1.290926709771156311e-02
6.613121926784515381e-02 -4.810211360454559326e-01 1.369245164096355438e-02
1.049332991242408752e-01 -3.429534733295440674e-01 1.316979713737964630e-02
-1.828715018928050995e-02 -1.666217744350433350e-01 -1.551215909421443939e-02
-5.849289707839488983e-03 1.616269946098327637e-01 1.615161262452602386e-02
1.470475047826766968e-01 -1.495338678359985352e-01 6.361844018101692200e-03
-4.492307081818580627e-03 6.026463508605957031e-01 7.624522317200899124e-03
1.099966838955879211e-02 5.551760196685791016e-01 7.869879715144634247e-03
-1.698873788118362427e-01 3.130486607551574707e-01 -3.750165924429893494e-03
1.226912066340446472e-01 -4.726299941539764404e-01 -1.086412649601697922e-02
-4.976528510451316833e-02 2.514394372701644897e-02 -1.554517075419425964e-02
4.740697890520095825e-02 2.856827676296234131e-01 1.213948335498571396e-02
5.619150772690773010e-02 3.240461051464080811e-01 -1.016247831284999847e-02
1.286382228136062622e-01 -5.974819660186767578e-01 -8.963829837739467621e-03
-6.313193589448928833e-02 7.765848040580749512e-01 -2.848754636943340302e-03
-5.642705038189888000e-02 -1.202049180865287781e-01 1.472708303481340408e-02
3.244038298726081848e-02 7.394946366548538208e-02 1.574778184294700623e-02
-1.137031838297843933e-01 -5.131471902132034302e-02 -9.731463156640529633e-03
-2.542285621166229248e-02 3.223973810672760010e-01 1.507226284593343735e-02
-1.272258721292018890e-02 -1.324478536844253540e-01 -1.586855202913284302e-02
1.369374394416809082e-01 -3.093996345996856689e-01 -9.741444140672683716e-03
5.999306682497262955e-03 -6.490709185600280762e-01 7.487336639314889908e-03
-1.336239576339721680e-01 6.347199529409408569e-02 9.079225361347198486e-03
-7.200720161199569702e-02 -3.456091135740280151e-02 1.453361939638853073e-02
8.290502429008483887e-02 -3.038330972194671631e-01 1.450271066278219223e-02
-5.117220431566238403e-02 -1.079764962196350098e-02 1.574733853340148926e-02
-5.727352946996688843e-02 -2.015559077262878418e-01 1.371125131845474243e-02
3.871220350265502930e-02 -7.757725715637207031e-01 -2.140970667824149132e-03
1.244696304202079773e-01 -5.494816899299621582e-01 -9.973924607038497925e-03
-1.119117140769958496e-01 2.243324518203735352e-01 1.298586931079626083e-02
4.130668565630912781e-02 2.159678637981414795e-01 -1.362153701484203339e-02
-2.847767993807792664e-02 -4.231670796871185303e-01 -1.124689728021621704e-02
-1.111038774251937866e-01 -1.974493861198425293e-01 6.637704558670520782e-03
4.832515493035316467e-02 4.449700415134429932e-01 -7.001997437328100204e-03
1.262909770011901855e-01 -4.932874441146850586e-01 1.081916131079196930e-02
-1.278926730155944824e-01 -8.522904664278030396e-02 6.586026400327682495e-03
-5.621347203850746155e-02 4.808325320482254028e-02 -1.538003981113433838e-02
-7.860229164361953735e-02 -8.350631594657897949e-02 -1.311988383531570435e-02
7.788787037134170532e-02 -7.728241682052612305e-01 -5.795763339847326279e-03
-8.792319893836975098e-02 -2.770462036132812500e-01 -8.063166402280330658e-03
5.464015528559684753e-02 -6.372308731079101562e-01 1.079824194312095642e-02
-8.072527498006820679e-02 -2.454369366168975830e-01 1.061208080500364304e-02
9.282676875591278076e-02 -1.174133643507957458e-01 1.358726527541875839e-02
-1.011636555194854736e-01 9.872805327177047729e-02 -1.294349413365125656e-02
2.917879261076450348e-02 -7.161787152290344238e-01 -5.865110550075769424e-03
-7.083480805158615112e-02 1.422178447246551514e-01 -1.498347986489534378e-02
-1.683630049228668213e-02 4.185285270214080811e-01 1.353944092988967896e-02
1.296287029981613159e-01 -2.969220578670501709e-01 1.094002742320299149e-02
1.726028695702552795e-02 2.055780887603759766e-01 1.519191917032003403e-02
-1.029914394021034241e-01 1.831216812133789062e-01 -1.320446934551000595e-02
3.536461666226387024e-02 -5.351407527923583984e-01 -1.214968506246805191e-02
5.594077333807945251e-02 -6.022282838821411133e-01 -1.111769117414951324e-02
-1.168190687894821167e-02 -4.875394105911254883e-01 -1.095272600650787354e-02
8.089985698461532593e-02 -6.552737355232238770e-01 -9.936778806149959564e-03
-2.688067220151424408e-02 -5.868260860443115234e-01 -5.183652509003877640e-03
-6.011527776718139648e-02 2.219118177890777588e-02 1.551472209393978119e-02
-1.533500254154205322e-01 6.914311647415161133e-01 -3.413444850593805313e-03
7.984647154808044434e-02 -4.886397421360015869e-01 -1.286748796701431274e-02
-1.663437783718109131e-01 2.010671198368072510e-01 2.869351534172892570e-03
2.412472292780876160e-02 -5.683012008666992188e-01 1.157939154654741287e-02
-2.283422835171222687e-02 2.118144631385803223e-01 -1.572077348828315735e-02
-1.269407421350479126e-01 7.808835506439208984e-01 2.417315030470490456e-03
-1.122493967413902283e-01 4.098084270954132080e-01 1.253542676568031311e-02
-1.721256077289581299e-01 5.753332376480102539e-01 1.831385190598666668e-03
1.572934910655021667e-02 -2.765270769596099854e-01 1.576624438166618347e-02
4.222941026091575623e-02 -5.645956397056579590e-01 1.224423106759786606e-02
1.367457211017608643e-01 -7.043514847755432129e-01 6.261661183089017868e-03
-1.150931604206562042e-02 -2.038953304290771484e-01 1.585060730576515198e-02
-1.522514671087265015e-01 3.070753812789916992e-01 -8.141266182065010071e-03
2.447929792106151581e-02 -3.623332977294921875e-01 1.506281457841396332e-02
1.494218595325946808e-02 9.808767586946487427e-02 -1.585002057254314423e-02
-6.362387537956237793e-02 5.665866136550903320e-01 -1.159799005836248398e-02
-3.274920582771301270e-02 1.626683175563812256e-01 -1.592383719980716705e-02
-2.826717309653759003e-02 7.330874800682067871e-01 1.596870279172435403e-04
-5.938407406210899353e-02 5.106320977210998535e-01 -1.262079831212759018e-02
-2.255975641310214996e-02 -7.777719944715499878e-02 1.633333228528499603e-02
-2.416295930743217468e-02 -3.893422186374664307e-01 -1.232029777020215988e-02
-5.591471120715141296e-02 1.564880013465881348e-01 -1.551422290503978729e-02
-3.900176286697387695e-02 -4.741157293319702148e-01 9.243405424058437347e-03
2.368170954287052155e-02 -1.151708289980888367e-01 -1.610714197158813477e-02
5.425294861197471619e-02 3.395027816295623779e-01 1.010252907872200012e-02
-5.744934827089309692e-02 6.872988343238830566e-01 8.148434571921825409e-03
-1.602146029472351074e-01 6.211257576942443848e-01 4.704705439507961273e-03
3.421533852815628052e-02 -4.673001766204833984e-01 -1.333194971084594727e-02
9.052803367376327515e-02 -8.232508897781372070e-01 -2.172312000766396523e-03
-7.415580004453659058e-02 7.239491939544677734e-01 -7.073820102959871292e-03
-8.913241326808929443e-03 2.735154330730438232e-01 -1.505204755812883377e-02
6.601426750421524048e-02 3.675687909126281738e-01 -7.161532063037157059e-03
4.004265740513801575e-02 -2.431743443012237549e-01 -1.553278230130672455e-02
1.605905443429946899e-01 -2.179708480834960938e-01 3.350050654262304306e-03
1.103594973683357239e-01 -1.265001296997070312e-01 1.204433478415012360e-02
3.575665876269340515e-02 2.218006849288940430e-01 -1.388375833630561829e-02
4.645803198218345642e-02 -3.921907246112823486e-01 1.484201569110155106e-02
6.309026479721069336e-02 -6.351681351661682129e-01 1.097028236836194992e-02
-1.383168101310729980e-01 2.478348091244697571e-02 -6.834913510829210281e-03
6.721351761370897293e-03 -4.421212673187255859e-01 -1.297367829829454422e-02
-9.616880863904953003e-02 -2.641332447528839111e-01 -6.907816044986248016e-03
-1.056351289153099060e-01 6.946504712104797363e-01 8.149843662977218628e-03
1.591423600912094116e-01 -5.331457257270812988e-01 -5.689824000000953674e-03
-5.404957383871078491e-02 6.372416391968727112e-04 -1.527937874197959900e-02
6.746055185794830322e-02 -3.523803949356079102e-01 -1.441984530538320541e-02
-5.226894468069076538e-02 -9.198342263698577881e-02 -1.475893147289752960e-02
-1.084475889801979065e-01 3.028370738029479980e-01 -1.290618907660245895e-02
-1.488046944141387939e-01 2.172479778528213501e-02 3.747946582734584808e-03
1.002379655838012695e-01 1.618135534226894379e-02 1.149030774831771851e-02
-4.127646796405315399e-03 -5.360452532768249512e-01 1.076662633568048477e-02
1.274663656949996948e-01 8.716440200805664062e-02 -3.651575418189167976e-03
-9.366957098245620728e-02 6.970330476760864258e-01 -8.192447945475578308e-03
-4.802347160875797272e-03 -3.268744647502899170e-01 -1.431509945541620255e-02
5.485732853412628174e-02 -1.085400283336639404e-01 -1.538338232785463333e-02
-9.373882412910461426e-02 4.882989823818206787e-01 -1.242637448012828827e-02
-8.170159906148910522e-02 1.084635481238365173e-01 1.474447082728147507e-02
2.403903938829898834e-02 -6.066772937774658203e-01 -9.953505359590053558e-03
7.771596312522888184e-02 -3.628962337970733643e-01 1.446521654725074768e-02
2.228336594998836517e-02 5.454198718070983887e-01 6.655567325651645660e-03
-6.274039857089519501e-03 -2.607616186141967773e-01 1.549352053552865982e-02
1.583984643220901489e-01 -2.923624813556671143e-01 5.874620750546455383e-03
-6.623358931392431259e-03 -5.097211599349975586e-01 -1.073907222598791122e-02
6.236398220062255859e-02 -7.186116576194763184e-01 -7.831444963812828064e-03
-1.522602438926696777e-01 6.991921663284301758e-01 3.478552214801311493e-03
-8.271890878677368164e-02 7.156284451484680176e-01 -7.559398654848337173e-03
-1.102192178368568420e-01 5.014415383338928223e-01 -1.156487688422203064e-02
-2.447061613202095032e-02 5.059171915054321289e-01 1.211425568908452988e-02
1.432526484131813049e-02 -2.682274580001831055e-01 1.581658981740474701e-02
-2.799131907522678375e-03 -6.898211240768432617e-01 2.434067893773317337e-03
-1.241487786173820496e-01 4.290250316262245178e-02 1.026984956115484238e-02
-1.250525265932083130e-01 6.897017955780029297e-01 -7.150164339691400528e-03
1.889634691178798676e-02 4.419299662113189697e-01 1.095145940780639648e-02
-9.966634958982467651e-02 3.437818586826324463e-01 -1.331818290054798126e-02
6.051999330520629883e-02 -4.646883606910705566e-01 -1.347623299807310104e-02
1.160482168197631836e-01 -2.205575704574584961e-01 -1.178742852061986923e-02
-1.215716265141963959e-02 -3.865381181240081787e-01 1.361445616930723190e-02
-3.759504295885562897e-03 -4.255617558956146240e-01 1.333971787244081497e-02
-8.807910978794097900e-02 1.983144283294677734e-01 1.454646326601505280e-02
1.258558630943298340e-01 -2.097489535808563232e-01 -1.064111106097698212e-02
-9.361025877296924591e-03 -2.180983722209930420e-01 -1.534311752766370773e-02
-9.369924664497375488e-03 1.401856839656829834e-01 1.631118543446063995e-02
2.091506682336330414e-02 -7.321122884750366211e-01 4.117332398891448975e-03
-9.122288972139358521e-02 2.953651249408721924e-01 1.423621922731399536e-02
-1.682831794023513794e-01 4.643414914608001709e-01 -4.915780853480100632e-03
1.822477765381336212e-02 -6.348146200180053711e-01 9.239442646503448486e-03
1.487257480621337891e-01 -6.366009712219238281e-01 -5.925336852669715881e-03
-1.344612613320350647e-02 6.645463109016418457e-01 -5.275518167763948441e-03
3.244087565690279007e-03 -6.319478750228881836e-01 -7.369205355644226074e-03
-8.167181164026260376e-02 2.093997225165367126e-02 -1.388555485755205154e-02
-2.374621666967868805e-02 2.694647610187530518e-01 -1.531664561480283737e-02
1.323081403970718384e-01 -7.786451578140258789e-01 3.345454111695289612e-03
1.369698047637939453e-01 -2.528973519802093506e-01 9.749395772814750671e-03
9.758967906236648560e-02 -2.981532216072082520e-01 -1.335475035011768341e-02
-6.124916300177574158e-02 1.794863641262054443e-01 1.566540636122226715e-02
-4.700304195284843445e-02 -3.075743615627288818e-01 1.276041474193334579e-02
-1.084205731749534607e-01 -2.654685378074645996e-01 -2.932670060545206070e-03
2.613997459411621094e-02 1.448012888431549072e-03 1.630148850381374359e-02
-3.220814839005470276e-02 2.688114643096923828e-01 1.562805846333503723e-02
1.373467892408370972e-01 -1.972497105598449707e-01 9.171359241008758545e-03
-1.787184923887252808e-02 3.196462988853454590e-01 1.497242227196693420e-02
-5.507212504744529724e-02 8.808273822069168091e-02 1.588190719485282898e-02
1.601311415433883667e-01 -2.180264592170715332e-01 -3.333912231028079987e-03
-7.567885518074035645e-02 9.437371045351028442e-04 1.456477399915456772e-02
-6.479576230049133301e-02 1.352958977222442627e-01 -1.522184442728757858e-02
5.257298797369003296e-02 -6.402728557586669922e-01 -1.010912843048572540e-02
2.699157781898975372e-02 5.187012553215026855e-01 -7.159542292356491089e-03
4.234811291098594666e-03 5.521348118782043457e-01 -8.695708587765693665e-03
1.306130886077880859e-01 -6.240484118461608887e-01 8.807618170976638794e-03
8.511675987392663956e-04 3.609724640846252441e-01 -1.362184062600135803e-02
-1.477635651826858521e-01 4.020054340362548828e-01 9.278459474444389343e-03
-4.814343154430389404e-02 7.569353580474853516e-01 -2.869489835575222969e-03
-1.489745378494262695e-01 7.181031703948974609e-01 3.154387231916189194e-03
1.522235274314880371e-01 -1.183285638689994812e-01 3.436155850067734718e-03
-5.999935045838356018e-02 1.295232176780700684e-01 -1.539166271686553955e-02
-1.702505052089691162e-01 4.597221314907073975e-01 4.685914143919944763e-03
8.152291178703308105e-02 -3.589944839477539062e-01 1.434487476944923401e-02
1.099156774580478668e-02 7.215894758701324463e-03 -1.623523235321044922e-02
-1.473626345396041870e-01 3.730517923831939697e-01 9.383568540215492249e-03
1.162968948483467102e-01 -6.260311007499694824e-01 9.855205193161964417e-03
-1.662768609821796417e-02 -4.773210883140563965e-01 -1.083891652524471283e-02
-1.991882547736167908e-02 1.055224984884262085e-02 -1.622038707137107849e-02
3.777717798948287964e-02 -3.499754071235656738e-01 -1.480357162654399872e-02
-3.403078019618988037e-02 7.164835333824157715e-01 -4.570505581796169281e-03
6.329891085624694824e-02 -5.862640738487243652e-01 -1.151629723608493805e-02
1.456514149904251099e-01 -1.918918788433074951e-01 -7.254309486597776413e-03
2.827426046133041382e-02 2.636568844318389893e-01 -1.373006310313940048e-02
-9.792369604110717773e-02 1.007341220974922180e-02 1.292326394468545914e-02
-1.151487305760383606e-01 7.093341946601867676e-01 -7.120054680854082108e-03
-7.373812794685363770e-02 4.433951675891876221e-01 1.368789747357368469e-02
1.595926880836486816e-01 -3.468264639377593994e-01 6.144393235445022583e-03
2.472116053104400635e-02 4.669223725795745850e-01 9.623768739402294159e-03
8.710186183452606201e-02 -6.937869191169738770e-01 -8.846730925142765045e-03
7.572305202484130859e-02 1.593962013721466064e-01 1.183826941996812820e-02
8.033245801925659180e-02 -7.460075020790100098e-01 -7.074944674968719482e-03
-1.050058156251907349e-01 2.478471100330352783e-01 1.352375652641057968e-02
-9.539977461099624634e-02 2.384961545467376709e-01 -1.378727704286575317e-02
7.753994781523942947e-03 -1.230242475867271423e-01 -1.614538021385669708e-02
1.725153438746929169e-02 -5.707780122756958008e-01 1.118291821330785751e-02
-1.242085769772529602e-01 7.198484539985656738e-01 6.347769871354103088e-03
-3.222745284438133240e-02 -5.670184493064880371e-01 -5.348604172468185425e-03
3.598950803279876709e-03 4.252565503120422363e-01 1.246266532689332962e-02
-9.074169397354125977e-02 4.925455152988433838e-01 -1.247064676135778427e-02
1.969935745000839233e-02 -2.265068590641021729e-01 -1.570667698979377747e-02
5.864601116627454758e-03 6.452713608741760254e-01 -2.268440322950482368e-03
1.197403669357299805e-01 -1.050552353262901306e-01 1.069812290370464325e-02
1.252712458372116089e-01 -6.749668717384338379e-01 8.198720403015613556e-03
8.101091533899307251e-02 -8.252690434455871582e-01 -1.408540643751621246e-03
-9.113081544637680054e-02 5.552157163619995117e-01 1.175592187792062759e-02
-9.747952222824096680e-02 -1.578967273235321045e-01 1.037739589810371399e-02
-4.816087707877159119e-02 7.480270862579345703e-01 3.921282477676868439e-03
-4.073285311460494995e-02 5.736608803272247314e-02 -1.589198410511016846e-02
2.340311370790004730e-02 -5.232434272766113281e-01 1.257465500384569168e-02
1.112858355045318604e-01 -3.636430501937866211e-01 1.267118193209171295e-02
1.337768509984016418e-03 6.632608771324157715e-01 8.956864476203918457e-04
1.636524945497512817e-01 -5.303432345390319824e-01 5.015812814235687256e-03
-1.356741935014724731e-01 7.537578940391540527e-01 3.419611603021621704e-03
-7.097589969635009766e-02 5.981130003929138184e-01 -1.095365453511476517e-02
-1.353001743555068970e-01 3.517879918217658997e-02 8.222821168601512909e-03
1.255869120359420776e-01 -2.564869523048400879e-01 -1.093210186809301376e-02
-3.619771823287010193e-02 2.914515733718872070e-01 1.545457635074853897e-02
-1.065685376524925232e-01 4.743138551712036133e-01 -1.204355619847774506e-02
-1.136096641421318054e-01 4.633073508739471436e-01 1.202666107565164566e-02
-1.000218540430068970e-01 5.621143430471420288e-02 -1.272171642631292343e-02
1.313016265630722046e-01 -3.381466269493103027e-01 -1.049230899661779404e-02
8.348748087882995605e-02 -7.864857912063598633e-01 5.718827247619628906e-03
-1.224577948451042175e-01 5.642492324113845825e-02 1.069717854261398315e-02
1.194482892751693726e-01 1.587524116039276123e-01 -2.108449116349220276e-03
-1.099538058042526245e-04 6.035214066505432129e-01 -6.947857327759265900e-03
-1.144145280122756958e-01 4.148289859294891357e-01 -1.207732968032360077e-02
-1.606612801551818848e-01 2.526363730430603027e-01 -5.872974637895822525e-03
1.568654030561447144e-01 -5.504492521286010742e-01 6.371962837874889374e-03
-7.974530756473541260e-02 -1.575840711593627930e-01 -1.196855958551168442e-02
6.147997081279754639e-02 3.477632999420166016e-01 -8.718457072973251343e-03
1.097111776471138000e-01 -1.173044145107269287e-01 1.203118450939655304e-02
-1.302871853113174438e-01 8.721232414245605469e-02 -9.535706602036952972e-03
1.246234998106956482e-01 -2.055165171623229980e-01 1.105694100260734558e-02
9.355965256690979004e-02 -1.084734126925468445e-01 1.347052678465843201e-02
-5.900314450263977051e-02 7.629480361938476562e-01 -3.812072798609733582e-03
1.426766514778137207e-01 -1.016752943396568298e-01 6.365518551319837570e-03
1.498845517635345459e-01 -4.252056479454040527e-01 8.340482600033283234e-03
-6.982400268316268921e-02 -4.210425540804862976e-04 1.490772794932126999e-02
1.402356177568435669e-01 -5.268297791481018066e-01 -8.704976178705692291e-03
7.776908576488494873e-02 -7.809921503067016602e-01 5.938910413533449173e-03
