-2.696907818317413330e-01 7.532515376806259155e-02 4.324581325054168701e-01
3.071200251579284668e-01 -7.544389367103576660e-02 -4.230969846248626709e-01
-6.024242639541625977e-01 6.946546584367752075e-02 -2.927289605140686035e-01
1.300921589136123657e-01 -1.128714978694915771e-01 3.294372558593750000e-01
2.328917831182479858e-01 1.053862348198890686e-01 -7.836370170116424561e-02
6.096231192350387573e-02 1.232450306415557861e-01 1.504685878753662109e-01
4.874764680862426758e-01 -1.497817337512969971e-01 -4.740924760699272156e-02
1.870352625846862793e-01 -1.500656455755233765e-01 4.796503856778144836e-02
-1.925354003906250000e-01 -6.182565540075302124e-02 3.924731612205505371e-01
-1.280024051666259766e-01 -8.520914614200592041e-02 3.485760688781738281e-01
-3.533773124217987061e-01 1.404153406620025635e-01 2.005068361759185791e-01
-6.088950037956237793e-01 9.364478755742311478e-04 -2.207876890897750854e-01
6.070333719253540039e-01 1.595365814864635468e-02 -1.356746852397918701e-01
1.945307105779647827e-01 -1.394408941268920898e-01 1.967722028493881226e-01
-5.500689744949340820e-01 -3.663259744644165039e-02 -1.404943615198135376e-01
-1.980903744697570801e-01 -5.771448090672492981e-02 4.007086455821990967e-01
-5.485575199127197266e-01 -2.545167692005634308e-02 2.233579009771347046e-01
-6.817166209220886230e-01 1.232421696186065674e-01 2.316738665103912354e-02
6.576498746871948242e-01 -1.041414588689804077e-01 -1.964511722326278687e-01
2.634402811527252197e-01 -6.383897364139556885e-02 -4.448004066944122314e-01
-1.172744780778884888e-01 -1.219931468367576599e-01 1.148842871189117432e-01
-1.083318218588829041e-01 -1.257875263690948486e-01 5.702575668692588806e-02
7.539691925048828125e-01 -6.579913198947906494e-02 4.256540536880493164e-02
1.948645859956741333e-01 -1.410299241542816162e-01 -1.844901740550994873e-01
4.207851886749267578e-01 7.053964585065841675e-02 9.505255520343780518e-02
-2.323046922683715820e-01 6.771843880414962769e-02 -4.360430538654327393e-01
-8.785386383533477783e-02 -1.140156686305999756e-01 2.278735488653182983e-01
9.527663141489028931e-02 1.234794184565544128e-01 8.884117007255554199e-02
1.123149096965789795e-01 1.203698590397834778e-01 -1.022752225399017334e-01
6.655638813972473145e-01 2.454719971865415573e-03 -2.814505062997341156e-02
-5.473232269287109375e-01 -4.488896578550338745e-02 7.053963840007781982e-02
-4.222071915864944458e-02 -1.054311543703079224e-01 -3.014681041240692139e-01
7.098416239023208618e-02 8.154370635747909546e-02 3.767824172973632812e-01
-3.297647833824157715e-01 -8.512689173221588135e-02 -1.658750027418136597e-01
1.192025169730186462e-01 7.337048649787902832e-02 -3.769749999046325684e-01
6.851838827133178711e-01 -7.084746658802032471e-02 -2.147720903158187866e-01
6.770609617233276367e-01 -9.059126488864421844e-03 -1.058289706707000732e-01
-1.393994390964508057e-01 6.316156685352325439e-02 -4.472812116146087646e-01
5.225461721420288086e-01 2.949595265090465546e-02 -2.186310589313507080e-01
3.652665913105010986e-01 -9.666822105646133423e-02 3.711170256137847900e-01
-1.008641794323921204e-01 -1.194399371743202209e-01 -1.652125120162963867e-01
-7.406924366950988770e-01 6.126633659005165100e-02 1.314734965562820435e-01
3.355754911899566650e-01 7.476972043514251709e-02 2.180698961019515991e-01
2.592074573040008545e-01 8.415728807449340820e-02 2.466350048780441284e-01
-2.192761898040771484e-01 5.149225704371929169e-03 -4.696522355079650879e-01
5.150850415229797363e-01 -1.304363310337066650e-01 2.063483744859695435e-01
4.897029995918273926e-01 -1.392132490873336792e-01 1.675823032855987549e-01
-5.865029692649841309e-01 7.740652188658714294e-03 2.827625274658203125e-01
-4.762392938137054443e-01 1.475584357976913452e-01 -6.694990396499633789e-02
-6.692539453506469727e-01 7.689586840569972992e-03 1.549097299575805664e-01
3.055590987205505371e-01 8.114203065633773804e-02 -2.111758291721343994e-01
6.758990883827209473e-01 -1.201831456273794174e-02 1.213683187961578369e-01
-5.477499365806579590e-01 5.578712746500968933e-02 3.551797568798065186e-01
8.219856768846511841e-02 -1.257992088794708252e-01 -2.502455115318298340e-01
-7.265080213546752930e-01 1.080748811364173889e-01 7.728350814431905746e-03
1.071772202849388123e-01 9.337957203388214111e-02 3.156704902648925781e-01
6.142671406269073486e-02 8.479285985231399536e-02 3.699857592582702637e-01
4.832607209682464600e-01 -1.032073944807052612e-01 -3.227590620517730713e-01
3.694934844970703125e-01 -4.346375912427902222e-02 -4.336923360824584961e-01
1.330628097057342529e-01 -1.347124576568603516e-01 -2.114111036062240601e-01
-6.726543307304382324e-01 -2.765722572803497314e-03 6.204617395997047424e-02
-3.938665688037872314e-01 -7.937579602003097534e-02 1.004569083452224731e-01
-2.517987489700317383e-01 -7.941440492868423462e-02 2.958376109600067139e-01
-3.501331806182861328e-01 -6.700191646814346313e-02 -2.574758529663085938e-01
2.538630366325378418e-01 -1.531369835138320923e-01 1.172513421624898911e-02
-2.189617604017257690e-01 1.359164565801620483e-01 -2.084048390388488770e-01
7.309871166944503784e-02 1.004065200686454773e-01 -2.956572771072387695e-01
3.424315750598907471e-01 8.255274593830108643e-02 -1.419994682073593140e-01
-3.459367156028747559e-01 -2.283831872045993805e-02 4.051610529422760010e-01
-4.190205037593841553e-02 1.175956279039382935e-01 -2.631294429302215576e-01
-7.249253392219543457e-01 2.296121418476104736e-02 4.274211078882217407e-02
2.140673249959945679e-01 1.097291484475135803e-01 3.639449924230575562e-02
-3.353151679039001465e-01 -9.259679913520812988e-02 5.511169508099555969e-02
1.130850240588188171e-01 -1.405631154775619507e-01 1.464929580688476562e-01
-6.245652437210083008e-01 1.287297457456588745e-01 -1.031780838966369629e-01
4.952655732631683350e-01 4.320431873202323914e-02 -1.856101304292678833e-01
5.458643436431884766e-01 1.295985840260982513e-02 -2.543539702892303467e-01
5.356455445289611816e-01 -3.338018432259559631e-02 3.436437547206878662e-01
3.972055912017822266e-01 5.424652248620986938e-02 -2.585834562778472900e-01
5.330265164375305176e-01 -1.437292098999023438e-01 -9.698754549026489258e-02
5.417764186859130859e-01 -4.397753626108169556e-03 3.010944724082946777e-01
2.617429494857788086e-01 5.851963534951210022e-02 -3.515388071537017822e-01
-9.748843498528003693e-03 -5.277187004685401917e-02 4.618539810180664062e-01
3.521432578563690186e-01 -5.990140885114669800e-02 4.285706877708435059e-01
-3.137317299842834473e-02 9.856973588466644287e-02 3.546812236309051514e-01
-5.730865001678466797e-01 1.179987043142318726e-01 -2.144457697868347168e-01
-6.929882764816284180e-01 9.895453602075576782e-02 1.731874942779541016e-01
5.514140725135803223e-01 -1.392006576061248779e-01 1.191552132368087769e-01
-4.132935702800750732e-01 1.517971903085708618e-01 2.422108128666877747e-02
-1.723127514123916626e-01 -1.169857233762741089e-01 7.916812598705291748e-02
3.093317151069641113e-01 -1.120243892073631287e-01 -3.416209816932678223e-01
6.750897765159606934e-01 -6.065797992050647736e-03 -8.984887599945068359e-02
-6.512894034385681152e-01 1.115073785185813904e-01 1.860304027795791626e-01
-6.777365207672119141e-01 1.218051910400390625e-01 -5.459388718008995056e-02
-2.165157347917556763e-01 1.144449934363365173e-01 -3.202778697013854980e-01
-6.844810247421264648e-01 1.113930419087409973e-01 -1.180805712938308716e-01
3.367410898208618164e-01 7.085584104061126709e-02 -2.389096319675445557e-01
-6.650517582893371582e-01 -7.416599430143833160e-03 2.652089856564998627e-02
5.755099058151245117e-01 -1.287610381841659546e-01 -1.785334795713424683e-01
2.216147482395172119e-01 9.055661410093307495e-02 2.453802973031997681e-01
-5.914064049720764160e-01 1.347216367721557617e-01 -9.734244644641876221e-02
-5.633400678634643555e-01 -3.471475467085838318e-02 1.383188664913177490e-01
-6.253042817115783691e-02 1.381927877664566040e-01 -9.074617922306060791e-02
5.192080736160278320e-01 4.789080470800399780e-02 -8.229842782020568848e-02
2.596285343170166016e-01 9.121617674827575684e-02 -1.950737088918685913e-01
3.569197952747344971e-01 -1.335228979587554932e-01 -2.486765980720520020e-01
-8.031884208321571350e-04 -1.128586381673812866e-01 2.882196605205535889e-01
-7.133954167366027832e-01 1.132915765047073364e-01 -5.394760519266128540e-03
-2.949757277965545654e-01 -3.732198104262351990e-02 4.028729796409606934e-01
-7.519316077232360840e-01 4.458963125944137573e-02 3.850904852151870728e-02
2.683631479740142822e-01 -1.228947564959526062e-01 -3.031493127346038818e-01
5.738587975502014160e-01 2.382503449916839600e-02 -1.599820256233215332e-01
-1.167128011584281921e-01 1.159974858164787292e-01 -2.975752353668212891e-01
1.154842153191566467e-01 -1.781700178980827332e-02 4.927103221416473389e-01
1.205986645072698593e-02 1.313070505857467651e-01 1.077485084533691406e-01
-6.677299141883850098e-01 1.174603123217821121e-02 -1.579248160123825073e-01
4.868444204330444336e-01 5.403998121619224548e-02 -1.117168664932250977e-01
-7.158833742141723633e-01 1.770216226577758789e-02 4.686500877141952515e-02
-7.214267849922180176e-01 5.126934498548507690e-02 1.666782796382904053e-01
1.891358345746994019e-01 9.444134682416915894e-02 -2.473129630088806152e-01
5.590207576751708984e-01 -7.061786949634552002e-03 2.893996238708496094e-01
6.653066277503967285e-01 -1.024345010519027710e-01 1.836458891630172729e-01
-5.800346732139587402e-01 -2.894013188779354095e-02 -1.279266923666000366e-01
3.225757926702499390e-02 -1.254076659679412842e-01 2.297396063804626465e-01
-4.018171429634094238e-01 7.435848563909530640e-02 4.071657955646514893e-01
2.301660180091857910e-01 -2.663480117917060852e-02 4.739410877227783203e-01
2.147967219352722168e-01 4.159678146243095398e-02 -4.173117280006408691e-01
-4.320710003376007080e-01 -6.955008953809738159e-02 -1.136327981948852539e-01
-5.701766610145568848e-01 1.522014103829860687e-02 -2.970452904701232910e-01
-4.404602050781250000e-01 1.213295832276344299e-01 -2.685369551181793213e-01
-5.284644365310668945e-01 1.012996807694435120e-01 -2.930903434753417969e-01
6.936733722686767578e-01 -1.191173642873764038e-01 -3.831958398222923279e-02
-2.711451649665832520e-01 9.691254794597625732e-02 -3.754945993423461914e-01
3.474081158638000488e-01 -9.227085858583450317e-02 -3.869263231754302979e-01
-1.170603185892105103e-01 9.784942120313644409e-02 -3.672931790351867676e-01
1.250782907009124756e-01 -1.847844198346138000e-02 -4.884912371635437012e-01
3.803782761096954346e-01 -1.146719381213188171e-01 -3.228241801261901855e-01
6.111680865287780762e-01 1.699206046760082245e-02 1.111536771059036255e-01
-1.242427974939346313e-01 1.313093304634094238e-01 2.219721078872680664e-01
-4.151671528816223145e-01 1.213002726435661316e-01 -2.760981321334838867e-01
6.119596362113952637e-01 -1.725759590044617653e-03 -2.137479335069656372e-01
-7.474552094936370850e-02 1.256626099348068237e-01 -2.282629609107971191e-01
5.706243515014648438e-01 -3.268357366323471069e-02 -3.203187584877014160e-01
-6.905801296234130859e-01 5.453887395560741425e-03 6.297468394041061401e-02
-2.657486498355865479e-01 1.162936836481094360e-01 -3.147114515304565430e-01
5.309181213378906250e-01 4.725299403071403503e-02 1.203348673880100250e-02
-7.122936844825744629e-01 8.203328400850296021e-02 -1.587217450141906738e-01
1.592245250940322876e-01 8.399952948093414307e-02 3.251482844352722168e-01
-4.288480281829833984e-01 1.063739359378814697e-01 -3.215370774269104004e-01
-2.881291210651397705e-01 1.020543351769447327e-01 3.736615777015686035e-01
3.325631618499755859e-01 -1.524761617183685303e-01 -8.127039670944213867e-02
3.208469450473785400e-01 8.438887447118759155e-02 1.655166894197463989e-01
5.963334441184997559e-01 -5.251316353678703308e-02 -3.092114627361297607e-01
5.767284035682678223e-01 1.013988070189952850e-02 -2.231486588716506958e-01
-5.179405957460403442e-02 1.398569941520690918e-01 -8.639995940029621124e-03
4.694001376628875732e-02 1.138211414217948914e-01 -2.362266629934310913e-01
-2.301538586616516113e-01 -7.571832835674285889e-02 -3.190125823020935059e-01
1.189900934696197510e-01 5.742799118161201477e-02 -4.182172417640686035e-01
-2.424410283565521240e-01 -1.060069948434829712e-01 9.919433295726776123e-02
-1.901851445436477661e-01 -9.988987445831298828e-02 -2.286853045225143433e-01
2.747922241687774658e-01 9.844071418046951294e-02 8.907270431518554688e-02
4.226040840148925781e-01 5.842603743076324463e-02 -2.037571519613265991e-01
5.386706441640853882e-02 -1.346068978309631348e-01 -1.651534438133239746e-01
2.152802050113677979e-01 1.018751412630081177e-01 -1.619977056980133057e-01
4.056552946567535400e-01 -3.041856107302010059e-04 -3.966539502143859863e-01
-4.974970817565917969e-01 5.514878407120704651e-02 -3.685217797756195068e-01
1.391083300113677979e-01 -1.482508331537246704e-01 -6.274634040892124176e-03
4.348801672458648682e-01 3.784067230299115181e-03 3.715946376323699951e-01
4.882498383522033691e-01 -1.474171429872512817e-01 -9.401148557662963867e-02
-4.685564041137695312e-01 1.243251860141754150e-01 2.630974352359771729e-01
1.362080127000808716e-01 9.859570115804672241e-02 2.711193859577178955e-01
-5.001296401023864746e-01 1.365568041801452637e-01 1.829094886779785156e-01
7.110454142093658447e-03 -1.049204170703887939e-01 -3.252568840980529785e-01
6.885372996330261230e-01 -9.500996209681034088e-03 -5.730167403817176819e-02
-3.489132821559906006e-01 -8.847535401582717896e-02 -8.340723812580108643e-02
2.894129753112792969e-01 6.025944650173187256e-02 3.298882544040679932e-01
-5.959280133247375488e-01 1.392072141170501709e-01 2.169122733175754547e-02
-3.230697512626647949e-01 -8.997772634029388428e-02 -1.291483938694000244e-01
6.420354247093200684e-01 1.221703924238681793e-02 1.505003194324672222e-03
-1.166144385933876038e-01 9.954060614109039307e-02 3.719743490219116211e-01
-4.566238820552825928e-01 -6.901462376117706299e-02 1.267427206039428711e-02
6.089509129524230957e-01 2.183230035006999969e-02 6.559945642948150635e-02
5.257227271795272827e-02 8.267427235841751099e-02 3.800887465476989746e-01
-5.174164175987243652e-01 -1.027294714003801346e-02 -2.962530851364135742e-01
2.959890961647033691e-01 -3.263173624873161316e-02 4.571941494941711426e-01
4.888490140438079834e-01 3.673812374472618103e-02 2.292304486036300659e-01
5.536097288131713867e-01 -1.404650509357452393e-01 1.038409173488616943e-01
-3.228672146797180176e-01 1.116911992430686951e-01 -3.277138769626617432e-01
-3.440567106008529663e-02 -9.675379097461700439e-02 3.456623554229736328e-01
-5.966762304306030273e-01 -1.835255324840545654e-02 -1.606943905353546143e-01
-2.281484007835388184e-01 -1.089573800563812256e-01 -7.639171183109283447e-02
-4.944138526916503906e-01 6.241258233785629272e-02 3.822640478610992432e-01
-5.697227120399475098e-01 8.471493609249591827e-03 3.017775118350982666e-01
-2.597349286079406738e-01 1.219984069466590881e-01 -2.910527884960174561e-01
8.675043284893035889e-02 8.865892142057418823e-02 -3.391367197036743164e-01
-4.031383693218231201e-01 -6.812795251607894897e-02 -1.841211616992950439e-01
-2.896701395511627197e-01 -1.001727506518363953e-01 -5.495007336139678955e-02
-3.935568332672119141e-01 -7.159895449876785278e-02 1.843691170215606689e-01
2.842322885990142822e-01 5.241626873612403870e-03 4.456658959388732910e-01
-5.142237991094589233e-02 -1.135211214423179626e-01 2.570784091949462891e-01
3.348259627819061279e-02 9.216783940792083740e-02 -3.479355871677398682e-01
-4.847327172756195068e-01 -2.194751799106597900e-02 3.102537095546722412e-01
-7.135379314422607422e-02 -1.010933667421340942e-01 -3.066940307617187500e-01
4.123069941997528076e-01 3.326996788382530212e-02 -3.233175575733184814e-01
1.997992396354675293e-01 3.700897842645645142e-02 4.346139430999755859e-01
4.971890747547149658e-01 -1.425225436687469482e-01 -1.424205452203750610e-01
-1.495873034000396729e-01 1.458349972963333130e-01 5.883657559752464294e-02
4.484027624130249023e-01 -1.041982993483543396e-01 3.291521668434143066e-01
7.138927280902862549e-02 6.516183912754058838e-02 4.209789931774139404e-01
4.575225710868835449e-01 6.277224421501159668e-02 8.758430182933807373e-02
5.181198716163635254e-01 -1.218110844492912292e-01 2.435398697853088379e-01
-2.085064947605133057e-01 -1.165113504976034164e-02 -4.623526632785797119e-01
3.953040540218353271e-01 7.490164041519165039e-02 -1.093183308839797974e-01
2.501919865608215332e-01 9.962940216064453125e-02 -1.276217252016067505e-01
-2.223878502845764160e-01 -8.112358301877975464e-02 -3.021174073219299316e-01
1.902622729539871216e-02 -5.222299695014953613e-02 4.660605490207672119e-01
-1.387527734041213989e-01 9.351114183664321899e-02 -3.829172849655151367e-01
4.113983213901519775e-01 -9.184374660253524780e-02 3.685321211814880371e-01
-4.693584144115447998e-01 4.600714892148971558e-02 4.006462097167968750e-01
6.170709431171417236e-02 -1.407330185174942017e-01 9.195813536643981934e-02
-5.677604675292968750e-01 -4.064198583364486694e-02 2.006414905190467834e-02
-1.568310707807540894e-01 2.315827878192067146e-03 4.900646507740020752e-01
6.179124712944030762e-01 7.538632489740848541e-03 -1.627452224493026733e-01
5.539212822914123535e-01 -1.195259243249893188e-01 -2.372934669256210327e-01
6.382505595684051514e-02 1.028894409537315369e-01 -2.885222733020782471e-01
2.248381674289703369e-01 -1.497285068035125732e-01 -9.418071806430816650e-02
6.604984402656555176e-01 -1.275538951158523560e-01 -5.128012225031852722e-02
-2.055192291736602783e-01 1.039581820368766785e-01 -3.565460741519927979e-01
-1.114261802285909653e-02 9.280904382467269897e-02 -3.604444265365600586e-01
-3.740909695625305176e-01 -3.766492009162902832e-03 -4.071262478828430176e-01
-3.435817956924438477e-01 -6.282749772071838379e-02 -2.829582989215850830e-01
-6.319617852568626404e-03 -1.200259253382682800e-01 -2.407083511352539062e-01
1.225303933024406433e-01 2.946704067289829254e-02 4.685548245906829834e-01
4.494764208793640137e-01 5.896706134080886841e-02 -1.532867252826690674e-01
4.262072443962097168e-01 -9.838683903217315674e-02 3.503980338573455811e-01
-5.512643456459045410e-01 1.066155955195426941e-01 -2.664840519428253174e-01
-3.766324222087860107e-01 7.991400361061096191e-02 -3.920151293277740479e-01
7.292116433382034302e-02 9.677105396986007690e-02 3.192855715751647949e-01
4.028897881507873535e-01 -1.434981971979141235e-01 -1.763099133968353271e-01
-3.383126556873321533e-01 1.325716078281402588e-01 -2.370156645774841309e-01
-1.762513071298599243e-01 -6.557032465934753418e-02 -3.821396529674530029e-01
-1.698182970285415649e-01 1.174256950616836548e-01 3.139276802539825439e-01
6.184309720993041992e-01 2.569305943325161934e-03 1.809467971324920654e-01
-4.322409629821777344e-01 -7.372631132602691650e-02 5.016700550913810730e-02
1.455971300601959229e-01 -9.065634757280349731e-02 -4.013257324695587158e-01
-6.697605252265930176e-01 1.250259727239608765e-01 -3.669679909944534302e-02
-2.165639698505401611e-01 -7.305758446455001831e-02 3.453848063945770264e-01
-1.126954406499862671e-01 -1.232622116804122925e-01 -9.814551472663879395e-02
2.646380960941314697e-01 -1.177810057997703552e-01 -3.235872089862823486e-01
3.030492067337036133e-01 4.599504545331001282e-02 3.651700615882873535e-01
-6.681322455406188965e-01 7.768362760543823242e-02 2.432821989059448242e-01
-3.173876404762268066e-01 -7.226321101188659668e-02 -2.641038000583648682e-01
9.872154146432876587e-02 3.833978250622749329e-02 -4.577579796314239502e-01
4.081376791000366211e-01 -1.398226916790008545e-01 -2.018602490425109863e-01
2.902726531028747559e-01 7.250171899795532227e-02 -2.764928042888641357e-01
-3.898418843746185303e-01 -7.588896155357360840e-02 1.532895416021347046e-01
4.752931892871856689e-01 -1.508699804544448853e-01 -3.249749168753623962e-02
6.104155629873275757e-02 -9.421521425247192383e-02 -3.790882825851440430e-01
1.686380356550216675e-01 1.097255945205688477e-01 1.542542576789855957e-01
5.995790362358093262e-01 -5.187964998185634613e-04 -2.281430661678314209e-01
-4.675448238849639893e-01 2.142656221985816956e-02 3.945375978946685791e-01
1.760845780372619629e-01 1.031702011823654175e-01 2.052475363016128540e-01
5.704352259635925293e-01 2.984940446913242340e-02 -1.220670789480209351e-01
1.847687512636184692e-01 1.133257523179054260e-01 5.825386196374893188e-02
3.412580192089080811e-01 -1.518643498420715332e-01 8.900558948516845703e-02
-2.671463787555694580e-01 -7.666415721178054810e-02 -2.877531349658966064e-01
-3.961815536022186279e-01 -5.063945055007934570e-02 -2.840218245983123779e-01
-1.024575904011726379e-01 1.419133096933364868e-01 8.481721580028533936e-02
-3.718221485614776611e-01 1.309769749641418457e-01 -2.415261864662170410e-01
-7.481994032859802246e-01 4.089772701263427734e-02 -2.136130817234516144e-02
-3.438537716865539551e-01 1.512839049100875854e-01 -5.692062154412269592e-02
2.049176245927810669e-01 -1.507534086704254150e-01 -5.201413482427597046e-02
3.304760158061981201e-01 7.813169062137603760e-02 -1.999568194150924683e-01
2.482346296310424805e-01 -1.437697708606719971e-01 1.737136542797088623e-01
3.667648434638977051e-01 -1.172177642583847046e-01 -3.169068098068237305e-01
3.828157186508178711e-01 -1.436781734228134155e-01 -1.792492717504501343e-01
-2.913517057895660400e-01 -9.703713655471801758e-02 -1.092896163463592529e-01
-4.998265206813812256e-02 -1.246171221137046814e-01 1.736399978399276733e-01
2.322250157594680786e-01 8.153787255287170410e-02 2.850198745727539062e-01
-2.112267017364501953e-01 1.488186568021774292e-01 5.986038967967033386e-02
4.047594070434570312e-01 6.453108787536621094e-02 -1.893681138753890991e-01
-5.106476545333862305e-01 1.334098875522613525e-01 1.975179612636566162e-01
1.954654455184936523e-01 9.091401845216751099e-02 2.668072283267974854e-01
2.091992646455764771e-01 1.063880547881126404e-01 -1.201192587614059448e-01
2.622022032737731934e-01 -1.068202033638954163e-01 3.591037094593048096e-01
3.883567750453948975e-01 -1.520457267761230469e-01 -8.193328976631164551e-02
1.699202060699462891e-01 -1.498050987720489502e-01 -2.059333957731723785e-02
-1.701831072568893433e-01 -5.332915112376213074e-02 -4.144439995288848877e-01
4.985416233539581299e-01 -1.452824324369430542e-01 1.064853668212890625e-01
-1.742282658815383911e-01 1.434279680252075195e-01 -1.191158741712570190e-01
4.709858298301696777e-01 2.789034880697727203e-02 2.853907644748687744e-01
4.931756854057312012e-01 2.020396292209625244e-02 2.872148156166076660e-01
-1.881808340549468994e-01 -1.050305739045143127e-01 -1.931162774562835693e-01
4.507545828819274902e-01 6.424532830715179443e-02 -8.964248001575469971e-02
-4.750392735004425049e-01 -6.119793653488159180e-02 1.067528277635574341e-01
4.471319317817687988e-01 6.782679259777069092e-02 5.455859936773777008e-03
2.942413687705993652e-01 7.819347828626632690e-02 2.451550364494323730e-01
1.606660187244415283e-01 -1.493056267499923706e-01 2.210267260670661926e-02
-3.791252970695495605e-01 -3.724356368184089661e-02 -3.416014015674591064e-01
-2.691095173358917236e-01 8.028074353933334351e-02 4.241288304328918457e-01
4.934525787830352783e-01 -1.500719636678695679e-01 8.828599937260150909e-03
7.268090248107910156e-01 -7.434457540512084961e-02 1.343753635883331299e-01
7.271520495414733887e-01 -6.970889121294021606e-02 -1.440773755311965942e-01
-4.406693279743194580e-01 1.266390979290008545e-01 2.624437510967254639e-01
1.374979913234710693e-01 -1.481332331895828247e-01 1.107804384082555771e-02
1.857585012912750244e-01 -1.006805822253227234e-01 -3.772785365581512451e-01
-7.260644435882568359e-01 1.067842096090316772e-01 -3.036382049322128296e-02
-1.230734512209892273e-01 1.142473518848419189e-01 -3.071089386940002441e-01
-3.724306225776672363e-01 1.388252079486846924e-01 2.099365442991256714e-01
-9.843789786100387573e-02 -7.332451641559600830e-02 3.984190225601196289e-01
-2.537996768951416016e-01 -1.011159121990203857e-01 -1.357410699129104614e-01
7.370393723249435425e-02 -1.264368891716003418e-01 -2.424092739820480347e-01
8.137254416942596436e-02 -1.307222694158554077e-01 -2.165769636631011963e-01
-3.150446116924285889e-01 1.517279893159866333e-01 -3.913236036896705627e-02
7.029752731323242188e-01 -1.702152751386165619e-02 4.959690570831298828e-02
1.704666465520858765e-01 -1.438884139060974121e-01 -1.448771506547927856e-01
-1.253677159547805786e-01 1.591955125331878662e-02 -4.865815043449401855e-01
-2.986449599266052246e-01 1.208338662981987000e-01 3.096241950988769531e-01
-1.710218191146850586e-01 -1.156647503376007080e-01 -1.018049716949462891e-01
2.370178997516632080e-01 3.397236764430999756e-02 -4.229306280612945557e-01
3.506273031234741211e-01 8.021603524684906006e-02 -1.501187235116958618e-01
-3.068944811820983887e-01 1.522731781005859375e-01 1.377335865981876850e-03
-2.335790395736694336e-01 -9.158895909786224365e-02 2.470233440399169922e-01
-6.963682770729064941e-01 5.146881192922592163e-02 2.109878659248352051e-01
5.305908918380737305e-01 3.466928377747535706e-02 1.740169823169708252e-01
3.555514216423034668e-01 -1.535210479050874710e-02 -4.340459108352661133e-01
-5.001825094223022461e-01 1.334767639636993408e-01 2.028807550668716431e-01
2.660634815692901611e-01 1.017466932535171509e-01 -3.439949825406074524e-02
-3.713451027870178223e-01 -6.992065161466598511e-02 2.278555780649185181e-01
-2.563171684741973877e-01 1.507742255926132202e-01 -3.150934725999832153e-02
3.838834464550018311e-01 -1.541690379381179810e-01 -8.890817407518625259e-04
-2.306343168020248413e-01 9.304939955472946167e-02 3.993361294269561768e-01
6.325151920318603516e-01 -3.018251806497573853e-02 -2.551128268241882324e-01
-2.342623770236968994e-01 7.235562801361083984e-02 4.404056966304779053e-01
6.219557672739028931e-02 -1.398705691099166870e-01 1.079859882593154907e-01
5.044770240783691406e-01 -1.158136874437332153e-02 3.450666666030883789e-01
-5.518469810485839844e-01 1.787471817806363106e-03 -2.902539968490600586e-01
-3.522890806198120117e-02 1.342395991086959839e-01 -1.190603822469711304e-01
2.899072468280792236e-01 7.999209314584732056e-02 -2.366389185190200806e-01
-3.370755910873413086e-01 -9.286157041788101196e-02 3.030105680227279663e-02
7.886739820241928101e-02 -1.442760080099105835e-01 -1.461318135261535645e-02
-3.605850636959075928e-01 1.350262910127639771e-01 2.357901483774185181e-01
1.067943274974822998e-01 -1.288138180971145630e-01 2.423818260431289673e-01
4.545294046401977539e-01 -1.586174033582210541e-02 -3.863603472709655762e-01
-1.767771691083908081e-01 -1.177121028304100037e-01 3.714911639690399170e-02
-4.041569828987121582e-01 6.464562378823757172e-03 4.156722426414489746e-01
-2.414815574884414673e-01 1.135926693677902222e-01 -3.246968388557434082e-01
6.018165946006774902e-01 -1.129293367266654968e-01 2.175292372703552246e-01
-4.716167449951171875e-01 -1.259021181613206863e-02 -3.310267925262451172e-01
-4.948931932449340820e-01 1.254304498434066772e-01 2.472824156284332275e-01
-3.375431001186370850e-01 -9.276177734136581421e-02 -2.181960083544254303e-02
8.626551181077957153e-02 -1.035669073462486267e-01 -3.541089594364166260e-01
5.501031875610351562e-01 -1.149260401725769043e-01 -2.560423016548156738e-01
6.596496701240539551e-01 -1.163263171911239624e-01 -1.472253650426864624e-01
5.394835472106933594e-01 2.510695345699787140e-02 -2.143490016460418701e-01
-2.785865962505340576e-02 -1.338048875331878662e-01 -7.079711556434631348e-02
3.002051711082458496e-01 7.357727736234664917e-02 2.642465531826019287e-01
3.957169651985168457e-01 7.856397330760955811e-02 -2.533735334873199463e-02
-6.280621290206909180e-01 7.682161033153533936e-02 -2.650231122970581055e-01
-1.227063462138175964e-01 -7.785540819168090820e-02 -3.699012100696563721e-01
8.876721374690532684e-03 -1.336684972047805786e-01 1.348202228546142578e-01
4.090310931205749512e-01 -1.499319523572921753e-01 -1.086593717336654663e-01
3.477241396903991699e-01 -1.288382261991500854e-01 -2.731051743030548096e-01
-6.167873740196228027e-01 5.196444690227508545e-02 -2.852746844291687012e-01
4.439142998307943344e-03 8.682255446910858154e-02 3.831444680690765381e-01
6.566451787948608398e-01 -1.147471815347671509e-01 -1.591293364763259888e-01
-5.132763385772705078e-01 1.110143512487411499e-01 -2.746249139308929443e-01
-5.666531324386596680e-01 1.381779164075851440e-01 -9.442803263664245605e-02
-2.711498141288757324e-01 -1.026544570922851562e-01 7.674372196197509766e-02
-3.382397890090942383e-01 -8.933471143245697021e-02 -1.014538556337356567e-01
8.437474817037582397e-02 8.313639461994171143e-02 -3.599399924278259277e-01
-2.873026132583618164e-01 -8.789599686861038208e-02 -2.044888287782669067e-01
-5.330165624618530273e-01 -1.119669619947671890e-02 2.930198013782501221e-01
2.162387669086456299e-01 -1.498056352138519287e-01 -8.682742714881896973e-02
-5.465048551559448242e-01 1.613071747124195099e-02 -3.194593489170074463e-01
4.665321409702301025e-01 4.332137107849121094e-02 -2.285757809877395630e-01
6.545786857604980469e-01 -3.859333926811814308e-03 -1.398372799158096313e-01
5.215463638305664062e-01 8.590795099735260010e-03 -2.942767739295959473e-01
-1.871351301670074463e-01 8.120073378086090088e-02 -4.149274826049804688e-01
6.575722098350524902e-01 -1.236671060323715210e-01 -1.042296588420867920e-01
7.306940555572509766e-01 -8.778058737516403198e-02 -1.157519817352294922e-01
2.073654532432556152e-01 8.718296885490417480e-02 -2.726992070674896240e-01
3.710072934627532959e-01 -1.537359356880187988e-01 4.074584320187568665e-02
3.073749840259552002e-01 -1.216429546475410461e-01 -3.074583113193511963e-01
-1.381126493215560913e-01 1.279111057519912720e-01 -2.394294440746307373e-01
-5.276644825935363770e-01 5.534097924828529358e-02 3.676063120365142822e-01
9.722236543893814087e-02 1.252600699663162231e-01 1.483411435037851334e-02
-4.559856355190277100e-01 1.504787951707839966e-01 -2.940642647445201874e-03
-6.702009439468383789e-01 8.795934170484542847e-02 -2.078344374895095825e-01
6.139615178108215332e-01 -8.763608336448669434e-02 2.663793563842773438e-01
-1.746666729450225830e-01 1.341027021408081055e-01 2.214385718107223511e-01
-3.399073481559753418e-01 -8.529156446456909180e-02 -1.464896649122238159e-01
-4.367313086986541748e-01 8.212742954492568970e-02 3.852202892303466797e-01
3.115286529064178467e-01 9.295753389596939087e-02 7.374873757362365723e-02
4.718421101570129395e-01 -1.335730105638504028e-01 -2.177008986473083496e-01
5.832796692848205566e-01 3.107430599629878998e-02 5.008794739842414856e-02
-4.595110416412353516e-01 1.473946273326873779e-01 1.010534912347793579e-01
9.096299298107624054e-03 7.004571706056594849e-02 4.262635409832000732e-01
3.816504031419754028e-02 6.994218379259109497e-02 -4.124880433082580566e-01
-4.802022874355316162e-01 -5.027878098189830780e-03 -3.392625749111175537e-01
1.388671547174453735e-01 -1.252106279134750366e-01 -2.736604809761047363e-01
2.629224658012390137e-01 8.883378654718399048e-02 2.121813446283340454e-01
1.792505830526351929e-01 -1.000140532851219177e-01 3.790129721164703369e-01
-5.178525447845458984e-01 -3.613783791661262512e-02 -2.031785100698471069e-01
-6.350243091583251953e-01 1.737828366458415985e-02 -2.280769944190979004e-01
6.952174007892608643e-02 4.438992962241172791e-02 4.605136215686798096e-01
-2.821396589279174805e-01 -6.185857206583023071e-02 -3.345509767532348633e-01
1.186940073966979980e-01 1.227239966392517090e-01 -6.860735826194286346e-03
1.586117297410964966e-01 -1.493127793073654175e-01 -1.003858540207147598e-02
5.942213535308837891e-02 1.218737289309501648e-01 1.674562543630599976e-01
-1.415563225746154785e-01 2.456597238779067993e-02 -4.827056825160980225e-01
-3.895443677902221680e-01 1.508682817220687866e-01 7.512012124061584473e-02
-5.835574865341186523e-01 4.220825619995594025e-03 -2.619249224662780762e-01
-3.293255567550659180e-01 -6.006598845124244690e-02 3.163489103317260742e-01
-3.842313885688781738e-01 -6.693354994058609009e-02 2.296737879514694214e-01
-7.380164861679077148e-01 9.416378289461135864e-02 -7.167981564998626709e-02
-1.174331549555063248e-02 1.352787762880325317e-01 7.090471684932708740e-02
-3.279336988925933838e-01 -9.226019680500030518e-02 9.346643090248107910e-02
-4.155685305595397949e-01 -7.406913489103317261e-02 1.128178387880325317e-01
1.020464971661567688e-01 1.119020283222198486e-01 -2.061422020196914673e-01
1.252337247133255005e-01 1.182417273521423340e-01 -1.111960858106613159e-01
3.228330519050359726e-03 -1.374956369400024414e-01 -4.853810742497444153e-02
5.882692933082580566e-01 -1.402919292449951172e-01 -5.146490409970283508e-02
-4.096776843070983887e-01 -7.336970418691635132e-02 1.366777122020721436e-01
1.753531023859977722e-02 1.335469931364059448e-01 3.236026316881179810e-02
2.703687846660614014e-01 1.001346260309219360e-01 -6.462351977825164795e-02
2.107714861631393433e-01 1.087511107325553894e-01 -7.631540298461914062e-02
-5.203704833984375000e-01 -3.323150798678398132e-02 -2.139006406068801880e-01
3.866209089756011963e-01 -1.533546745777130127e-01 4.669176414608955383e-02
3.081066012382507324e-01 -1.177235394716262817e-01 -3.223056495189666748e-01
-2.968868613243103027e-01 -8.736933767795562744e-02 2.049010545015335083e-01
3.357227444648742676e-01 -1.441589295864105225e-01 -1.805584728717803955e-01
4.384258389472961426e-01 3.701221942901611328e-02 2.866234481334686279e-01
5.027977824211120605e-01 5.241543054580688477e-02 -7.798136770725250244e-02
-2.046408206224441528e-01 -6.880988180637359619e-02 -3.585539460182189941e-01
-1.151677295565605164e-01 -1.067707911133766174e-01 2.545506358146667480e-01
-1.758395284414291382e-01 -1.151819229125976562e-01 1.051355749368667603e-01
3.531554341316223145e-01 -1.086104288697242737e-02 4.314219951629638672e-01
6.165466904640197754e-01 -9.860686957836151123e-02 -2.515524327754974365e-01
5.480534434318542480e-01 2.022521104663610458e-03 2.801916301250457764e-01
-2.872500121593475342e-01 8.670318871736526489e-02 4.100939333438873291e-01
3.739974498748779297e-01 -1.500022560358047485e-01 -1.173301041126251221e-01
-6.374414563179016113e-01 1.303292214870452881e-01 8.123068511486053467e-02
4.287648200988769531e-01 6.697060912847518921e-02 -1.196912378072738647e-01
2.813943922519683838e-01 -1.382369697093963623e-01 2.205657511949539185e-01
6.634728610515594482e-02 3.717099875211715698e-02 4.710434377193450928e-01
-4.280101656913757324e-01 -5.639310181140899658e-02 -2.222727388143539429e-01
-3.373407125473022461e-01 -7.322826981544494629e-02 2.483572810888290405e-01
-3.533178269863128662e-01 -8.829320222139358521e-02 -7.110290229320526123e-02
4.945330321788787842e-01 5.619833990931510925e-02 3.610270470380783081e-02
-7.497659921646118164e-01 6.209596991539001465e-02 -8.453388512134552002e-02
5.189592838287353516e-01 6.850113859400153160e-04 -3.153763711452484131e-01
-7.188780307769775391e-01 7.613563537597656250e-02 -1.542286127805709839e-01
-5.654280185699462891e-01 -3.514978289604187012e-02 -1.138816773891448975e-01
-2.668321728706359863e-01 1.024957299232482910e-01 -3.606380820274353027e-01
-1.012668013572692871e-01 -1.261942088603973389e-01 -6.459116935729980469e-02
5.709111094474792480e-01 -1.655111461877822876e-02 2.950079143047332764e-01
-6.681996583938598633e-02 1.213313937187194824e-01 -2.523435652256011963e-01
-3.950399160385131836e-01 2.250223420560359955e-02 -4.175494015216827393e-01
4.400097429752349854e-01 -2.053930424153804779e-02 3.959172368049621582e-01
-7.139554619789123535e-02 -1.133803799748420715e-01 -2.403007000684738159e-01
-7.203810214996337891e-01 2.097536437213420868e-02 5.529782548546791077e-02
2.827476561069488525e-01 -1.037293747067451477e-01 3.666443228721618652e-01
1.115096658468246460e-01 -9.326078742742538452e-02 3.923503160476684570e-01
-4.685016572475433350e-01 1.428594589233398438e-01 -1.318069696426391602e-01
6.021888256072998047e-01 -1.318475157022476196e-01 1.217269748449325562e-01
1.883524805307388306e-01 -1.491974145174026489e-01 -7.524284720420837402e-02
-3.720547258853912354e-01 -7.065307348966598511e-02 -2.117774039506912231e-01
-4.010497927665710449e-01 -8.087209612131118774e-02 1.407196396030485630e-03
-5.503242015838623047e-01 1.398312747478485107e-01 -9.605745971202850342e-02
-1.935687810182571411e-01 -9.793877601623535156e-02 -2.380724549293518066e-01
-5.539919435977935791e-02 9.404009580612182617e-02 3.768265247344970703e-01
4.467048048973083496e-01 -6.996725499629974365e-02 -3.903544843196868896e-01
1.787913590669631958e-01 -3.899763152003288269e-02 -4.760482609272003174e-01
-1.834300607442855835e-01 6.432194262742996216e-02 4.550468027591705322e-01
-3.804241120815277100e-01 -5.622005462646484375e-02 2.875465750694274902e-01
1.768523156642913818e-01 -1.310306042432785034e-01 -2.508510351181030273e-01
-1.118417009711265564e-01 1.418488919734954834e-01 -8.792227506637573242e-02
-6.971809267997741699e-01 1.128497198224067688e-01 -8.244816958904266357e-02
1.485598385334014893e-01 1.113961338996887207e-01 1.651700139045715332e-01
6.506010144948959351e-02 5.298257991671562195e-02 4.474600553512573242e-01
3.695808351039886475e-01 6.757011264562606812e-02 -2.190325409173965454e-01
-1.091940477490425110e-01 1.184303015470504761e-01 2.941776216030120850e-01
-4.351423382759094238e-01 -6.326723098754882812e-02 -1.668505370616912842e-01
-3.750250935554504395e-01 -8.387050032615661621e-02 8.701807260513305664e-02
-6.975135952234268188e-02 -1.195537745952606201e-01 -1.965260654687881470e-01
-2.888773083686828613e-01 -9.837228804826736450e-02 -9.519368410110473633e-02
-4.185184538364410400e-01 -3.797548264265060425e-02 3.205925822257995605e-01
2.560418546199798584e-01 1.004641354084014893e-01 1.064999401569366455e-01
-1.522119045257568359e-01 1.314243376255035400e-01 -2.209856808185577393e-01
-3.143510818481445312e-01 1.232992112636566162e-01 2.985986769199371338e-01
1.602786779403686523e-01 1.007091030478477478e-01 -2.333486378192901611e-01
4.052657186985015869e-01 7.453542202711105347e-02 -8.308267593383789062e-02
2.634584605693817139e-01 3.244706243276596069e-02 -4.147161543369293213e-01
-3.226837515830993652e-01 6.665216386318206787e-02 4.361940622329711914e-01
-6.827683448791503906e-01 1.216265335679054260e-01 5.851081758737564087e-02
3.055744171142578125e-01 -1.306574791669845581e-01 -2.672074139118194580e-01
-4.865592420101165771e-01 7.172247767448425293e-02 -3.624012172222137451e-01
-3.402635455131530762e-01 1.409198492765426636e-01 -1.823401153087615967e-01
1.828951537609100342e-01 1.137087196111679077e-01 -4.893899708986282349e-02
-5.494188070297241211e-01 1.367817968130111694e-01 -1.268332898616790771e-01
1.521132141351699829e-01 9.832978248596191406e-02 2.603541314601898193e-01
-4.681669175624847412e-01 -2.548983693122863770e-02 -3.018548786640167236e-01
-7.138330340385437012e-01 1.122205108404159546e-01 4.806567355990409851e-02
-2.813824117183685303e-01 1.503008306026458740e-01 7.885059714317321777e-02
4.832285046577453613e-01 2.923616394400596619e-02 -2.695520818233489990e-01
3.029950261116027832e-01 8.391707390546798706e-02 1.967790126800537109e-01
-4.464273750782012939e-01 -5.020116642117500305e-02 2.433965951204299927e-01
4.463269561529159546e-02 -1.416263878345489502e-01 -1.758288033306598663e-02
-9.193528443574905396e-03 1.341537237167358398e-01 9.174527227878570557e-02
1.642219126224517822e-01 6.324634701013565063e-02 3.916701078414916992e-01
-1.154358461499214172e-01 -1.228910386562347412e-01 1.037611812353134155e-01
-3.386920988559722900e-01 1.281445473432540894e-01 -2.600792050361633301e-01
-5.265319943428039551e-01 -4.782058298587799072e-02 -9.770922362804412842e-02
-5.241951346397399902e-01 4.114443808794021606e-02 -3.542017936706542969e-01
-6.423372030258178711e-01 -6.395036354660987854e-03 1.439879983663558960e-01
-2.239260673522949219e-01 -1.011988893151283264e-01 -1.810888350009918213e-01
-2.491391599178314209e-01 1.288295239210128784e-01 -2.570404112339019775e-01
7.419469356536865234e-01 -8.039017021656036377e-02 -9.752203524112701416e-02
-5.415726304054260254e-01 1.449360102415084839e-01 3.246062621474266052e-02
-9.551994502544403076e-03 7.067064940929412842e-02 -4.213136732578277588e-01
6.109887957572937012e-01 2.302909828722476959e-02 2.232804894447326660e-02
4.276092648506164551e-01 4.874762892723083496e-02 2.498838007450103760e-01
-6.454327702522277832e-01 9.109830111265182495e-02 -2.288635373115539551e-01
-8.716352283954620361e-02 -8.462116122245788574e-02 -3.632152676582336426e-01
3.883478045463562012e-01 -1.462938170880079269e-02 4.182152152061462402e-01
-6.052988022565841675e-02 -8.349535614252090454e-02 3.818212747573852539e-01
4.862585067749023438e-01 -2.105363085865974426e-02 -3.717641830444335938e-01
-6.840361952781677246e-01 6.074007833376526833e-04 1.933818683028221130e-02
-2.727303802967071533e-01 -1.025768294930458069e-01 -6.448455154895782471e-02
-8.144748210906982422e-02 -1.285003721714019775e-01 6.713108718395233154e-02
-6.360754370689392090e-01 -1.867484673857688904e-02 2.230846555903553963e-03
5.545575618743896484e-01 -2.258807606995105743e-02 3.186750411987304688e-01
-2.144155278801918030e-02 1.369218230247497559e-01 4.443256929516792297e-02
-7.958779111504554749e-03 -1.234461292624473572e-01 -2.157497406005859375e-01
-3.624141216278076172e-01 -8.581403642892837524e-02 -8.549325168132781982e-02
-4.334346950054168701e-01 -5.694140121340751648e-02 2.238781154155731201e-01
5.893986821174621582e-01 -1.298384368419647217e-01 -1.587701886892318726e-01
-2.084254026412963867e-01 -4.946314543485641479e-02 -4.074897766113281250e-01
2.980949282646179199e-01 -5.728641897439956665e-02 -4.452990293502807617e-01
-1.461989730596542358e-01 3.493830934166908264e-02 4.862890839576721191e-01
-5.926039218902587891e-01 1.396385729312896729e-01 -2.119369804859161377e-03
1.778893768787384033e-01 1.090086326003074646e-01 -1.427120119333267212e-01
4.487999677658081055e-01 6.739095598459243774e-02 -1.484840922057628632e-02
6.650896668434143066e-01 -9.299872070550918579e-02 -2.143598943948745728e-01
2.152568995952606201e-01 -1.335107684135437012e-01 2.431467622518539429e-01
6.814243793487548828e-01 -1.233171001076698303e-01 1.411551050841808319e-02
4.933893978595733643e-01 -3.343876078724861145e-02 -3.758775591850280762e-01
-5.177371501922607422e-01 -4.195053875446319580e-02 1.832175850868225098e-01
-2.500804066658020020e-01 1.428687572479248047e-01 1.713195145130157471e-01
2.004024200141429901e-02 1.208811029791831970e-01 -2.048235088586807251e-01
1.307652294635772705e-01 -1.385933607816696167e-01 -1.777535229921340942e-01
4.243621826171875000e-01 -3.703700006008148193e-02 4.102160334587097168e-01
-2.653610706329345703e-02 -1.041178256273269653e-01 -3.148330152034759521e-01
-4.499961137771606445e-01 -6.422057002782821655e-02 -1.278542727231979370e-01
-1.728095412254333496e-01 -1.097883880138397217e-01 1.763200908899307251e-01
1.384066790342330933e-01 1.169160604476928711e-01 1.124379634857177734e-01
-1.508190333843231201e-01 -3.981617465615272522e-02 -4.455487132072448730e-01
5.704968571662902832e-01 -1.236447170376777649e-01 -2.084474265575408936e-01
5.754597783088684082e-01 2.623086795210838318e-02 1.354679912328720093e-01
-4.211755096912384033e-01 9.920903295278549194e-02 -3.421441018581390381e-01
-7.085651755332946777e-01 9.647963196039199829e-02 -1.342369019985198975e-01
-1.076760292053222656e-01 -1.242019906640052795e-01 9.660649299621582031e-02
-8.487823605537414551e-02 2.429011464118957520e-02 4.944458305835723877e-01
-6.986219882965087891e-01 1.494238153100013733e-02 -9.240297973155975342e-02
-3.905975027009844780e-03 -8.461791276931762695e-02 3.951446115970611572e-01
-4.187034964561462402e-01 1.496468186378479004e-01 8.788797259330749512e-02
-2.426281869411468506e-01 -1.051667183637619019e-01 -1.050441861152648926e-01
2.492469549179077148e-01 -1.475705355405807495e-01 -1.365442574024200439e-01
-5.853914618492126465e-01 1.403046995401382446e-01 -1.646960712969303131e-02
-6.859808564186096191e-01 1.431921869516372681e-02 -1.267639249563217163e-01
6.627038121223449707e-01 -1.081506684422492981e-01 -1.773169040679931641e-01
-2.183523923158645630e-01 -1.082651540637016296e-01 -1.132862865924835205e-01
2.489297986030578613e-01 -1.516786962747573853e-01 -6.932558119297027588e-02
-1.507066190242767334e-01 8.906347304582595825e-02 -3.957973122596740723e-01
-2.555547840893268585e-02 5.358232930302619934e-02 4.630066752433776855e-01
6.920557022094726562e-01 -9.817196428775787354e-02 -1.662831306457519531e-01
1.143843159079551697e-01 6.864564120769500732e-02 3.976999521255493164e-01
-4.099237322807312012e-01 -6.664642691612243652e-02 1.954452842473983765e-01
7.354953140020370483e-02 -1.390602141618728638e-01 1.321692466735839844e-01
-2.064546197652816772e-01 1.958911307156085968e-02 -4.745900332927703857e-01
2.576775103807449341e-02 -8.163936436176300049e-02 -4.063825309276580811e-01
4.729706346988677979e-01 2.453094348311424255e-02 2.942074239253997803e-01
1.115971505641937256e-01 1.231150925159454346e-01 4.526107385754585266e-02
1.020631343126296997e-01 -4.567470028996467590e-02 4.774563610553741455e-01
-3.392872512340545654e-01 1.497001647949218750e-01 1.036169081926345825e-01
2.070565968751907349e-01 -1.469417661428451538e-01 1.255210936069488525e-01
-7.483428120613098145e-01 8.389071375131607056e-02 9.260518848896026611e-02
-4.971667528152465820e-01 2.230425179004669189e-02 3.774105608463287354e-01
9.021326899528503418e-02 1.097693517804145813e-01 -2.315583378076553345e-01
5.760852098464965820e-01 -7.528761774301528931e-02 3.103689849376678467e-01
-3.878964185714721680e-01 -8.330240845680236816e-02 -1.966147311031818390e-02
5.173965692520141602e-01 -1.445784270763397217e-01 9.693995118141174316e-02
3.785879611968994141e-01 -1.337800920009613037e-01 -2.440880686044692993e-01
-5.855993926525115967e-02 1.385254859924316406e-01 8.809545636177062988e-02
-2.510073482990264893e-01 -6.627831608057022095e-02 3.484347164630889893e-01
-1.918105185031890869e-01 1.138468310236930847e-01 3.322795331478118896e-01
-4.683915674686431885e-01 1.140532046556472778e-01 -2.848153114318847656e-01
-1.655938327312469482e-01 6.915050745010375977e-02 -4.375798106193542480e-01
8.024589717388153076e-02 -1.265821456909179688e-01 2.458140254020690918e-01
-6.024379730224609375e-01 1.806708239018917084e-02 -2.689200043678283691e-01
-3.789876699447631836e-01 9.953492879867553711e-02 -3.526504933834075928e-01
-5.145961791276931763e-02 -1.305084675550460815e-01 9.407947957515716553e-02
-3.710712194442749023e-01 -5.990654230117797852e-02 -2.696321010589599609e-01
-3.573111593723297119e-01 -3.265559300780296326e-02 3.788262605667114258e-01
3.514871001243591309e-02 -1.395913064479827881e-01 -6.891337037086486816e-02
-1.654907912015914917e-01 -1.128286421298980713e-01 1.551709622144699097e-01
8.711978048086166382e-02 -1.000480726361274719e-01 -3.662179708480834961e-01
2.381451576948165894e-01 -7.751433551311492920e-02 4.282225966453552246e-01
-2.774003744125366211e-01 1.387452781200408936e-01 -1.972749084234237671e-01
4.239088594913482666e-01 -3.251440450549125671e-02 -4.121347069740295410e-01
3.596804440021514893e-01 -1.543732136487960815e-01 -1.245434302836656570e-02
1.285183727741241455e-01 1.054147928953170776e-01 -2.296828478574752808e-01
5.576746463775634766e-01 9.532134979963302612e-03 -2.511518895626068115e-01
-6.991200447082519531e-01 7.688109576702117920e-02 2.050393819808959961e-01
9.081616252660751343e-02 8.695843629539012909e-03 4.914978742599487305e-01
-2.114105820655822754e-01 1.496419161558151245e-01 3.113513812422752380e-03
3.036656677722930908e-01 -1.408250480890274048e-01 -2.063095122575759888e-01
-6.209307312965393066e-01 6.737093627452850342e-02 2.968070507049560547e-01
1.126904860138893127e-01 -1.008243486285209656e-01 3.698740303516387939e-01
-1.225693672895431519e-01 1.385200768709182739e-01 -1.448630690574645996e-01
-5.679583549499511719e-02 -1.142657250165939331e-01 2.489554286003112793e-01
2.317337095737457275e-01 8.813511580228805542e-02 2.501800358295440674e-01
2.131987810134887695e-01 1.067227497696876526e-01 1.113178282976150513e-01
5.412307977676391602e-01 3.487884625792503357e-02 1.507574319839477539e-01
-2.483960092067718506e-01 1.408741176128387451e-01 1.892026662826538086e-01
4.254040420055389404e-01 7.118269056081771851e-02 6.483200192451477051e-02
