4.277449846267700195e-01 2.480364292860031128e-01 -6.753420084714889526e-02
3.554218709468841553e-01 3.908822536468505859e-01 3.475924208760261536e-02
3.501038253307342529e-01 3.010754585266113281e-01 -6.527898460626602173e-02
6.641122698783874512e-02 -2.076052576303482056e-01 6.489996612071990967e-02
1.848006099462509155e-01 -1.776458919048309326e-01 -4.999860376119613647e-02
-4.520021080970764160e-01 -6.469860672950744629e-02 5.674444511532783508e-02
-3.948420882225036621e-01 8.988859504461288452e-02 3.709260374307632446e-03
-1.933472007513046265e-01 -2.835406363010406494e-01 6.829765439033508301e-02
1.606009155511856079e-02 -1.827374994754791260e-01 7.814060896635055542e-02
-3.140503466129302979e-01 -2.178015708923339844e-01 -8.287798613309860229e-02
-1.788094788789749146e-01 -2.370477318763732910e-01 7.846153527498245239e-02
3.348766863346099854e-01 3.104382455348968506e-01 -6.360781937837600708e-02
3.657013773918151855e-01 3.464822769165039062e-01 -5.268450826406478882e-02
4.019335806369781494e-01 7.040428370237350464e-02 7.120018452405929565e-02
-4.059270322322845459e-01 -2.283999137580394745e-02 -6.438299268484115601e-02
5.932902693748474121e-01 2.780099809169769287e-01 -3.274301066994667053e-02
8.563220500946044922e-02 -1.309621781110763550e-01 -8.154859393835067749e-02
4.328287243843078613e-01 8.338506519794464111e-02 6.692075729370117188e-02
-1.339364498853683472e-01 4.322014749050140381e-02 8.974828571081161499e-02
-5.709272250533103943e-02 -1.327099353075027466e-01 9.073235094547271729e-02
2.654830813407897949e-01 2.251668870449066162e-01 -8.063727617263793945e-02
6.073445081710815430e-01 1.570657491683959961e-01 -4.235472064465284348e-03
-6.099310517311096191e-01 -1.863469034433364868e-01 2.292513847351074219e-02
-5.607112646102905273e-01 -2.176240533590316772e-01 -5.189565941691398621e-02
-5.311030745506286621e-01 -3.718857169151306152e-01 -3.443873673677444458e-02
-4.688502103090286255e-02 -1.090288311243057251e-01 -9.370107948780059814e-02
-4.230596721172332764e-01 4.746240377426147461e-02 -3.203156962990760803e-02
3.304643332958221436e-01 1.701607108116149902e-01 8.408498018980026245e-02
-3.578555583953857422e-01 -3.704330027103424072e-01 -4.692887142300605774e-02
-3.385567367076873779e-01 4.280731081962585449e-02 5.990185216069221497e-02
-4.397080540657043457e-01 -3.303087651729583740e-01 5.357621610164642334e-02
5.375322699546813965e-01 5.841525644063949585e-02 1.585629954934120178e-02
-1.488894671201705933e-01 -1.690215989947319031e-02 -9.510580450296401978e-02
-2.072063237428665161e-01 1.461636573076248169e-01 5.840308219194412231e-02
-3.285920992493629456e-02 -1.308811902999877930e-01 -9.079635143280029297e-02
-4.926418960094451904e-01 -1.770803481340408325e-01 6.037445366382598877e-02
-5.413878560066223145e-01 -2.216076701879501343e-01 5.093376338481903076e-02
3.778099268674850464e-02 -1.297923028469085693e-01 -8.634211868047714233e-02
-3.625001609325408936e-01 5.750098079442977905e-02 4.842028766870498657e-02
-3.222551345825195312e-01 1.399904340505599976e-01 -1.767785474658012390e-02
1.235539093613624573e-01 3.207360804080963135e-01 -4.941390827298164368e-02
-6.245821714401245117e-01 -3.426643013954162598e-01 3.278099000453948975e-03
1.877999156713485718e-01 -1.641995757818222046e-01 5.674132332205772400e-02
-1.840772479772567749e-01 -2.044114619493484497e-01 -8.602837473154067993e-02
-2.106806933879852295e-01 1.993587017059326172e-01 -3.181831538677215576e-02
-3.724139630794525146e-01 -2.232253402471542358e-01 7.517734169960021973e-02
-4.460015594959259033e-01 -3.532623648643493652e-01 4.663093015551567078e-02
5.508169531822204590e-01 1.687076985836029053e-01 4.810819402337074280e-02
-4.354035258293151855e-01 -2.353803068399429321e-01 -7.280543446540832520e-02
-2.957747280597686768e-01 -7.092421501874923706e-02 -8.728795498609542847e-02
-4.944152534008026123e-01 -1.998183876276016235e-01 -6.591252982616424561e-02
-1.201131939888000488e-01 1.897339820861816406e-01 6.143243610858917236e-02
3.038765490055084229e-01 9.806300699710845947e-02 8.637066930532455444e-02
-7.016535848379135132e-02 -2.148416042327880859e-01 -7.892607897520065308e-02
1.592099666595458984e-01 1.323383767157793045e-02 9.339472651481628418e-02
-2.551468908786773682e-01 -5.219773575663566589e-02 8.681109547615051270e-02
4.806986451148986816e-01 6.953018903732299805e-02 5.204448103904724121e-02
-3.477706387639045715e-02 -1.066305767744779587e-02 -9.784810245037078857e-02
-5.474501252174377441e-01 -3.761906325817108154e-01 2.321459911763668060e-02
-4.047536849975585938e-01 -2.206042259931564331e-01 7.246355712413787842e-02
-2.816827893257141113e-01 -2.125498503446578979e-01 8.140494674444198608e-02
-1.135420575737953186e-01 -1.711432039737701416e-01 8.748425543308258057e-02
-5.387610793113708496e-01 -2.574086785316467285e-01 5.058464407920837402e-02
-3.467796742916107178e-01 -1.304347664117813110e-01 -8.444987237453460693e-02
3.721424937248229980e-02 -9.077609330415725708e-02 -9.161087870597839355e-02
4.885239303112030029e-01 1.349558774381875992e-02 2.512855269014835358e-02
-5.929954051971435547e-01 -1.506574600934982300e-01 2.357105165719985962e-02
-3.354522958397865295e-02 1.800579726696014404e-01 7.706999778747558594e-02
-2.260273545980453491e-01 -3.653344213962554932e-01 3.725349158048629761e-02
-2.112375050783157349e-01 8.650066703557968140e-02 7.427073270082473755e-02
5.254988670349121094e-01 1.611079275608062744e-01 -5.011193454265594482e-02
1.737990975379943848e-01 2.770747542381286621e-01 7.066208124160766602e-02
-5.479339361190795898e-01 -1.290556788444519043e-01 3.985801711678504944e-02
-1.406939625740051270e-01 5.299828201532363892e-02 -9.019489586353302002e-02
-1.607118099927902222e-01 2.429811507463455200e-01 7.201245520263910294e-03
6.055623292922973633e-01 2.325019538402557373e-01 3.339255973696708679e-02
-4.428252279758453369e-01 -4.173926115036010742e-01 -3.968163859099149704e-03
5.539973974227905273e-01 3.723526895046234131e-01 2.562040463089942932e-02
4.619261026382446289e-01 4.479987919330596924e-02 5.162619054317474365e-02
1.002458631992340088e-01 -2.442073673009872437e-01 -3.916329890489578247e-02
-2.364959120750427246e-01 -3.256638050079345703e-01 5.724496394395828247e-02
-3.342023491859436035e-01 -2.185848355293273926e-01 -8.189120143651962280e-02
1.065343990921974182e-01 -1.854797005653381348e-01 -6.474470347166061401e-02
-1.383402794599533081e-01 -5.871025472879409790e-02 9.444763511419296265e-02
-2.603502869606018066e-01 1.231667101383209229e-01 -5.702720582485198975e-02
3.153023719787597656e-01 1.988956630229949951e-01 -8.104313910007476807e-02
-5.574402213096618652e-01 -1.059965267777442932e-01 2.910508029162883759e-02
-1.761869043111801147e-01 -3.266457319259643555e-01 5.201977118849754333e-02
-4.738022685050964355e-01 -2.967172563076019287e-01 5.684330686926841736e-02
2.567781209945678711e-01 2.092462480068206787e-01 -8.279181271791458130e-02
-6.483427286148071289e-01 -2.653496265411376953e-01 -3.631151746958494186e-03
-6.263980865478515625e-01 -2.131327539682388306e-01 1.749060675501823425e-02
4.246551916003227234e-02 -2.634687721729278564e-01 -4.485148191452026367e-02
-2.842450439929962158e-01 1.021427959203720093e-01 5.500624701380729675e-02
3.555519282817840576e-01 1.551115363836288452e-01 -7.942972332239151001e-02
1.423227787017822266e-01 9.322497248649597168e-02 9.483458101749420166e-02
1.653668135404586792e-01 1.458631604909896851e-01 9.167823940515518188e-02
-1.314806640148162842e-01 -2.087786793708801270e-01 -8.381111174821853638e-02
-1.852038651704788208e-01 -9.319952130317687988e-02 9.229727089405059814e-02
-4.174187481403350830e-01 -3.313392996788024902e-01 -5.922863632440567017e-02
3.691878020763397217e-01 -8.964975923299789429e-02 2.860032021999359131e-02
4.277594089508056641e-01 4.167982935905456543e-01 2.003916539251804352e-03
-9.372068941593170166e-02 -1.581900268793106079e-01 -8.993507921695709229e-02
-2.084199637174606323e-01 3.678043559193611145e-02 -8.598650991916656494e-02
1.979459971189498901e-01 3.129568696022033691e-01 6.121645867824554443e-02
-3.184882700443267822e-01 -1.141110658645629883e-01 -8.678392320871353149e-02
4.551300704479217529e-01 4.050922393798828125e-01 2.205611579120159149e-02
-3.035815358161926270e-01 -6.635920144617557526e-03 -8.021669834852218628e-02
4.639377444982528687e-02 -8.255096524953842163e-02 -9.193477034568786621e-02
-2.443562895059585571e-01 1.887918114662170410e-01 -2.134928293526172638e-02
4.087260365486145020e-01 2.185397595167160034e-02 -5.738310515880584717e-02
1.136880367994308472e-01 3.080511838197708130e-02 -9.542223066091537476e-02
-1.674198359251022339e-01 -3.322317600250244141e-01 4.836155101656913757e-02
-3.015820980072021484e-01 -2.610953748226165771e-01 7.419041544198989868e-02
1.312598735094070435e-01 -1.147653758525848389e-01 8.032067865133285522e-02
1.675381660461425781e-01 2.831064164638519287e-01 -6.783928722143173218e-02
-4.787261188030242920e-01 -3.687510266900062561e-02 -4.652594029903411865e-02
-3.236759901046752930e-01 -3.900634348392486572e-01 -3.404308855533599854e-02
8.826341480016708374e-02 3.528019487857818604e-01 9.489966556429862976e-03
-3.482215702533721924e-01 -3.869155049324035645e-01 3.431027010083198547e-02
2.278912365436553955e-01 2.325311452150344849e-01 -8.020616322755813599e-02
-1.586497426033020020e-01 1.997427344322204590e-01 4.816522076725959778e-02
-1.914985477924346924e-01 -2.325152046978473663e-02 -9.300843626260757446e-02
-2.565408945083618164e-01 -3.784434199333190918e-01 3.222816064953804016e-02
3.622288703918457031e-01 -1.097027286887168884e-01 -3.860586788505315781e-03
5.372866392135620117e-01 2.518227398395538330e-01 -4.988776892423629761e-02
-1.941573172807693481e-01 9.270954132080078125e-02 -7.825917005538940430e-02
-1.761558055877685547e-01 -2.649399638175964355e-01 7.233137637376785278e-02
-4.466146230697631836e-01 -3.883771598339080811e-02 -5.763290449976921082e-02
3.898316621780395508e-01 3.657264709472656250e-01 4.791260883212089539e-02
8.561883121728897095e-02 -2.413620948791503906e-01 -4.551821947097778320e-02
-1.641757637262344360e-01 2.006639242172241211e-01 -4.863023012876510620e-02
4.317750930786132812e-01 4.030147194862365723e-01 2.572985738515853882e-02
6.958493031561374664e-03 -2.795272171497344971e-01 -4.481597617268562317e-02
5.981385707855224609e-01 1.425124257802963257e-01 1.267153862863779068e-02
-3.160677254199981689e-01 -3.016165792942047119e-01 6.584243476390838623e-02
6.262845396995544434e-01 2.176933735609054565e-01 -1.168681867420673370e-02
-4.247386008501052856e-02 1.465730071067810059e-01 8.307690918445587158e-02
-4.445336759090423584e-01 -3.907406628131866455e-01 -3.528591617941856384e-02
5.536706447601318359e-01 1.259668320417404175e-01 -3.387039527297019958e-02
2.229464426636695862e-02 9.375040978193283081e-02 9.384869039058685303e-02
2.895131707191467285e-01 1.471308320760726929e-01 -8.534487336874008179e-02
-2.881994247436523438e-01 -1.968923062086105347e-01 -8.583527803421020508e-02
1.243259534239768982e-01 -7.580883055925369263e-02 8.750826120376586914e-02
4.002552926540374756e-01 4.344605840742588043e-03 5.885600298643112183e-02
-5.389990806579589844e-01 -2.521385848522186279e-01 -5.651220679283142090e-02
-1.023845672607421875e-01 1.239039599895477295e-01 -8.302338421344757080e-02
3.003019690513610840e-01 -1.119294092059135437e-01 4.703046008944511414e-02
-3.891061842441558838e-01 3.311293199658393860e-02 4.873380064964294434e-02
4.009151458740234375e-01 -4.901704192161560059e-02 3.841100260615348816e-02
-2.453913092613220215e-01 -1.431125402450561523e-02 -8.799194544553756714e-02
-8.265758305788040161e-02 1.701644957065582275e-01 7.345346361398696899e-02
-7.966808974742889404e-02 -1.292619556188583374e-01 -9.275627136230468750e-02
-3.484261035919189453e-01 -2.052939832210540771e-01 -8.218748867511749268e-02
-3.995055556297302246e-01 3.500567749142646790e-02 -4.915913939476013184e-02
1.868974864482879639e-01 3.199160695075988770e-01 -5.683412775397300720e-02
-1.047106310725212097e-01 2.253035306930541992e-01 5.005109310150146484e-02
1.131931319832801819e-01 3.004520833492279053e-01 -5.723007395863533020e-02
2.176544964313507080e-01 3.325538635253906250e-01 5.533535033464431763e-02
1.792397648096084595e-01 2.116418331861495972e-01 8.431611210107803345e-02
-1.472495794296264648e-01 -3.062693476676940918e-01 5.751197412610054016e-02
-5.456160306930541992e-01 -1.460567116737365723e-01 4.385785385966300964e-02
5.201126933097839355e-01 2.949859797954559326e-01 5.376011878252029419e-02
2.846447825431823730e-01 6.803108006715774536e-02 8.685126900672912598e-02
2.124904692173004150e-01 3.725904822349548340e-01 3.205281868577003479e-02
-3.816413879394531250e-01 9.008245170116424561e-02 2.043703943490982056e-02
-3.490277007222175598e-02 -2.967958152294158936e-01 4.451251029968261719e-02
3.607887327671051025e-01 -6.007681041955947876e-02 -4.602960869669914246e-02
-1.288353558629751205e-02 2.848237156867980957e-01 4.109409078955650330e-02
1.976543068885803223e-01 -1.903137117624282837e-01 4.063398391008377075e-02
3.447628319263458252e-01 2.071488648653030396e-01 -7.840797305107116699e-02
-1.499775201082229614e-01 1.799232140183448792e-02 -9.292038530111312866e-02
-1.543467193841934204e-01 -1.340061575174331665e-01 -9.328985214233398438e-02
-2.187278354540467262e-03 -3.184388279914855957e-01 6.379726808518171310e-03
-4.314489066600799561e-01 -4.176963269710540771e-01 -4.676726646721363068e-03
1.430701315402984619e-01 -9.988328069448471069e-02 8.180399984121322632e-02
3.011381626129150391e-01 -5.713430792093276978e-02 6.626597791910171509e-02
3.099967837333679199e-01 2.856439650058746338e-01 -6.967616826295852661e-02
2.129962295293807983e-01 -9.203643351793289185e-02 7.395446300506591797e-02
1.628891080617904663e-01 8.456218242645263672e-02 9.457076340913772583e-02
5.617382004857063293e-02 -2.428663671016693115e-01 -5.227329209446907043e-02
-2.679334580898284912e-02 2.371739596128463745e-01 6.116251647472381592e-02
-3.093087375164031982e-01 1.500455737113952637e-01 -1.578744128346443176e-02
3.413482010364532471e-01 1.515626311302185059e-01 -8.088997006416320801e-02
-3.577071726322174072e-01 -5.406150966882705688e-02 7.425781339406967163e-02
3.372643589973449707e-01 1.997591555118560791e-01 8.209997415542602539e-02
-2.280132099986076355e-02 1.342283487319946289e-01 8.675858378410339355e-02
4.934004247188568115e-01 2.635529041290283203e-01 -5.741240829229354858e-02
-2.871997356414794922e-01 -3.008388876914978027e-01 6.615881621837615967e-02
2.382308244705200195e-01 1.511217653751373291e-01 8.986842632293701172e-02
3.786914050579071045e-02 1.873484253883361816e-01 -8.250871300697326660e-02
-1.262888591736555099e-02 7.549322396516799927e-02 -9.484586864709854126e-02
3.275092542171478271e-01 -1.269326955080032349e-01 2.278282493352890015e-02
7.878530025482177734e-02 -2.753573954105377197e-01 2.103423699736595154e-02
2.385196536779403687e-01 3.090465366840362549e-01 6.491094827651977539e-02
-3.176368772983551025e-04 -3.038085401058197021e-01 2.905548736453056335e-02
3.771363794803619385e-01 3.288610279560089111e-01 6.039020419120788574e-02
-1.635741442441940308e-01 2.356036305427551270e-01 -2.139335498213768005e-02
4.008947312831878662e-01 -7.209667563438415527e-02 -1.691895350813865662e-02
-2.734510004520416260e-01 1.501483768224716187e-01 3.575560450553894043e-02
1.544265002012252808e-01 3.051325082778930664e-01 -5.968224257230758667e-02
5.120797753334045410e-01 3.648883402347564697e-01 3.822081163525581360e-02
-5.510120391845703125e-01 -1.126439273357391357e-01 -4.052518680691719055e-02
4.147701859474182129e-01 3.262800872325897217e-01 5.937105789780616760e-02
-3.500532507896423340e-01 1.010155156254768372e-01 3.167130798101425171e-02
2.435934245586395264e-01 -1.171473637223243713e-01 6.100505962967872620e-02
-5.747024416923522949e-01 -2.424227893352508545e-01 4.223704338073730469e-02
4.591316878795623779e-01 -2.419069781899452209e-02 -1.201659440994262695e-02
-1.187286078929901123e-01 1.993684023618698120e-01 -6.020833924412727356e-02
-1.609710752964019775e-01 -7.287915050983428955e-02 9.352638572454452515e-02
-1.247730478644371033e-01 2.531951069831848145e-01 2.282179333269596100e-02
-1.563461124897003174e-01 -5.574677512049674988e-02 9.370086342096328735e-02
4.816663265228271484e-01 3.482889831066131592e-01 -4.402560740709304810e-02
-1.520876884460449219e-01 -3.350964188575744629e-01 4.470913484692573547e-02
-3.518089652061462402e-02 -2.131797969341278076e-01 -7.623264193534851074e-02
6.403095275163650513e-02 -8.269505947828292847e-02 -9.076298773288726807e-02
-2.249294370412826538e-01 -1.088870922103524208e-03 -8.869611471891403198e-02
3.382041454315185547e-01 2.978008687496185303e-01 6.886547058820724487e-02
2.299371510744094849e-01 1.290751695632934570e-01 9.114252030849456787e-02
3.533142507076263428e-01 9.249941259622573853e-02 -7.779859751462936401e-02
-3.993310928344726562e-01 -2.485120594501495361e-01 7.058641314506530762e-02
-3.633233532309532166e-02 5.937955901026725769e-02 9.429850429296493530e-02
4.497736096382141113e-01 4.005226790904998779e-01 2.656635269522666931e-02
-2.907965183258056641e-01 -2.216684073209762573e-01 -8.323395997285842896e-02
1.567253172397613525e-01 1.394858509302139282e-01 9.220592677593231201e-02
-6.411831825971603394e-02 -1.805159896612167358e-01 -8.523478358983993530e-02
-7.320649921894073486e-02 4.290515556931495667e-02 9.374807775020599365e-02
2.126153409481048584e-01 3.739129900932312012e-01 -2.989811822772026062e-02
1.194463446736335754e-01 -2.046752572059631348e-01 -5.483316630125045776e-02
1.582494229078292847e-01 3.259367346763610840e-01 5.201895534992218018e-02
-3.234541118144989014e-01 -1.328865438699722290e-01 8.287388086318969727e-02
-8.299022912979125977e-02 -5.540773645043373108e-02 -9.720670431852340698e-02
5.841081738471984863e-01 2.321236133575439453e-01 4.206325113773345947e-02
-2.785274088382720947e-01 -2.615196108818054199e-01 7.455433905124664307e-02
-2.599468529224395752e-01 1.427835226058959961e-01 4.511353746056556702e-02
2.231871932744979858e-01 -8.475149422883987427e-02 7.398908585309982300e-02
-5.277959108352661133e-01 -3.491317331790924072e-01 -4.330092296004295349e-02
4.264038205146789551e-01 3.268123269081115723e-01 -5.516740307211875916e-02
1.859058141708374023e-01 2.090303599834442139e-01 8.480693399906158447e-02
1.538223922252655029e-01 -8.431033790111541748e-02 -8.215343207120895386e-02
-2.373876720666885376e-01 -2.937297523021697998e-01 -6.971020996570587158e-02
5.246487632393836975e-02 5.768896266818046570e-02 -9.661518037319183350e-02
9.171470254659652710e-02 -6.641875207424163818e-02 -9.058471769094467163e-02
4.566943645477294922e-01 3.733569085597991943e-01 4.143602028489112854e-02
1.713792830705642700e-01 -2.108780145645141602e-01 -3.535784780979156494e-02
-3.775001466274261475e-01 -1.374713778495788574e-01 -8.138196915388107300e-02
-1.414441317319869995e-01 -3.673656880855560303e-01 -1.280901394784450531e-02
-2.250164449214935303e-01 2.070109546184539795e-01 -7.442491129040718079e-03
-3.822548985481262207e-01 -8.711722493171691895e-02 7.375632971525192261e-02
4.396381080150604248e-01 1.453314274549484253e-01 -6.775277107954025269e-02
-3.482786715030670166e-01 -2.578475773334503174e-01 -7.662422209978103638e-02
7.318794727325439453e-02 1.629854142665863037e-01 8.813267201185226440e-02
-3.692833185195922852e-01 -3.822742700576782227e-01 3.749499469995498657e-02
4.447567462921142578e-01 4.941903054714202881e-02 -5.395119637250900269e-02
2.518769204616546631e-01 -5.108533799648284912e-02 -7.440001517534255981e-02
2.293387800455093384e-01 1.544156819581985474e-01 8.996956795454025269e-02
5.010514855384826660e-01 3.310945034027099609e-01 -4.591016843914985657e-02
-4.061450958251953125e-01 -2.159159630537033081e-02 5.936042964458465576e-02
-1.815766841173171997e-02 2.380501925945281982e-01 -6.337743997573852539e-02
-7.179322838783264160e-02 1.002931594848632812e-01 8.792256563901901245e-02
5.325679183006286621e-01 2.333925813436508179e-01 -5.152131989598274231e-02
2.593055739998817444e-02 -6.183425895869731903e-03 -9.738297760486602783e-02
-5.249159783124923706e-02 -6.974085420370101929e-02 -9.656591713428497314e-02
-3.589289188385009766e-01 -2.479755133390426636e-01 7.360436022281646729e-02
4.686253070831298828e-01 3.904282152652740479e-01 3.173669800162315369e-02
4.094482064247131348e-01 3.695366084575653076e-01 4.579983279109001160e-02
1.082534566521644592e-01 1.094797551631927490e-01 -9.387607872486114502e-02
2.881211340427398682e-01 1.544786244630813599e-01 -8.521848171949386597e-02
-3.699117898941040039e-01 -2.347859144210815430e-01 -7.829575240612030029e-02
-3.606838360428810120e-02 -1.346621513366699219e-01 8.979427814483642578e-02
-1.171481981873512268e-01 -4.198341071605682373e-02 9.515789151191711426e-02
-6.847025454044342041e-02 -2.315301150083541870e-01 -7.478944212198257446e-02
2.486632317304611206e-01 3.972390294075012207e-01 -8.941975422203540802e-03
5.699528381228446960e-02 -2.560974955558776855e-01 -4.514514282345771790e-02
-1.444418281316757202e-01 -3.128502666950225830e-01 5.451269075274467468e-02
-5.517723560333251953e-01 -1.498890966176986694e-01 -4.835992306470870972e-02
-2.430016547441482544e-01 -1.067400351166725159e-01 -9.198921918869018555e-02
2.573659121990203857e-01 -2.960793115198612213e-02 7.957164198160171509e-02
4.992001354694366455e-01 1.838656514883041382e-01 -5.816358327865600586e-02
5.178986191749572754e-01 3.745466470718383789e-01 -2.889338508248329163e-02
1.063536852598190308e-01 -2.480576336383819580e-01 3.501873090863227844e-02
-5.158493518829345703e-01 -2.515561878681182861e-02 -1.680220663547515869e-02
-1.092592254281044006e-02 2.913800179958343506e-01 -3.830238059163093567e-02
-1.811456829309463501e-01 -3.149664103984832764e-01 -5.922499671578407288e-02
-1.055879704654216766e-02 -1.766181588172912598e-01 8.170311897993087769e-02
2.165960520505905151e-01 3.870828151702880859e-01 1.680515520274639130e-02
1.157106086611747742e-01 1.818917226046323776e-04 -9.429162740707397461e-02
2.564381659030914307e-01 1.077032759785652161e-01 -8.820887655019760132e-02
1.485218852758407593e-01 7.712613046169281006e-02 -9.420835971832275391e-02
-2.443180978298187256e-01 -3.691402673721313477e-01 -3.960986807942390442e-02
-3.541796207427978516e-01 2.033845521509647369e-02 -6.624423712491989136e-02
2.868839800357818604e-01 -2.673095650970935822e-02 -7.315834611654281616e-02
3.517057895660400391e-01 -5.094457045197486877e-02 -5.242382735013961792e-02
-1.953417658805847168e-01 -3.533148765563964844e-02 -9.336879849433898926e-02
-5.900588259100914001e-02 -3.294090628623962402e-01 -2.701933309435844421e-02
-1.084992811083793640e-01 -3.418437838554382324e-01 3.100043907761573792e-02
-3.612612783908843994e-01 1.157981157302856445e-01 3.923370037227869034e-03
2.600229978561401367e-01 -7.980487495660781860e-02 -6.639395654201507568e-02
-4.220218956470489502e-02 1.242130994796752930e-01 -8.798696845769882202e-02
3.797673061490058899e-02 1.651094853878021240e-01 -8.640854060649871826e-02
-5.683269500732421875e-01 -2.479411214590072632e-01 4.393918439745903015e-02
-2.423616051673889160e-01 -6.400019675493240356e-02 8.848478645086288452e-02
-5.303374528884887695e-01 -7.062204182147979736e-02 -3.596118837594985962e-02
-5.362821817398071289e-01 -1.670108884572982788e-01 4.940724745392799377e-02
1.506350189447402954e-01 2.944414615631103516e-01 -6.314389407634735107e-02
-2.595459520816802979e-01 -3.537169694900512695e-01 -4.974944517016410828e-02
-1.263808310031890869e-01 -3.553882539272308350e-01 2.306595630943775177e-02
2.406017482280731201e-01 -2.806935459375381470e-02 8.203930407762527466e-02
1.350871324539184570e-01 3.513397872447967529e-01 3.228252381086349487e-02
-3.351272940635681152e-01 -8.365979790687561035e-02 -8.391274511814117432e-02
1.026411727070808411e-01 3.520101308822631836e-01 2.046921290457248688e-02
-3.468491733074188232e-01 -2.200106382369995117e-01 -8.108508586883544922e-02
4.031942486763000488e-01 3.184504806995391846e-01 -5.877440050244331360e-02
1.801431030035018921e-01 1.529194265604019165e-01 -8.994293212890625000e-02
-5.173839628696441650e-02 1.565579026937484741e-01 -8.157270401716232300e-02
-7.349880039691925049e-02 2.500463128089904785e-01 4.529634490609169006e-02
-2.132097035646438599e-01 -3.152829706668853760e-01 5.957045778632164001e-02
-2.812463343143463135e-01 -3.507059812545776367e-01 4.976564273238182068e-02
4.748041629791259766e-01 3.674620985984802246e-01 4.213188588619232178e-02
5.311191678047180176e-01 4.826819151639938354e-02 1.243066601455211639e-02
-6.046935915946960449e-01 -2.826024889945983887e-01 3.079863078892230988e-02
1.397575139999389648e-01 -6.691952794790267944e-02 -8.634456247091293335e-02
2.973008900880813599e-02 -2.409330010414123535e-01 -5.859988182783126831e-02
-4.022168815135955811e-01 -2.098104655742645264e-01 7.335895299911499023e-02
3.592193424701690674e-01 3.478056490421295166e-01 5.498484522104263306e-02
-2.307831645011901855e-01 -2.324508689343929291e-02 -9.007046371698379517e-02
-1.675802618265151978e-01 2.260449379682540894e-01 2.718868479132652283e-02
-6.124691963195800781e-01 -3.591807484626770020e-01 -9.467422496527433395e-04
4.249137341976165771e-01 -5.569525063037872314e-02 -1.128159556537866592e-02
2.988312542438507080e-01 -1.054404228925704956e-01 5.051319301128387451e-02
-1.121538504958152771e-02 9.213392436504364014e-02 9.265791624784469604e-02
2.826373577117919922e-01 2.849109172821044922e-01 -7.022504508495330811e-02
-2.856585681438446045e-01 -1.669445782899856567e-01 -8.804254233837127686e-02
3.725071251392364502e-01 3.804500401020050049e-01 -3.859101980924606323e-02
3.433183133602142334e-01 -1.067462712526321411e-01 3.090294823050498962e-02
9.646991640329360962e-02 3.510843217372894287e-02 -9.610011428594589233e-02
-2.848903238773345947e-01 -4.245475307106971741e-02 8.302975445985794067e-02
2.881635129451751709e-01 2.473076730966567993e-01 7.897692918777465820e-02
-1.878734230995178223e-01 -3.792208731174468994e-01 -1.621171832084655762e-02
-1.434961557388305664e-01 2.035016417503356934e-01 5.049346387386322021e-02
3.276886940002441406e-01 1.318304240703582764e-01 8.487229794263839722e-02
-1.888870745897293091e-01 3.435653448104858398e-02 -8.824276924133300781e-02
5.427880883216857910e-01 1.157634034752845764e-01 4.094617068767547607e-02
6.865254789590835571e-02 2.401105128228664398e-02 9.694525599479675293e-02
1.571075990796089172e-02 -3.220247104763984680e-02 -9.686503559350967407e-02
5.915806069970130920e-02 -1.910312026739120483e-01 -7.073553651571273804e-02
-5.762223601341247559e-01 -9.269795566797256470e-02 -7.115122396498918533e-03
4.594813585281372070e-01 1.887474805116653442e-01 -6.572037935256958008e-02
4.378625750541687012e-01 2.676022946834564209e-01 -6.439881771802902222e-02
-2.930300235748291016e-01 -4.899726808071136475e-02 8.261958509683609009e-02
8.932033181190490723e-02 8.746488392353057861e-02 9.544933587312698364e-02
-4.461036622524261475e-01 -1.316787451505661011e-01 -7.154969125986099243e-02
6.806140393018722534e-02 5.467945709824562073e-02 9.664440900087356567e-02
2.582752704620361328e-01 1.073470525443553925e-02 8.490266650915145874e-02
-3.405460417270660400e-01 -3.750146329402923584e-01 -4.422909393906593323e-02
1.594614535570144653e-01 2.571772634983062744e-01 7.489385455846786499e-02
-5.888094305992126465e-01 -2.270413190126419067e-01 -4.374755173921585083e-02
-3.973692953586578369e-01 -3.878716528415679932e-01 3.431718423962593079e-02
2.321696281433105469e-01 2.753892242908477783e-01 7.353833317756652832e-02
1.371313333511352539e-01 1.764097064733505249e-01 -8.778285235166549683e-02
-8.490285836160182953e-03 -2.942422330379486084e-01 3.951367363333702087e-02
5.416380167007446289e-01 8.682538568973541260e-02 -2.655842155218124390e-02
-3.664752244949340820e-01 -6.805564463138580322e-02 -7.861264050006866455e-02
5.943925976753234863e-01 1.651048958301544189e-01 -2.254378423094749451e-02
-4.708863496780395508e-01 1.474885083734989166e-02 1.768161170184612274e-02
-5.688413977622985840e-01 -8.341712504625320435e-02 2.789285965263843536e-03
-4.787651896476745605e-01 -3.836140036582946777e-01 -3.641559183597564697e-02
-9.520242363214492798e-02 1.380305271595716476e-02 9.444974362850189209e-02
-1.740627586841583252e-01 4.422882199287414551e-02 8.601040393114089966e-02
-5.364157557487487793e-01 -2.291347980499267578e-01 -5.776224657893180847e-02
6.744947284460067749e-03 -8.039245754480361938e-02 9.386540949344635010e-02
-9.704705327749252319e-02 -3.004699051380157471e-01 5.381976813077926636e-02
-5.244489908218383789e-01 -2.981491684913635254e-01 4.924334213137626648e-02
-3.423225879669189453e-01 -2.449994534254074097e-01 -7.860305160284042358e-02
-5.703658983111381531e-02 1.656217873096466064e-01 7.773065567016601562e-02
3.564831018447875977e-01 1.670657396316528320e-01 -7.918953895568847656e-02
1.039115265011787415e-01 -1.572997868061065674e-02 9.463474154472351074e-02
-2.546015083789825439e-01 -3.331016004085540771e-01 5.546242743730545044e-02
-2.928836941719055176e-01 -1.671325564384460449e-01 -8.767788112163543701e-02
-4.337255656719207764e-01 -2.309892922639846802e-01 6.865089386701583862e-02
-5.827621221542358398e-01 -1.664160341024398804e-01 3.304570913314819336e-02
4.596695601940155029e-01 1.408886909484863281e-01 6.774505227804183960e-02
4.205498695373535156e-01 3.933736383914947510e-01 -3.010751679539680481e-02
4.570192396640777588e-01 4.142095446586608887e-01 7.585201412439346313e-03
4.284197986125946045e-01 2.537031173706054688e-01 7.040049135684967041e-02
-2.116021960973739624e-01 -2.278697788715362549e-01 8.052864670753479004e-02
3.836973011493682861e-02 -3.086841478943824768e-02 9.614522755146026611e-02
1.817936003208160400e-01 1.436156034469604492e-01 -9.058195352554321289e-02
4.503873884677886963e-01 1.258766055107116699e-01 6.828117370605468750e-02
1.311354786157608032e-01 1.642974466085433960e-01 -8.915869146585464478e-02
-4.567232131958007812e-01 -3.422796130180358887e-01 4.899200052022933960e-02
1.347932368516921997e-01 -1.860107928514480591e-01 6.009016558527946472e-02
1.207398474216461182e-01 1.690066009759902954e-01 8.893397450447082520e-02
-4.004437327384948730e-01 -1.599298566579818726e-01 7.466547191143035889e-02
5.952343717217445374e-02 9.224303066730499268e-02 9.488760679960250854e-02
3.347809016704559326e-01 2.101596593856811523e-01 -7.889819890260696411e-02
-1.881133317947387695e-01 2.144575864076614380e-01 2.711912989616394043e-02
-4.114940762519836426e-01 -1.440790891647338867e-01 -7.740800827741622925e-02
7.002401351928710938e-02 -8.751399070024490356e-02 9.008736908435821533e-02
2.756684124469757080e-01 1.622504740953445435e-02 8.349034935235977173e-02
4.582042396068572998e-01 -1.332947984337806702e-02 2.785350568592548370e-02
3.479472175240516663e-02 3.192870020866394043e-01 2.962554618716239929e-02
-3.823226392269134521e-01 -2.580888867378234863e-01 7.079907506704330444e-02
-5.905174016952514648e-01 -2.099764645099639893e-01 3.580784797668457031e-02
-3.209514319896697998e-01 1.517312228679656982e-02 -7.389600574970245361e-02
3.324621021747589111e-01 4.123952090740203857e-01 -2.204164484282955527e-04
-4.810299277305603027e-01 1.176533475518226624e-02 -1.491360832005739212e-02
4.942855834960937500e-01 4.651218280196189880e-02 3.964268788695335388e-02
3.586123585700988770e-01 2.248064428567886353e-01 -7.595556229352951050e-02
3.674055635929107666e-01 1.305572986602783203e-01 8.083701133728027344e-02
-8.882801234722137451e-02 1.718571931123733521e-01 -7.388892769813537598e-02
1.602841466665267944e-01 1.031933948397636414e-01 -9.320337325334548950e-02
-1.608734577894210815e-01 -3.661924973130226135e-03 -9.377075731754302979e-02
-1.655965745449066162e-01 -1.359659880399703979e-01 -9.310301393270492554e-02
1.800717860460281372e-01 -8.097354322671890259e-02 8.087490499019622803e-02
4.399776831269264221e-02 -1.229120343923568726e-01 -8.690813183784484863e-02
5.029947161674499512e-01 3.454616963863372803e-01 -4.191835224628448486e-02
-2.615785896778106689e-01 -1.195678710937500000e-01 8.780749887228012085e-02
-8.014256507158279419e-02 -2.580509781837463379e-01 6.752613931894302368e-02
2.142244875431060791e-01 3.406221568584442139e-01 -5.041163414716720581e-02
-2.743792533874511719e-01 -1.449337452650070190e-01 8.643139153718948364e-02
4.738844931125640869e-01 3.941704034805297852e-01 -2.503631822764873505e-02
9.782291017472743988e-04 -1.162604242563247681e-01 9.045824408531188965e-02
-1.426065564155578613e-01 -1.230002939701080322e-01 9.226351231336593628e-02
-3.410867750644683838e-01 -5.210296809673309326e-02 -8.056259155273437500e-02
-3.399567604064941406e-01 6.189424172043800354e-02 -5.785242840647697449e-02
-4.745762422680854797e-02 8.740529417991638184e-02 9.119439125061035156e-02
-8.298339694738388062e-02 2.101226449012756348e-01 -6.290790438652038574e-02
-3.651449978351593018e-01 -1.764261424541473389e-01 7.839398086071014404e-02
-1.482502371072769165e-01 2.312116920948028564e-01 -3.449529781937599182e-02
-3.838855624198913574e-01 -3.349119722843170166e-01 -5.959329754114151001e-02
-2.967630624771118164e-01 -3.226946294307708740e-01 -6.331186741590499878e-02
2.339586615562438965e-01 -1.966518163681030273e-01 9.577125310897827148e-03
2.737132087349891663e-02 4.671569913625717163e-02 9.668594598770141602e-02
-4.895664453506469727e-01 -1.983838975429534912e-01 6.147182360291481018e-02
-2.277920395135879517e-01 2.058847248554229736e-01 4.122222890146076679e-04
3.473844751715660095e-02 2.006560862064361572e-01 7.907718420028686523e-02
-3.127422034740447998e-01 2.004291489720344543e-02 -7.439527660608291626e-02
-3.084248602390289307e-01 -4.061218798160552979e-01 1.077879499644041061e-02
2.688707411289215088e-01 1.498482078313827515e-01 -8.662250638008117676e-02
5.578436851501464844e-01 1.114945188164710999e-01 -2.695952355861663818e-02
-1.563760191202163696e-01 -3.654763400554656982e-01 -2.335852198302745819e-02
-8.820301294326782227e-02 1.640040054917335510e-02 -9.612170606851577759e-02
-2.438405603170394897e-01 -3.773673474788665771e-01 -3.362657874822616577e-02
4.314999654889106750e-02 -2.746534049510955811e-01 3.771778196096420288e-02
-5.724430680274963379e-01 -2.954072654247283936e-01 -4.539103433489799500e-02
-5.650722980499267578e-01 -3.916012942790985107e-01 -2.217339351773262024e-03
5.840852856636047363e-01 3.365456759929656982e-01 3.068977408111095428e-02
-3.459307551383972168e-01 -6.236441060900688171e-02 7.691770046949386597e-02
-5.484774708747863770e-01 -1.747961491346359253e-01 -5.258516967296600342e-02
-5.450178980827331543e-01 -2.115064859390258789e-01 -5.571182072162628174e-02
-2.605389058589935303e-01 1.216964274644851685e-01 5.411621183156967163e-02
3.042074441909790039e-01 2.155681373551487923e-03 -7.517585903406143188e-02
-1.500635296106338501e-01 -8.569237589836120605e-02 -9.567139297723770142e-02
5.767663121223449707e-01 2.691908776760101318e-01 -3.878153115510940552e-02
-3.712882399559020996e-01 -3.640562593936920166e-01 4.603149369359016418e-02
2.545737624168395996e-01 3.376464918255805969e-02 -8.539851009845733643e-02
1.191995106637477875e-04 3.208689391613006592e-01 7.699975976720452309e-04
-9.383106976747512817e-02 7.339511811733245850e-02 -9.122428297996520996e-02
-3.533096909523010254e-01 -2.840277254581451416e-01 -7.218521088361740112e-02
1.560810506343841553e-01 -5.130716785788536072e-02 -8.676899969577789307e-02
-1.471543163061141968e-01 -8.471000194549560547e-02 9.383439272642135620e-02
-3.388901948928833008e-01 -3.911335170269012451e-01 3.104708343744277954e-02
-3.255672752857208252e-01 7.331164181232452393e-02 -5.787541344761848450e-02
-3.162632584571838379e-01 -8.567655831575393677e-02 8.237446844577789307e-02
-2.093319743871688843e-01 -2.451116442680358887e-01 -7.981903105974197388e-02
4.937099218368530273e-01 2.352932095527648926e-01 -5.917701497673988342e-02
1.424904018640518188e-01 1.094181835651397705e-01 9.416860342025756836e-02
-2.741194367408752441e-01 -1.477169096469879150e-01 -8.947980403900146484e-02
-3.862560391426086426e-01 -1.914539933204650879e-02 -6.799010932445526123e-02
-3.353045582771301270e-01 -9.445712715387344360e-02 -8.448921889066696167e-02
3.565233200788497925e-03 1.239513456821441650e-01 8.988286554813385010e-02
-4.494321644306182861e-01 -3.763447701930999756e-01 -4.228004813194274902e-02
6.923015415668487549e-02 -1.014774665236473083e-01 -8.798433095216751099e-02
-2.235658913850784302e-01 6.439577043056488037e-02 7.682475447654724121e-02
-2.343861609697341919e-01 -3.383655548095703125e-01 -5.455341562628746033e-02
-2.602629661560058594e-01 -1.033717170357704163e-01 -9.100904315710067749e-02
-4.461869895458221436e-01 -1.152457445859909058e-01 6.521563977003097534e-02
2.132784724235534668e-01 5.498791858553886414e-02 9.194690734148025513e-02
-1.138966977596282959e-01 -3.218042850494384766e-01 4.587885364890098572e-02
-7.204920053482055664e-02 -1.897408962249755859e-01 8.312451839447021484e-02
-1.766055822372436523e-01 -6.968224793672561646e-02 -9.508603811264038086e-02
9.686880558729171753e-02 -2.734254896640777588e-01 -4.479641094803810120e-03
-3.547336757183074951e-01 -3.869158327579498291e-01 -3.810539096593856812e-02
4.009828567504882812e-01 2.395448088645935059e-02 6.340640783309936523e-02
-2.584592700004577637e-01 -2.766563892364501953e-01 7.164783775806427002e-02
5.163408517837524414e-01 2.862790785729885101e-02 3.883604891598224640e-03
-5.532914772629737854e-02 1.123316362500190735e-01 -8.882556855678558350e-02
3.609053790569305420e-01 1.203952431678771973e-01 -7.826191186904907227e-02
-1.725107580423355103e-01 -3.407175242900848389e-01 -4.635761678218841553e-02
8.733049780130386353e-02 1.811866164207458496e-01 -8.599905669689178467e-02
3.108437359333038330e-01 2.929669022560119629e-01 7.031987607479095459e-02
-6.816624850034713745e-02 1.818802505731582642e-01 -7.389908283948898315e-02
4.332875013351440430e-01 2.252004295587539673e-01 7.213901728391647339e-02
-4.586000144481658936e-01 -2.484339177608489990e-01 6.435415893793106079e-02
-5.335110425949096680e-01 -2.620570063591003418e-01 5.136279761791229248e-02
-4.459835886955261230e-01 -7.223857194185256958e-02 5.960497632622718811e-02
2.294432371854782104e-01 2.461950331926345825e-01 -7.793799042701721191e-02
3.141463994979858398e-01 2.560119926929473877e-01 -7.476898282766342163e-02
-3.244335949420928955e-02 3.065115809440612793e-01 4.772947635501623154e-03
-2.348007559776306152e-01 -2.711692750453948975e-01 -7.511804252862930298e-02
-1.641557067632675171e-01 1.368261594325304031e-02 -9.231672435998916626e-02
-6.517340987920761108e-02 -2.650251090526580811e-01 -6.440458446741104126e-02
3.501441776752471924e-01 4.059037566184997559e-01 2.139614336192607880e-02
-1.604225337505340576e-01 -3.268640041351318359e-01 -5.176153033971786499e-02
-3.725855350494384766e-01 3.736533969640731812e-02 5.241211131215095520e-02
3.933991491794586182e-01 -1.317578367888927460e-02 -5.220614746212959290e-02
1.276650726795196533e-01 2.067421525716781616e-01 8.362024277448654175e-02
4.306116402149200439e-01 2.996012568473815918e-01 6.388375908136367798e-02
4.195670485496520996e-01 8.831378072500228882e-02 7.017362117767333984e-02
3.523953855037689209e-01 2.048166394233703613e-01 -7.797332108020782471e-02
5.504583716392517090e-01 2.220500409603118896e-01 -4.710328206419944763e-02
4.384851753711700439e-01 3.763114809989929199e-01 4.146586358547210693e-02
2.934961393475532532e-02 -1.353503614664077759e-01 -8.614001423120498657e-02
-1.690953671932220459e-01 -2.579830884933471680e-01 -7.555755972862243652e-02
-1.374839246273040771e-01 -7.903449237346649170e-02 9.424030780792236328e-02
-4.701566100120544434e-01 2.564765326678752899e-02 -5.334276705980300903e-03
-2.111109793186187744e-01 -2.308717817068099976e-01 -8.238132297992706299e-02
3.836160898208618164e-01 -9.288955479860305786e-02 -4.579464904963970184e-03
2.947066128253936768e-01 1.238874197006225586e-01 -8.522823452949523926e-02
2.998512685298919678e-01 7.377108931541442871e-02 -8.323325961828231812e-02
5.278868079185485840e-01 1.866815686225891113e-01 -5.160466209053993225e-02
-1.607298702001571655e-01 -3.484105765819549561e-01 3.800016269087791443e-02
-7.210869342088699341e-02 -2.012651115655899048e-01 8.096823841333389282e-02
1.988616734743118286e-01 3.857137262821197510e-01 1.053558290004730225e-02
-1.050192937254905701e-01 5.575608834624290466e-02 9.067828953266143799e-02
5.703876018524169922e-01 2.254321128129959106e-01 4.635640978813171387e-02
2.920878231525421143e-01 2.341808825731277466e-01 -7.863630354404449463e-02
2.137252315878868103e-02 3.273278176784515381e-01 -1.182054169476032257e-02
5.250363349914550781e-01 6.715587526559829712e-02 -2.765326760709285736e-02
-8.513615280389785767e-02 -9.679782390594482422e-02 -9.547389298677444458e-02
3.099272549152374268e-01 1.885204017162322998e-01 8.446110785007476807e-02
-3.315257430076599121e-01 -3.322835564613342285e-01 5.747671425342559814e-02
2.032843381166458130e-01 -6.720852106809616089e-03 8.865241706371307373e-02
-3.912728130817413330e-01 -7.071866095066070557e-02 7.058483362197875977e-02
-8.763371407985687256e-02 2.925895899534225464e-02 9.393152594566345215e-02
-1.042759567499160767e-01 -1.602347940206527710e-01 -9.002461284399032593e-02
1.423834264278411865e-01 2.797271311283111572e-01 -6.721469014883041382e-02
-1.137897968292236328e-01 3.853291273117065430e-02 -9.344760328531265259e-02
2.030948698520660400e-01 2.867688834667205811e-01 6.963109225034713745e-02
2.020655423402786255e-01 6.997637450695037842e-02 9.297963976860046387e-02
-3.391844332218170166e-01 1.154573112726211548e-01 2.706400305032730103e-02
2.826760113239288330e-01 3.938965499401092529e-03 8.109442144632339478e-02
-6.026955842971801758e-01 -2.796644866466522217e-01 -3.808652609586715698e-02
-5.387021601200103760e-02 -4.360900819301605225e-02 9.647929668426513672e-02
2.945658564567565918e-01 -8.266875892877578735e-02 6.028798967599868774e-02
-2.937511205673217773e-01 8.273390680551528931e-02 5.909049510955810547e-02
1.275663673877716064e-01 2.734328508377075195e-01 -6.801714003086090088e-02
-4.495476782321929932e-01 -3.900098204612731934e-01 3.085836023092269897e-02
1.941529065370559692e-01 6.419754587113857269e-03 -8.911202102899551392e-02
5.661050677299499512e-01 1.947623342275619507e-01 -4.090511053800582886e-02
-4.792153537273406982e-01 -3.745625913143157959e-01 3.571907803416252136e-02
3.597932159900665283e-01 -9.467466175556182861e-02 3.049851953983306885e-02
1.287972480058670044e-01 -1.513324081897735596e-01 -7.115295529365539551e-02
-4.416391253471374512e-01 -1.403799206018447876e-01 -7.283954322338104248e-02
-5.370923876762390137e-01 -3.332408964633941650e-01 -4.596596583724021912e-02
4.630350768566131592e-01 4.036495387554168701e-01 2.255837433040142059e-02
-2.286601960659027100e-01 -2.776375226676464081e-02 8.771626651287078857e-02
-5.290262103080749512e-01 -1.986242234706878662e-01 5.335592478513717651e-02
-2.623105049133300781e-01 5.638364329934120178e-02 -7.558388262987136841e-02
-4.496185183525085449e-01 -2.263092398643493652e-01 -7.179432362318038940e-02
-4.196175634860992432e-01 -3.183600008487701416e-01 -6.224356219172477722e-02
-1.516636610031127930e-01 -2.458235919475555420e-01 -7.742433995008468628e-02
-9.153208881616592407e-02 -7.324346899986267090e-02 -9.666373580694198608e-02
4.810455143451690674e-01 2.013076096773147583e-01 6.618001312017440796e-02
-3.636960089206695557e-01 -7.660065591335296631e-02 -7.981155812740325928e-02
2.455983757972717285e-01 -9.410461038351058960e-02 6.765083223581314087e-02
4.636788070201873779e-01 2.939689159393310547e-01 -5.790385231375694275e-02
-1.884873211383819580e-01 -1.379851847887039185e-01 9.046547114849090576e-02
-1.599986851215362549e-01 -1.758159101009368896e-01 -8.937986940145492554e-02
-3.870537579059600830e-01 3.335715085268020630e-02 -5.390166118741035461e-02
-5.702307224273681641e-01 -1.272141486406326294e-01 -3.557152301073074341e-02
3.896280527114868164e-01 3.976624906063079834e-01 -2.796422876417636871e-02
3.537184596061706543e-01 3.764140605926513672e-01 -4.059921577572822571e-02
1.828046590089797974e-01 2.824263572692871094e-01 -6.883677095174789429e-02
7.398170977830886841e-02 -9.003589302301406860e-02 -8.913646638393402100e-02
1.843720227479934692e-01 1.408527344465255737e-01 9.183788299560546875e-02
-1.644983887672424316e-01 1.267577707767486572e-01 7.235673815011978149e-02
2.842567861080169678e-01 3.639950752258300781e-01 -4.441027343273162842e-02
2.732906118035316467e-02 2.265486717224121094e-01 7.199905812740325928e-02
3.021189570426940918e-01 3.636514544486999512e-01 4.745846986770629883e-02
1.539535820484161377e-01 -7.581502944231033325e-02 -8.352587372064590454e-02
2.184659391641616821e-01 -1.012766137719154358e-01 7.078022509813308716e-02
-2.965831756591796875e-01 -1.335979998111724854e-01 8.514151722192764282e-02
1.617314517498016357e-01 -1.797933280467987061e-01 5.659724399447441101e-02
-4.016148149967193604e-01 -1.682828515768051147e-01 -7.895793020725250244e-02
3.072099089622497559e-01 4.087064862251281738e-01 6.004062015563249588e-03
2.826752364635467529e-01 -5.191938020288944244e-03 7.981560379266738892e-02
2.994273900985717773e-01 1.832552552223205566e-01 -8.309552818536758423e-02
-4.761588945984840393e-02 -2.002120167016983032e-01 -8.030945807695388794e-02
-4.686442017555236816e-01 -1.313589215278625488e-01 6.221949309110641479e-02
2.164923846721649170e-01 1.184776350855827332e-01 -9.049559384584426880e-02
-6.305422782897949219e-01 -2.829959988594055176e-01 1.856083050370216370e-02
1.752220839262008667e-01 3.585826456546783447e-01 -3.502436727285385132e-02
-2.668762803077697754e-01 6.287223845720291138e-02 -7.342743128538131714e-02
-2.683337405323982239e-02 -1.592152565717697144e-01 -8.642475306987762451e-02
-2.412765622138977051e-01 -9.396327286958694458e-02 -9.210254997014999390e-02
-1.330735087394714355e-01 2.887511067092418671e-02 -9.310532361268997192e-02
-5.798444151878356934e-01 -1.252593398094177246e-01 2.286219783127307892e-02
2.022513449192047119e-01 2.737095654010772705e-01 7.294615358114242554e-02
-2.551243901252746582e-01 -2.413982003927230835e-01 7.822204381227493286e-02
-1.787121221423149109e-02 1.105758249759674072e-01 -9.121058881282806396e-02
2.148802876472473145e-01 -1.710908859968185425e-01 -4.388451576232910156e-02
-2.273477911949157715e-01 -2.860426008701324463e-01 6.891619414091110229e-02
-1.215482503175735474e-01 1.497992128133773804e-01 -7.517558336257934570e-02
1.614471822977066040e-01 -1.588788479566574097e-01 -6.300619244575500488e-02
-4.918980002403259277e-01 -2.501142323017120361e-01 -6.474205106496810913e-02
-3.811112642288208008e-01 -1.031455695629119873e-01 7.516431808471679688e-02
-4.722574055194854736e-01 8.423320017755031586e-03 -2.738202549517154694e-02
-8.801921457052230835e-02 -1.013521030545234680e-01 9.393522888422012329e-02
-3.126955926418304443e-01 7.047188282012939453e-02 5.821135267615318298e-02
3.625270426273345947e-01 1.502727568149566650e-01 8.164821565151214600e-02
-2.528795897960662842e-01 -2.979159653186798096e-01 6.647395342588424683e-02
3.224288225173950195e-01 1.511999666690826416e-01 8.519367873668670654e-02
2.877957224845886230e-01 -1.609871089458465576e-01 1.267671119421720505e-02
-4.046420753002166748e-01 -3.626585900783538818e-01 4.577299579977989197e-02
5.314086079597473145e-01 3.950398862361907959e-01 -1.117419637739658356e-02
5.835864543914794922e-01 1.164492890238761902e-01 1.010368205606937408e-02
2.864747941493988037e-01 -9.660294651985168457e-02 -5.500361323356628418e-02
-3.293921351432800293e-01 -1.138314902782440186e-01 -8.578842133283615112e-02
-5.614567399024963379e-01 -1.759383827447891235e-01 -4.875705391168594360e-02
2.686326801776885986e-01 1.538954861462116241e-02 -8.201258629560470581e-02
-6.042002439498901367e-01 -2.171684652566909790e-01 -3.719898685812950134e-02
-4.017293453216552734e-01 1.475662924349308014e-02 -5.561082810163497925e-02
-5.244184732437133789e-01 -8.829891681671142578e-02 -4.478958249092102051e-02
9.188565611839294434e-02 -1.269696950912475586e-01 8.224041014909744263e-02
