2.683168351650238037e-01 5.164929106831550598e-02 -1.497881561517715454e-01
4.496614634990692139e-02 -6.925150752067565918e-02 -5.314504504203796387e-01
-9.087421745061874390e-02 -1.105865910649299622e-01 -5.132261514663696289e-01
1.144589707255363464e-01 3.462295830249786377e-01 -1.765575259923934937e-01
-1.972092241048812866e-01 -4.398065060377120972e-02 -4.167962372303009033e-01
6.872501224279403687e-03 -1.768289208412170410e-01 5.083865523338317871e-01
-1.305211242288351059e-02 3.636727035045623779e-01 -2.377261519432067871e-01
2.713787853717803955e-01 9.561443328857421875e-02 1.527576893568038940e-01
-1.180254667997360229e-01 -2.444479614496231079e-01 -4.137173891067504883e-01
-1.617443710565567017e-01 1.320582479238510132e-01 4.432517886161804199e-01
-1.074370443820953369e-01 -3.547030985355377197e-01 2.267467975616455078e-01
6.458070129156112671e-02 -2.464061528444290161e-01 -4.328661859035491943e-01
2.342955768108367920e-01 -9.176356345415115356e-02 -2.729076743125915527e-01
-2.753056883811950684e-01 -1.282469928264617920e-01 1.248490884900093079e-01
1.444993466138839722e-01 -3.394291996955871582e-01 -1.642639040946960449e-01
9.992025047540664673e-02 3.880413770675659180e-01 1.014695689082145691e-01
-6.402745842933654785e-02 -3.915353119373321533e-01 -2.029201835393905640e-01
-2.761504352092742920e-01 1.416197866201400757e-01 -3.157137334346771240e-02
-1.358958780765533447e-01 8.810880593955516815e-03 5.024871826171875000e-01
-2.905540354549884796e-02 -4.883791506290435791e-02 -5.445117354393005371e-01
-2.961100935935974121e-01 -1.959643699228763580e-02 5.932158324867486954e-03
2.423443645238876343e-01 -1.229449659585952759e-01 2.589134275913238525e-01
-1.875798404216766357e-01 2.907273173332214355e-01 1.997100412845611572e-01
-1.058129668235778809e-01 -1.479834467172622681e-01 -4.899883568286895752e-01
-2.519679963588714600e-01 -6.957568228244781494e-03 2.936131358146667480e-01
4.130387678742408752e-04 2.423173636198043823e-01 4.780473113059997559e-01
-2.751060128211975098e-01 -1.541831940412521362e-01 -9.294565767049789429e-02
1.037040203809738159e-01 -2.652699053287506104e-01 -3.789370357990264893e-01
1.046101078391075134e-01 3.732154667377471924e-01 1.811206191778182983e-01
-1.361805200576782227e-01 3.597349524497985840e-01 -8.492396771907806396e-02
-2.716204822063446045e-01 -1.394726634025573730e-01 -1.538207978010177612e-01
-2.574150562286376953e-01 1.938540488481521606e-01 -6.172505766153335571e-02
1.818687319755554199e-01 -2.468473762273788452e-01 -2.672188878059387207e-01
-7.532432675361633301e-02 -4.561358690261840820e-02 -5.326783657073974609e-01
-2.708398103713989258e-01 -6.725282967090606689e-02 -2.204155176877975464e-01
3.688152134418487549e-02 -1.618348509073257446e-01 -5.051804184913635254e-01
2.261884063482284546e-01 8.774911612272262573e-02 -2.890073359012603760e-01
-2.338956147432327271e-01 -1.954950839281082153e-01 -2.513609230518341064e-01
-5.297527462244033813e-02 -3.810850381851196289e-01 -2.446540594100952148e-01
1.633817143738269806e-02 -7.487985491752624512e-02 -5.390536785125732422e-01
-2.933526337146759033e-01 4.945953190326690674e-02 -3.542853519320487976e-04
-1.936009675264358521e-01 2.443125993013381958e-01 2.789666950702667236e-01
-4.033382982015609741e-02 2.592738568782806396e-01 4.538876414299011230e-01
-2.865782976150512695e-01 -9.647528082132339478e-02 7.490067183971405029e-02
-1.756954044103622437e-01 -3.198442161083221436e-01 -1.962877810001373291e-01
-3.591235261410474777e-03 4.129036664962768555e-01 1.138987466692924500e-01
-1.002004072070121765e-01 1.511786878108978271e-01 -4.681136012077331543e-01
-9.479284286499023438e-02 -2.561462819576263428e-01 -4.214912652969360352e-01
9.451335296034812927e-03 4.146881401538848877e-01 9.217473864555358887e-02
-5.384866893291473389e-02 3.039200603961944580e-01 3.939901590347290039e-01
7.424509525299072266e-02 -1.024085581302642822e-01 -5.094772577285766602e-01
1.702801734209060669e-01 2.951083779335021973e-01 -1.733457446098327637e-01
-2.427800446748733521e-01 7.059396058320999146e-02 -3.006654977798461914e-01
-1.995448768138885498e-01 2.937324643135070801e-01 1.311043947935104370e-01
-2.571512758731842041e-01 -1.084627658128738403e-01 -2.536523640155792236e-01
-1.060983911156654358e-01 3.688684999942779541e-01 1.922119855880737305e-01
-2.005328536033630371e-01 -2.213065922260284424e-01 2.889885604381561279e-01
-2.750934660434722900e-02 3.641470074653625488e-01 -2.335990816354751587e-01
6.767667829990386963e-02 -1.745677739381790161e-01 4.932509064674377441e-01
-1.675160974264144897e-01 -1.475008428096771240e-01 4.175088107585906982e-01
-2.414971292018890381e-01 -1.251200139522552490e-01 -2.943600714206695557e-01
1.525721698999404907e-01 -1.280352026224136353e-01 4.483373761177062988e-01
-2.732032239437103271e-01 -1.639984846115112305e-01 -8.410751819610595703e-02
-6.446435116231441498e-03 1.451455205678939819e-01 5.410135984420776367e-01
-1.835966110229492188e-01 -3.368682563304901123e-01 -7.514119893312454224e-02
-1.238332241773605347e-01 -2.004152238368988037e-01 4.320834279060363770e-01
-2.677204012870788574e-01 -1.818941533565521240e-01 -8.701098710298538208e-02
4.780586808919906616e-03 6.403239816427230835e-02 -5.335200428962707520e-01
-1.876967549324035645e-01 -2.932145297527313232e-01 -2.276806980371475220e-01
-1.177040785551071167e-01 7.864911109209060669e-02 -4.908591806888580322e-01
1.356914788484573364e-01 -1.684261560440063477e-01 4.424339830875396729e-01
-2.050977647304534912e-01 7.794891297817230225e-02 3.943620622158050537e-01
2.753425538539886475e-01 -5.815736204385757446e-02 1.470764130353927612e-01
2.719000279903411865e-01 9.626836329698562622e-02 -8.430963754653930664e-02
-7.679496705532073975e-02 3.370399177074432373e-01 3.214310705661773682e-01
5.014455877244472504e-03 -3.194347918033599854e-01 3.599239289760589600e-01
-2.447880506515502930e-01 1.631597280502319336e-01 2.284761518239974976e-01
-8.894948661327362061e-02 -3.639746308326721191e-01 2.283995151519775391e-01
1.838094741106033325e-01 -2.800045609474182129e-01 -1.991862505674362183e-01
1.813233494758605957e-01 -2.311103194952011108e-01 -2.907237708568572998e-01
2.151970863342285156e-01 7.685297727584838867e-02 -3.220298588275909424e-01
9.858790040016174316e-02 3.648644089698791504e-01 -1.496197134256362915e-01
-1.946915239095687866e-01 -1.597710102796554565e-01 3.637750446796417236e-01
1.656502932310104370e-01 -4.432703182101249695e-02 -4.292987883090972900e-01
1.220011860132217407e-01 2.394689172506332397e-01 -3.543289005756378174e-01
-2.291673868894577026e-01 3.275182098150253296e-02 3.533661365509033203e-01
1.810685843229293823e-01 -2.965666353702545166e-01 -1.656173914670944214e-01
-1.661555767059326172e-01 2.936484217643737793e-01 2.591292858123779297e-01
-7.174454629421234131e-02 4.000024199485778809e-01 -4.770272225141525269e-02
-1.476697474718093872e-01 -3.671005666255950928e-01 -1.072731912136077881e-01
-1.790017932653427124e-01 -3.034854829311370850e-01 -2.294348180294036865e-01
2.827651202678680420e-01 3.256298974156379700e-02 -4.143724590539932251e-02
2.321565337479114532e-02 -1.252122819423675537e-01 -5.246086716651916504e-01
1.169151365756988525e-01 -3.792217075824737549e-01 -7.413934171199798584e-02
2.484499067068099976e-01 -1.936316788196563721e-01 1.003614962100982666e-01
-5.299030989408493042e-02 -4.181761443614959717e-01 -6.010431796312332153e-02
-2.219728678464889526e-01 1.749538332223892212e-01 -2.708543241024017334e-01
3.842809796333312988e-02 -3.875077366828918457e-01 1.993504762649536133e-01
-2.565125823020935059e-01 -7.197953760623931885e-02 -2.739662528038024902e-01
2.718297243118286133e-01 8.791156578809022903e-04 -1.446578949689865112e-01
2.318976223468780518e-01 -2.417609095573425293e-01 -1.597876660525798798e-02
9.185989946126937866e-02 3.234677910804748535e-01 3.365310430526733398e-01
1.863099932670593262e-01 3.103675134479999542e-02 4.406117200851440430e-01
2.709265947341918945e-01 -9.470340609550476074e-02 -1.001205891370773315e-01
-2.426204681396484375e-01 -8.366483449935913086e-02 -3.121648430824279785e-01
1.385167241096496582e-01 4.508976265788078308e-02 5.020905137062072754e-01
5.041746050119400024e-02 1.317194998264312744e-01 -4.947137534618377686e-01
-1.538418531417846680e-01 2.670083045959472656e-01 3.326358497142791748e-01
2.726664245128631592e-01 -1.046422570943832397e-01 -6.620353460311889648e-02
2.534431517124176025e-01 -3.466430306434631348e-02 2.734494507312774658e-01
-1.503790020942687988e-01 -3.585316538810729980e-01 -1.436163187026977539e-01
-5.536741763353347778e-02 -4.049612283706665039e-01 1.262323409318923950e-01
-2.643080651760101318e-01 8.828284591436386108e-02 -2.150509655475616455e-01
-2.379780560731887817e-01 4.970191419124603271e-02 3.277430832386016846e-01
-9.355950355529785156e-02 1.355320215225219727e-01 5.117433071136474609e-01
-2.466236054897308350e-01 -2.389547973871231079e-01 -7.678316533565521240e-02
-2.878746092319488525e-01 -1.050211191177368164e-01 -4.941107332706451416e-02
1.307394504547119141e-01 2.935381233692169189e-01 3.370989561080932617e-01
2.750691771507263184e-01 -9.860743582248687744e-02 -4.796974360942840576e-02
2.264089733362197876e-01 -2.528191804885864258e-01 3.123334422707557678e-02
1.408775895833969116e-01 6.037989631295204163e-03 5.009999871253967285e-01
1.747951060533523560e-01 -3.173356056213378906e-01 1.233453452587127686e-01
2.165579050779342651e-01 2.028008252382278442e-01 2.773254513740539551e-01
1.327522844076156616e-01 -2.665457129478454590e-01 3.441246747970581055e-01
1.496824622154235840e-01 1.288718283176422119e-01 4.665412306785583496e-01
-1.066604033112525940e-01 -1.423239409923553467e-01 4.874226748943328857e-01
-2.456963211297988892e-01 2.107859104871749878e-01 -1.064068228006362915e-01
5.086307413876056671e-03 -3.566299080848693848e-01 -3.109533190727233887e-01
3.891128301620483398e-02 -4.144462347030639648e-01 -8.700181543827056885e-02
5.771923065185546875e-02 -3.102522194385528564e-01 -3.634666204452514648e-01
-2.679334580898284912e-01 -1.620307713747024536e-01 -1.398969888687133789e-01
-1.105592548847198486e-01 3.788967728614807129e-01 -7.135657966136932373e-02
-5.273997038602828979e-02 -2.671276330947875977e-01 4.186120927333831787e-01
1.676382273435592651e-01 -1.569058746099472046e-01 4.080194830894470215e-01
-1.379239708185195923e-01 1.341969370841979980e-01 -4.466767013072967529e-01
2.502463161945343018e-01 7.424452155828475952e-02 2.780643403530120850e-01
6.514565646648406982e-02 -5.863624438643455505e-02 5.468311905860900879e-01
-1.392208933830261230e-01 1.149929389357566833e-01 4.789404571056365967e-01
2.687489688396453857e-01 1.295041739940643311e-01 -4.942923784255981445e-02
-2.710752887651324272e-03 -2.816151082515716553e-01 4.126502275466918945e-01
1.081863231956958771e-02 4.061855077743530273e-01 1.601467728614807129e-01
-1.965126693248748779e-01 3.060749173164367676e-01 7.993721216917037964e-02
-1.990259140729904175e-01 1.334640383720397949e-01 3.805064260959625244e-01
-1.851823180913925171e-02 3.884654343128204346e-01 -1.649644672870635986e-01
1.367506086826324463e-01 2.933899164199829102e-01 -2.547975480556488037e-01
-2.165147066116333008e-01 2.456758618354797363e-01 1.990745961666107178e-01
4.191795736551284790e-02 -3.620384335517883301e-01 2.671729922294616699e-01
3.479056060314178467e-02 3.663641214370727539e-01 2.911781966686248779e-01
-2.380115240812301636e-01 -8.763035386800765991e-02 -3.231252729892730713e-01
2.489627748727798462e-01 1.785149872303009033e-01 -1.016970351338386536e-01
-1.027975305914878845e-01 -2.804048955440521240e-01 3.678033053874969482e-01
1.914614886045455933e-01 1.294331848621368408e-01 -3.439069688320159912e-01
4.237934015691280365e-03 3.936258554458618164e-01 2.183817476034164429e-01
2.506891191005706787e-01 -1.909589320421218872e-01 8.565336465835571289e-02
-1.788877993822097778e-01 -3.439787626266479492e-01 1.254583708941936493e-02
1.836314052343368530e-02 3.789805769920349121e-01 2.637175917625427246e-01
-2.921469807624816895e-01 3.189535811543464661e-02 -7.653523236513137817e-02
-2.019967883825302124e-01 -2.998854517936706543e-01 -1.534428000450134277e-01
-1.830340772867202759e-01 2.338718175888061523e-01 -2.875892221927642822e-01
2.818983197212219238e-01 2.649097889661788940e-02 -5.733027309179306030e-02
-2.047952562570571899e-01 -2.817300856113433838e-01 -1.965952217578887939e-01
-1.337696015834808350e-01 3.659593462944030762e-01 1.083108633756637573e-01
-2.443889975547790527e-01 1.157882511615753174e-01 -2.650979459285736084e-01
-1.110664233565330505e-01 1.477931290864944458e-01 -4.623497128486633301e-01
-2.089519202709197998e-01 1.085844635963439941e-01 3.740245103836059570e-01
-2.600739598274230957e-01 1.081539541482925415e-01 -2.148554176092147827e-01
-6.740628182888031006e-02 -2.650679089128971100e-02 5.500092506408691406e-01
5.991715937852859497e-03 4.047134518623352051e-01 1.693415343761444092e-01
2.817335724830627441e-01 -6.723096966743469238e-02 1.095010992139577866e-02
1.155983209609985352e-01 -1.534133255481719971e-01 4.733662605285644531e-01
1.779379881918430328e-02 2.736821174621582031e-01 4.460254013538360596e-01
-2.253799885511398315e-01 -1.885614842176437378e-01 2.639071643352508545e-01
-2.352722883224487305e-01 2.120901048183441162e-01 -1.639674454927444458e-01
6.321712583303451538e-02 4.064319133758544922e-01 5.608027428388595581e-02
-1.314616352319717407e-01 -5.089576914906501770e-02 -4.963473975658416748e-01
-5.984315276145935059e-02 3.917583525180816650e-01 -1.214144900441169739e-01
-2.058454453945159912e-01 2.026330977678298950e-01 3.049514889717102051e-01
-6.009032577276229858e-02 2.778227329254150391e-01 4.241639375686645508e-01
2.431546896696090698e-01 -2.075580507516860962e-01 9.889712929725646973e-02
-2.086499705910682678e-02 2.315097004175186157e-01 -4.359624683856964111e-01
-1.144120544195175171e-01 -3.790521025657653809e-01 1.328379660844802856e-01
1.753972768783569336e-01 -1.721831038594245911e-02 -4.162644743919372559e-01
-2.451008707284927368e-01 -1.366418004035949707e-01 -2.749657034873962402e-01
-2.683582901954650879e-01 -1.437993645668029785e-01 1.467998921871185303e-01
-2.683162987232208252e-01 1.486813724040985107e-01 -1.072037070989608765e-01
-1.604342609643936157e-01 -2.293445914983749390e-01 -3.778528571128845215e-01
2.765456736087799072e-01 -7.712591439485549927e-02 -7.005628198385238647e-02
1.440142691135406494e-01 -3.448244631290435791e-01 -1.453399509191513062e-01
1.861883550882339478e-01 3.172236382961273193e-01 3.608883917331695557e-02
-8.518562465906143188e-02 -2.719084918498992920e-01 -4.115010499954223633e-01
7.520195096731185913e-02 -3.331913650035858154e-01 -3.109699785709381104e-01
1.027079224586486816e-01 -3.634749948978424072e-01 1.892707645893096924e-01
3.654289990663528442e-02 -2.789947092533111572e-01 -4.152722954750061035e-01
-2.379438728094100952e-01 -9.456104785203933716e-02 3.082090020179748535e-01
1.953700929880142212e-01 -3.020574152469635010e-01 -4.334916919469833374e-02
2.467149645090103149e-01 9.816990792751312256e-02 2.782056033611297607e-01
1.299758553504943848e-01 2.940016984939575195e-01 -2.653996944427490234e-01
2.437195926904678345e-01 -1.848887056112289429e-01 1.624886840581893921e-01
-1.810284256935119629e-01 9.537405334413051605e-03 -4.402471780776977539e-01
-1.137635856866836548e-01 -2.636395692825317383e-01 3.781440854072570801e-01
1.740542352199554443e-01 3.195538222789764404e-01 -7.677455991506576538e-02
2.543488144874572754e-01 1.711583882570266724e-01 -7.961656898260116577e-02
-1.666427701711654663e-01 9.085389226675033569e-02 -4.363028705120086670e-01
9.548577666282653809e-02 3.420801460742950439e-01 2.941591739654541016e-01
-1.658915132284164429e-01 -1.759326606988906860e-01 -4.142147898674011230e-01
-1.444542407989501953e-01 -3.758208751678466797e-01 -9.085703641176223755e-03
2.814024984836578369e-01 -6.546280533075332642e-02 -1.298082247376441956e-02
-2.721958458423614502e-01 1.145110130310058594e-01 1.538640707731246948e-01
2.559085786342620850e-01 1.379310805350542068e-02 -2.195541113615036011e-01
1.059376820921897888e-02 3.996317386627197266e-01 -1.206917390227317810e-01
2.543607056140899658e-01 -1.570076495409011841e-01 -1.229430809617042542e-01
-5.744571238756179810e-02 3.040966689586639404e-01 -3.376667201519012451e-01
-1.997658163309097290e-01 -1.959868371486663818e-01 3.205031156539916992e-01
1.747134923934936523e-01 1.518791913986206055e-01 4.187834858894348145e-01
-6.847321987152099609e-02 -4.032755494117736816e-01 1.157816722989082336e-01
-1.307466477155685425e-01 -3.821577727794647217e-01 5.087282508611679077e-02
-8.239229768514633179e-02 -4.094453752040863037e-01 -6.052833795547485352e-02
-1.990692913532257080e-01 2.650587856769561768e-01 2.225459516048431396e-01
1.753294616937637329e-01 2.366451472043991089e-01 3.395283520221710205e-01
-2.718402147293090820e-01 -7.044517993927001953e-02 2.015147060155868530e-01
1.302466690540313721e-01 -1.472644601017236710e-02 5.101894140243530273e-01
1.732583492994308472e-01 -3.286653459072113037e-01 6.415767222642898560e-02
1.877385936677455902e-02 -3.881190717220306396e-01 -2.299152016639709473e-01
1.836929619312286377e-01 -2.964352369308471680e-01 -1.547000408172607422e-01
5.109307914972305298e-02 -3.447871506214141846e-01 2.988755106925964355e-01
-2.070584148168563843e-01 1.014334410429000854e-01 -3.670547902584075928e-01
1.683756858110427856e-01 -3.361620604991912842e-01 -4.023361206054687500e-02
5.235363543033599854e-02 -9.111114591360092163e-02 -5.240805745124816895e-01
-3.985913842916488647e-02 -3.894013762474060059e-01 2.005001604557037354e-01
-4.285850375890731812e-02 1.427496075630187988e-01 5.348088145256042480e-01
1.042308472096920013e-02 3.969077169895172119e-01 2.047505974769592285e-01
1.232254318892955780e-02 1.313973069190979004e-01 5.468016266822814941e-01
-2.590501606464385986e-01 -9.259878844022750854e-02 2.417411506175994873e-01
-1.799735724925994873e-01 -3.264503479003906250e-01 1.234399229288101196e-01
-1.058461517095565796e-01 -2.136402577161788940e-01 4.377153515815734863e-01
1.164795234799385071e-01 3.749423325061798096e-01 1.299447268247604370e-01
1.589717119932174683e-01 3.355431854724884033e-01 -7.762575149536132812e-02
-2.741234302520751953e-01 -5.165155977010726929e-02 -2.109116315841674805e-01
1.896191854029893875e-03 -2.022252380847930908e-01 -4.908231198787689209e-01
2.351988554000854492e-01 -9.339828044176101685e-02 3.059848845005035400e-01
7.308994978666305542e-02 2.793422937393188477e-01 4.181885123252868652e-01
-2.114983350038528442e-01 2.771899700164794922e-01 -9.113308787345886230e-02
-4.807607270777225494e-03 -9.075196832418441772e-02 -5.387173891067504883e-01
1.641965359449386597e-01 2.487647533416748047e-01 -2.755274474620819092e-01
8.572547882795333862e-02 3.193486854434013367e-02 5.452626943588256836e-01
-2.627606093883514404e-01 1.747626364231109619e-01 9.829381108283996582e-02
-2.537675499916076660e-01 2.087070792913436890e-01 -1.972853019833564758e-02
2.579563558101654053e-01 -1.474736779928207397e-01 -1.156358793377876282e-01
1.279175728559494019e-01 3.680536746978759766e-01 -4.141604155302047729e-02
-2.647069394588470459e-01 1.704135239124298096e-01 -7.595761120319366455e-02
3.286641836166381836e-02 -4.078868329524993896e-01 1.201663538813591003e-01
2.822677195072174072e-01 6.599478423595428467e-02 9.746002033352851868e-03
-1.135265007615089417e-01 3.279700577259063721e-01 2.934088706970214844e-01
-2.924492359161376953e-01 -4.566517099738121033e-02 -8.195729553699493408e-02
1.907059401273727417e-01 -2.016260325908660889e-01 3.225809335708618164e-01
-1.994412541389465332e-01 -3.182350695133209229e-01 3.674709424376487732e-02
-6.263708323240280151e-02 3.060146272182464600e-01 3.855457305908203125e-01
-3.350197151303291321e-02 3.756251335144042969e-01 -2.004791945219039917e-01
-2.766592502593994141e-01 -1.397961974143981934e-01 9.155961126089096069e-02
-1.049924194812774658e-01 1.779560297727584839e-01 -4.462099373340606689e-01
7.305365800857543945e-02 3.886684179306030273e-01 -1.032699495553970337e-01
1.016311347484588623e-03 4.078148007392883301e-01 1.520442813634872437e-01
-1.500550359487533569e-01 2.569710314273834229e-01 -3.145059347152709961e-01
1.080009490251541138e-01 2.676374018192291260e-01 -3.360608816146850586e-01
-1.984183788299560547e-01 2.949215471744537354e-01 -9.455580264329910278e-02
-8.688385039567947388e-02 3.074508905410766602e-01 -3.122811913490295410e-01
2.270804792642593384e-01 2.518408596515655518e-01 8.823546022176742554e-02
-2.383255958557128906e-01 -2.105010449886322021e-01 1.859773248434066772e-01
2.248752117156982422e-01 -1.046825498342514038e-01 3.279898464679718018e-01
-2.465666234493255615e-01 -2.583435364067554474e-02 3.078640997409820557e-01
1.081322282552719116e-01 2.879616618156433105e-01 -3.067098855972290039e-01
2.000358253717422485e-01 1.519490480422973633e-01 3.714492321014404297e-01
8.446162194013595581e-02 -1.178069934248924255e-01 -4.979251325130462646e-01
8.566976524889469147e-03 -1.121326461434364319e-01 -5.317847728729248047e-01
-8.470430225133895874e-02 2.798630297183990479e-01 4.041988849639892578e-01
-1.446125190705060959e-02 -1.721581220626831055e-01 -5.093035101890563965e-01
-2.041064351797103882e-01 -3.043835163116455078e-01 -1.222104653716087341e-01
-1.151597723364830017e-01 -3.561709821224212646e-01 2.099903672933578491e-01
-2.578430110588669777e-03 2.915329337120056152e-01 -3.677399456501007080e-01
-2.795599102973937988e-01 1.289384067058563232e-01 -2.652509696781635284e-02
-1.288168579339981079e-01 3.736899793148040771e-01 -6.772790104150772095e-03
-1.159908547997474670e-01 -1.903815008699893951e-02 5.193468332290649414e-01
-3.238026052713394165e-02 2.769257426261901855e-01 -3.843237757682800293e-01
-2.032854408025741577e-01 -1.669728159904479980e-01 3.406684100627899170e-01
2.447261214256286621e-01 -1.678730845451354980e-01 1.905137747526168823e-01
2.213150262832641602e-01 9.595057368278503418e-02 3.552592694759368896e-01
2.381039112806320190e-01 -1.777272522449493408e-01 -1.789875179529190063e-01
-3.163105249404907227e-02 -3.320327401161193848e-01 -3.548613488674163818e-01
1.628983020782470703e-01 -1.658020466566085815e-01 4.084284603595733643e-01
6.864216178655624390e-02 -3.168531954288482666e-01 -3.448514938354492188e-01
-9.136877954006195068e-03 2.978197336196899414e-01 -3.591034710407257080e-01
4.613211378455162048e-03 -4.179060161113739014e-01 -1.056290045380592346e-01
-2.635791599750518799e-01 -2.008041143417358398e-01 -4.916001111268997192e-02
-2.476890236139297485e-01 2.168912738561630249e-01 8.692375570535659790e-02
-2.699314355850219727e-01 -3.752415999770164490e-02 -2.327481657266616821e-01
-1.180466338992118835e-01 -1.599937528371810913e-01 -4.749953746795654297e-01
1.918378323316574097e-01 6.598593294620513916e-02 4.261934161186218262e-01
-1.935314685106277466e-01 -1.153449043631553650e-01 -4.050220251083374023e-01
1.120984256267547607e-01 1.707493215799331665e-01 -4.282358586788177490e-01
1.956590712070465088e-01 1.345321387052536011e-01 3.917904794216156006e-01
-1.431860029697418213e-01 -3.686620891094207764e-01 8.489792048931121826e-02
-2.092358171939849854e-01 2.501633465290069580e-01 2.183119803667068481e-01
2.753105163574218750e-01 7.853004336357116699e-02 -7.785901427268981934e-02
-2.583841085433959961e-01 -7.536914199590682983e-02 -2.662829756736755371e-01
5.906374193727970123e-03 -4.071802198886871338e-01 -1.666395813226699829e-01
1.910874843597412109e-01 3.026279211044311523e-01 -5.519963800907135010e-02
-2.247496396303176880e-01 1.237824484705924988e-01 3.286698758602142334e-01
-1.108116060495376587e-01 2.539549171924591064e-01 -3.673506677150726318e-01
-2.560956180095672607e-01 1.703768372535705566e-01 1.614561080932617188e-01
-1.368106901645660400e-01 -8.834566920995712280e-02 -4.852939844131469727e-01
2.579315900802612305e-01 -1.268581598997116089e-01 -1.483259648084640503e-01
-2.123101353645324707e-01 -5.435263738036155701e-04 3.919309377670288086e-01
-1.807075589895248413e-01 -5.282580479979515076e-02 4.394457340240478516e-01
2.547565102577209473e-01 -8.388263732194900513e-02 -2.031726390123367310e-01
-2.336347997188568115e-01 -1.632392108440399170e-01 -2.876564860343933105e-01
-2.637170255184173584e-01 -5.346991866827011108e-02 -2.540276050567626953e-01
-6.131245940923690796e-02 4.049527347087860107e-01 9.818091243505477905e-02
1.553176492452621460e-01 3.103874027729034424e-01 2.542427778244018555e-01
5.054066330194473267e-02 3.508704304695129395e-01 3.180366754531860352e-01
1.517117321491241455e-01 2.493210136890411377e-01 -2.982165217399597168e-01
-7.279501855373382568e-02 3.520474135875701904e-01 2.933914363384246826e-01
-2.960995137691497803e-01 -6.382736377418041229e-03 1.302119065076112747e-02
-1.894605308771133423e-01 2.268951386213302612e-01 3.147589862346649170e-01
1.753742694854736328e-01 -1.086691096425056458e-01 -3.979069590568542480e-01
-2.939891815185546875e-01 -2.386349812150001526e-02 -7.142070680856704712e-02
1.315894424915313721e-01 2.527446150779724121e-01 3.927927315235137939e-01
2.852162420749664307e-01 -4.687048960477113724e-03 -8.090894669294357300e-03
2.598578631877899170e-01 -1.299170553684234619e-01 -1.321058422327041626e-01
2.156644910573959351e-01 -2.078101485967636108e-01 -2.240888476371765137e-01
1.649830192327499390e-01 1.636433452367782593e-01 -3.662770092487335205e-01
-1.846580207347869873e-02 -3.632037341594696045e-01 2.775159776210784912e-01
8.731493353843688965e-02 -3.707024157047271729e-01 1.942592710256576538e-01
-5.470843613147735596e-02 -9.182232618331909180e-02 5.399934649467468262e-01
1.505632139742374420e-02 -2.484265565872192383e-01 -4.530714750289916992e-01
-2.731884121894836426e-01 -1.234377622604370117e-01 -1.657030135393142700e-01
-1.119547337293624878e-01 2.876099646091461182e-01 -3.195103406906127930e-01
-5.984332412481307983e-02 2.073336094617843628e-01 4.904915988445281982e-01
1.130279824137687683e-01 -2.630931511521339417e-02 -4.917307198047637939e-01
1.398631483316421509e-01 3.089756071567535400e-01 -2.176537215709686279e-01
-1.551664620637893677e-01 2.730067074298858643e-01 3.210389912128448486e-01
2.579980790615081787e-01 -4.229303076863288879e-02 2.528569400310516357e-01
-2.890466153621673584e-01 7.897922396659851074e-02 3.895823657512664795e-02
2.827387750148773193e-01 4.717373102903366089e-02 8.403895795345306396e-02
-2.170019447803497314e-01 2.628591358661651611e-01 -1.149343475699424744e-01
5.391826480627059937e-02 -1.384443342685699463e-01 -5.083756446838378906e-01
5.460125207901000977e-02 -4.032830893993377686e-01 1.139751821756362915e-01
-2.409678846597671509e-01 8.274009078741073608e-02 -2.990579605102539062e-01
-3.436999861150979996e-03 5.024385824799537659e-02 5.669262409210205078e-01
-2.271149754524230957e-01 1.752982102334499359e-02 3.598017394542694092e-01
5.727799981832504272e-02 -3.793142735958099365e-01 -2.239278256893157959e-01
1.756840050220489502e-01 -1.097750067710876465e-01 4.255424737930297852e-01
-4.325839877128601074e-02 6.026745215058326721e-02 -5.323039889335632324e-01
-1.793095618486404419e-01 1.076673567295074463e-01 4.284696578979492188e-01
1.836786121129989624e-01 3.017609119415283203e-01 1.814834624528884888e-01
-2.021037787199020386e-01 2.831933200359344482e-01 1.589227914810180664e-01
1.237247288227081299e-01 -1.001438312232494354e-02 5.166991949081420898e-01
-2.147942781448364258e-01 2.079374045133590698e-01 2.729916572570800781e-01
2.747317254543304443e-01 1.107214689254760742e-01 8.303188532590866089e-02
-1.897393763065338135e-01 -2.544736862182617188e-01 2.669957876205444336e-01
-2.291938811540603638e-01 -3.279095515608787537e-02 -3.561392128467559814e-01
-2.327143698930740356e-01 -5.751350149512290955e-02 -3.448539972305297852e-01
-2.795285284519195557e-01 8.796782046556472778e-02 -1.315277367830276489e-01
2.180492728948593140e-01 -2.632743716239929199e-01 7.876735925674438477e-02
-8.089221268892288208e-02 -6.497833132743835449e-02 5.356160402297973633e-01
2.545711100101470947e-01 -1.802566498517990112e-01 -5.568659305572509766e-02
1.076234057545661926e-01 -2.840126156806945801e-01 3.515820801258087158e-01
-2.839843332767486572e-01 1.112899929285049438e-01 7.650498300790786743e-04
9.539123624563217163e-02 3.264990150928497314e-01 3.268458545207977295e-01
-1.134365200996398926e-01 2.263594716787338257e-01 -3.961232602596282959e-01
2.225698679685592651e-01 2.398957312107086182e-01 -1.046269610524177551e-01
1.451937258243560791e-01 1.642439812421798706e-01 -3.948722183704376221e-01
2.346444427967071533e-01 -1.465824097394943237e-01 -2.319721877574920654e-01
-2.478027790784835815e-01 -2.212726175785064697e-01 1.100292876362800598e-01
1.617894023656845093e-01 3.167675435543060303e-01 -1.397571563720703125e-01
2.368334829807281494e-01 1.654319614171981812e-01 -1.862686127424240112e-01
1.009957790374755859e-01 3.666833937168121338e-01 -1.380841583013534546e-01
2.266417443752288818e-01 2.351879924535751343e-01 -9.418004751205444336e-02
-2.565898001194000244e-01 -2.159633338451385498e-01 4.554934054613113403e-02
1.271052956581115723e-01 -2.875570952892303467e-01 -3.180644810199737549e-01
2.717469036579132080e-01 -1.138214319944381714e-01 -5.617351830005645752e-02
1.133351549506187439e-01 -2.951757907867431641e-01 -3.272551596164703369e-01
6.298777461051940918e-02 4.060356616973876953e-01 7.021184265613555908e-02
-1.700788140296936035e-01 -3.445435762405395508e-01 8.713395148515701294e-02
-2.087570428848266602e-01 2.380551956593990326e-02 -3.934141695499420166e-01
-9.880927205085754395e-02 -3.844684064388275146e-01 -1.787717342376708984e-01
-5.903919041156768799e-02 -1.186508983373641968e-01 5.277553200721740723e-01
-2.944670617580413818e-01 1.001678034663200378e-02 -5.845130980014801025e-02
-2.424996644258499146e-01 1.881637871265411377e-01 2.004715502262115479e-01
1.244678497314453125e-01 2.685054242610931396e-01 3.825725615024566650e-01
-2.956853806972503662e-01 -6.625630892813205719e-03 3.032141923904418945e-02
1.006565913558006287e-01 3.903390169143676758e-01 4.857226461172103882e-02
2.725817561149597168e-01 -7.536392658948898315e-02 -1.090431660413742065e-01
2.096506059169769287e-01 1.955322921276092529e-01 3.075615763664245605e-01
1.729561835527420044e-01 -2.416540384292602539e-01 3.086338043212890625e-01
-2.795956730842590332e-01 -6.231753155589103699e-02 -1.783092617988586426e-01
2.710904479026794434e-01 -1.298158764839172363e-01 2.400152385234832764e-02
4.008535295724868774e-02 -2.585251927375793457e-01 4.318411350250244141e-01
2.315390855073928833e-01 1.130344495177268982e-01 3.186410367488861084e-01
-2.518156766891479492e-01 1.242459937930107117e-01 -2.313640862703323364e-01
5.199854075908660889e-02 -3.641473948955535889e-01 -2.695096135139465332e-01
2.588488459587097168e-01 -1.311406195163726807e-01 1.714741140604019165e-01
2.011472284793853760e-01 2.469694614410400391e-01 -1.819148510694503784e-01
1.113765686750411987e-02 -2.233149260282516479e-01 -4.745745360851287842e-01
-1.031659916043281555e-01 1.905544847249984741e-01 -4.376967251300811768e-01
5.327492021024227142e-03 4.145576059818267822e-01 -2.220594696700572968e-02
2.798545062541961670e-01 7.598868571221828461e-03 1.385901868343353271e-01
2.387655079364776611e-01 -8.918559551239013672e-02 -2.600467205047607422e-01
-1.568597555160522461e-02 -1.975993663072586060e-01 -4.947273433208465576e-01
-2.007779479026794434e-01 2.258201390504837036e-01 -2.580067813396453857e-01
-3.168158978223800659e-02 4.121598601341247559e-01 -2.602985687553882599e-02
2.310419976711273193e-01 -1.781196296215057373e-01 2.350852936506271362e-01
-1.753513664007186890e-01 -2.742815911769866943e-01 2.675561010837554932e-01
-1.227322816848754883e-01 -2.445534616708755493e-01 3.906800746917724609e-01
-2.325521782040596008e-02 -3.676193654537200928e-01 2.663754522800445557e-01
1.361011713743209839e-01 5.436738580465316772e-02 5.034290552139282227e-01
2.478222697973251343e-01 2.063997834920883179e-01 8.406924456357955933e-02
1.678082197904586792e-01 -1.890266984701156616e-01 3.804668784141540527e-01
8.773913234472274780e-02 3.309765458106994629e-01 -2.546302676200866699e-01
8.788414299488067627e-02 -8.248405158519744873e-02 5.280745625495910645e-01
-2.082379311323165894e-01 -3.066162168979644775e-01 -6.982501596212387085e-02
1.694371849298477173e-01 -5.128267686814069748e-03 -4.251945912837982178e-01
2.059700489044189453e-01 7.078716903924942017e-02 3.984733223915100098e-01
-2.622306942939758301e-01 -1.359348297119140625e-01 -2.099397480487823486e-01
-1.209456771612167358e-01 -3.303860425949096680e-01 2.627041041851043701e-01
1.085575968027114868e-01 3.094305396080017090e-01 -2.699842453002929688e-01
-2.278870791196823120e-01 -1.551786661148071289e-01 -3.105341196060180664e-01
-2.215286940336227417e-01 2.719369530677795410e-01 5.202741920948028564e-02
-2.040820717811584473e-01 -2.346931397914886475e-01 -2.867835164070129395e-01
1.662203818559646606e-01 3.075723536312580109e-02 -4.259736537933349609e-01
-2.573445439338684082e-01 1.944166868925094604e-01 7.997904717922210693e-02
-2.817346155643463135e-01 1.390503812581300735e-02 1.689263731241226196e-01
-2.044538855552673340e-01 2.571315169334411621e-01 -1.877020448446273804e-01
-6.354038417339324951e-02 -1.537653207778930664e-01 -5.094259381294250488e-01
-2.837021350860595703e-01 -7.708781957626342773e-02 1.271919608116149902e-01
-7.106571644544601440e-02 3.151141703128814697e-01 3.654800951480865479e-01
2.453723996877670288e-01 -1.695210039615631104e-01 -1.554906070232391357e-01
1.038939133286476135e-02 1.598441600799560547e-01 -4.905791580677032471e-01
7.369355857372283936e-02 2.211486548185348511e-01 -4.185010194778442383e-01
-1.941611468791961670e-01 -3.116012215614318848e-01 1.149766892194747925e-01
2.595459520816802979e-01 -2.193554490804672241e-02 -2.051545083522796631e-01
-5.972647666931152344e-02 -3.742398917675018311e-01 -2.584857642650604248e-01
-6.326237320899963379e-02 3.518392145633697510e-01 -2.439143657684326172e-01
1.812214553356170654e-01 -3.203010261058807373e-01 5.366314202547073364e-02
1.324595697224140167e-02 3.390011191368103027e-01 -2.890946567058563232e-01
1.862311065196990967e-01 -1.992468833923339844e-01 -3.161576688289642334e-01
1.960680633783340454e-01 1.495055705308914185e-01 3.814457952976226807e-01
-2.641738653182983398e-01 -1.473859548568725586e-01 1.655077934265136719e-01
1.742469668388366699e-01 6.943400949239730835e-03 4.595285952091217041e-01
-1.059899777173995972e-01 1.331995427608489990e-01 -4.747384190559387207e-01
-1.730302572250366211e-01 5.592855066061019897e-02 -4.410907626152038574e-01
2.506202459335327148e-01 1.047984883189201355e-01 -1.967317909002304077e-01
-9.156169742345809937e-02 3.109768331050872803e-01 -3.019810914993286133e-01
2.057080566883087158e-01 -1.350768953561782837e-01 -3.245745301246643066e-01
-1.306930184364318848e-01 5.090643092989921570e-02 -4.886890947818756104e-01
1.216191798448562622e-01 3.603197634220123291e-01 1.893156021833419800e-01
-5.795626435428857803e-03 3.497680127620697021e-01 3.343559205532073975e-01
4.160530865192413330e-02 -3.726873099803924561e-01 -2.574205398559570312e-01
5.394929647445678711e-02 3.947461843490600586e-01 -1.062201857566833496e-01
1.339081674814224243e-01 -3.044832646846771240e-01 2.788556814193725586e-01
1.549720019102096558e-01 -2.199597060680389404e-01 3.693570792675018311e-01
-1.600877344608306885e-01 -1.461831778287887573e-01 4.287019371986389160e-01
-2.545697689056396484e-01 5.722115188837051392e-02 -2.714685499668121338e-01
-1.915623992681503296e-01 9.253250062465667725e-02 4.141465723514556885e-01
3.593574464321136475e-02 2.638951838016510010e-01 -3.940277397632598877e-01
-5.580640584230422974e-02 -3.081677854061126709e-01 -3.827477991580963135e-01
-1.977507025003433228e-01 -2.624281942844390869e-01 2.320833355188369751e-01
4.011407494544982910e-02 -3.545733988285064697e-01 2.850964963436126709e-01
-2.003447413444519043e-01 -1.959362030029296875e-01 -3.398468196392059326e-01
-1.770973950624465942e-01 -7.050966471433639526e-02 -4.431113302707672119e-01
-1.489212661981582642e-01 -3.602696359157562256e-01 1.061811149120330811e-01
1.728271096944808960e-01 -2.887645661830902100e-01 2.219968438148498535e-01
-2.214709520339965820e-01 -2.472511231899261475e-01 -2.111075818538665771e-01
1.141245216131210327e-01 3.103588521480560303e-01 -2.602828741073608398e-01
1.722674220800399780e-01 -4.159074276685714722e-02 4.560925364494323730e-01
-2.960049211978912354e-01 -2.672376856207847595e-02 -4.035857506096363068e-03
2.846432924270629883e-01 -3.509385138750076294e-02 2.788437716662883759e-02
-9.049480408430099487e-02 -1.555900573730468750e-01 4.917491078376770020e-01
-2.533216178417205811e-01 -1.956653892993927002e-01 -1.664262115955352783e-01
2.149111181497573853e-01 5.370101332664489746e-02 -3.314569890499114990e-01
-6.375680863857269287e-02 -1.881905645132064819e-01 4.857793450355529785e-01
-2.319677025079727173e-01 -2.020966559648513794e-01 2.245323508977890015e-01
-2.548583224415779114e-02 4.108949601650238037e-01 1.174116656184196472e-01
4.458917677402496338e-02 1.761819422245025635e-01 -4.704120457172393799e-01
2.219512164592742920e-01 -2.253909856081008911e-01 1.864245235919952393e-01
1.694174408912658691e-01 3.225905299186706543e-01 -8.702567964792251587e-02
-2.358625680208206177e-01 -2.467124015092849731e-01 1.106739193201065063e-01
-2.747341096401214600e-01 -3.858446329832077026e-02 2.017842084169387817e-01
-1.591730862855911255e-01 -2.582967579364776611e-01 -3.473026156425476074e-01
-1.810276657342910767e-01 3.140411972999572754e-01 1.473315060138702393e-01
-2.558998465538024902e-01 -1.782216280698776245e-01 1.604083776473999023e-01
-1.841167658567428589e-01 -6.471754983067512512e-03 -4.373800158500671387e-01
5.615781061351299286e-03 -1.847795248031616211e-01 5.030645728111267090e-01
2.035076022148132324e-01 2.340562492609024048e-01 -1.986737549304962158e-01
-1.981906741857528687e-01 1.673280745744705200e-01 3.580771088600158691e-01
-2.177927345037460327e-01 1.600033491849899292e-01 -2.983621060848236084e-01
9.624901413917541504e-02 3.572179973125457764e-01 -1.783969551324844360e-01
2.475604265928268433e-01 8.761730790138244629e-02 2.812603712081909180e-01
7.539647817611694336e-02 3.686091899871826172e-01 -1.759565919637680054e-01
-1.784483641386032104e-01 3.001343905925750732e-01 2.064965367317199707e-01
-6.710711866617202759e-02 -2.919331789016723633e-01 -3.986170291900634766e-01
-1.796727478504180908e-01 -3.435123860836029053e-01 -4.045431315898895264e-02
-2.056409716606140137e-01 9.070306271314620972e-02 3.887105584144592285e-01
2.815649211406707764e-01 6.641614437103271484e-02 7.276356965303421021e-02
-5.181705206632614136e-02 -3.483865261077880859e-01 2.964882552623748779e-01
-2.197831720113754272e-01 1.193404719233512878e-01 -3.287132382392883301e-01
7.596421986818313599e-02 -2.391142211854457855e-02 5.482900738716125488e-01
5.158580839633941650e-02 3.374012112617492676e-01 -2.750302851200103760e-01
1.541950404644012451e-01 3.320615887641906738e-01 1.927741765975952148e-01
2.167540341615676880e-01 -2.554701268672943115e-01 -1.121476218104362488e-01
1.386200636625289917e-01 -3.157221078872680664e-01 2.456258386373519897e-01
1.394389867782592773e-01 -3.391469269990921021e-02 4.981850683689117432e-01
-3.413958707824349403e-03 -3.908343911170959473e-01 -2.290500551462173462e-01
-1.486059129238128662e-01 -8.299106359481811523e-02 4.731007516384124756e-01
-2.192701399326324463e-01 -2.529777884483337402e-01 1.783349663019180298e-01
-9.147758036851882935e-02 -6.529217958450317383e-02 -5.227944850921630859e-01
1.241793334484100342e-01 3.548240661621093750e-01 2.036850899457931519e-01
1.962849348783493042e-01 9.791295975446701050e-02 4.083938896656036377e-01
2.738900780677795410e-01 9.732436388731002808e-02 1.268351525068283081e-01
2.369763255119323730e-01 2.341980934143066406e-01 5.798798054456710815e-02
-2.583869695663452148e-01 1.133289188146591187e-01 2.270771265029907227e-01
-2.492066659033298492e-02 3.180436789989471436e-01 3.856729865074157715e-01
2.566731274127960205e-01 1.852237135171890259e-01 4.429002851247787476e-02
1.084543317556381226e-01 2.408321760594844818e-02 5.304020643234252930e-01
6.461795419454574585e-02 2.737582027912139893e-01 -3.670580983161926270e-01
8.030539005994796753e-02 6.494891643524169922e-02 -5.051196813583374023e-01
3.815914690494537354e-02 1.705335825681686401e-01 -4.767024815082550049e-01
1.719270497560501099e-01 2.564350068569183350e-01 -2.469404935836791992e-01
5.843035876750946045e-02 3.971765935420989990e-01 1.632896661758422852e-01
2.260119915008544922e-01 -1.635810285806655884e-01 2.720221877098083496e-01
-1.936881244182586670e-01 2.446098774671554565e-01 -2.454774975776672363e-01
1.213971674442291260e-01 3.313701152801513672e-01 -2.026083916425704956e-01
-1.339033842086791992e-01 -2.123723328113555908e-01 4.105898439884185791e-01
1.654967218637466431e-01 3.200113475322723389e-01 -1.150083765387535095e-01
2.170215994119644165e-01 2.264006137847900391e-01 -1.641295850276947021e-01
5.176588892936706543e-02 -1.135545000433921814e-01 -5.182642936706542969e-01
-1.262383610010147095e-01 1.246935203671455383e-01 -4.632104933261871338e-01
-1.362510770559310913e-01 3.160621523857116699e-01 -2.313411682844161987e-01
6.859831511974334717e-02 3.985996246337890625e-01 1.326840817928314209e-01
-2.001378238201141357e-01 -3.199919164180755615e-01 -2.489260397851467133e-02
-2.115735709667205811e-01 1.428155004978179932e-01 -3.287947177886962891e-01
-2.342814058065414429e-01 -2.675560116767883301e-01 -3.330409526824951172e-02
2.276983559131622314e-01 1.982187777757644653e-01 -1.731690019369125366e-01
3.905182331800460815e-02 3.562887310981750488e-01 -2.424936592578887939e-01
-2.371171563863754272e-01 2.424666732549667358e-01 6.696962565183639526e-02
2.398447543382644653e-01 3.375172242522239685e-02 3.235426545143127441e-01
-2.297572046518325806e-02 3.369135558605194092e-01 -2.936937510967254639e-01
2.350735366344451904e-01 9.998691827058792114e-02 3.157134354114532471e-01
4.091698676347732544e-02 3.525024950504302979e-01 3.199485838413238525e-01
3.891044110059738159e-02 -4.033090472221374512e-01 -1.574208140373229980e-01
1.815721206367015839e-02 -2.822708487510681152e-01 4.100281298160552979e-01
1.188143640756607056e-01 -2.039157599210739136e-01 4.319300055503845215e-01
-1.121510565280914307e-01 -3.823967874050140381e-01 1.235527023673057556e-01
-1.410862803459167480e-01 -3.640399873256683350e-01 1.183754503726959229e-01
2.138343900442123413e-01 -2.448602467775344849e-01 1.769666820764541626e-01
-2.302364408969879150e-01 2.262083888053894043e-01 1.815609335899353027e-01
-9.294356405735015869e-02 3.805286586284637451e-01 -1.143771484494209290e-01
1.180894523859024048e-01 2.112479358911514282e-01 -3.883924782276153564e-01
2.164916396141052246e-01 1.207332685589790344e-01 3.542751073837280273e-01
-6.563123315572738647e-02 -4.072600901126861572e-01 -1.296850740909576416e-01
1.899010241031646729e-01 -2.984796166419982910e-01 -1.147522553801536560e-01
1.851466745138168335e-01 8.876846730709075928e-02 -3.780155479907989502e-01
-4.348422586917877197e-02 -1.614780165255069733e-02 5.604255199432373047e-01
-1.901844143867492676e-01 2.849325239658355713e-01 -1.679259538650512695e-01
7.378858327865600586e-02 3.394115269184112549e-01 3.239474594593048096e-01
-1.449934840202331543e-01 3.084151446819305420e-01 -2.316028475761413574e-01
-1.163041144609451294e-01 1.768288165330886841e-01 4.706330895423889160e-01
2.806432247161865234e-01 5.715080723166465759e-02 -4.554361104965209961e-02
5.520846694707870483e-02 -4.118977785110473633e-01 4.215827211737632751e-02
2.803326249122619629e-01 1.177868060767650604e-02 -7.986656576395034790e-02
-4.786524921655654907e-02 3.907489180564880371e-01 2.046448886394500732e-01
2.095899581909179688e-01 -4.955361783504486084e-02 -3.501117825508117676e-01
2.596555650234222412e-01 -1.616410017013549805e-01 -6.400900334119796753e-02
-2.810179293155670166e-01 8.832803368568420410e-02 -1.193395927548408508e-01
2.338341176509857178e-01 7.333345711231231689e-02 -2.747768163681030273e-01
2.608122825622558594e-01 3.145850822329521179e-02 -1.952848583459854126e-01
-2.440482676029205322e-01 -8.300431072711944580e-02 2.968257665634155273e-01
1.396092623472213745e-01 3.485836088657379150e-01 1.798543035984039307e-01
-1.251039505004882812e-01 4.726081341505050659e-02 -4.943734705448150635e-01
1.020355597138404846e-01 3.200007379055023193e-01 3.310702145099639893e-01
-2.476999014616012573e-01 -1.262751966714859009e-01 2.571539580821990967e-01
1.760102361440658569e-01 -3.178566992282867432e-01 1.138844117522239685e-01
1.645509004592895508e-01 -2.587032504379749298e-03 -4.321996867656707764e-01
-1.187790706753730774e-01 7.891019433736801147e-02 5.106388330459594727e-01
-1.186583191156387329e-01 -2.933045923709869385e-01 -3.558401167392730713e-01
2.768886983394622803e-01 2.899367921054363251e-02 -1.043883189558982849e-01
2.675831615924835205e-01 1.440947800874710083e-01 -1.368043199181556702e-02
-2.552143931388854980e-01 -9.270715713500976562e-02 2.556602954864501953e-01
-2.674097716808319092e-01 -2.725146710872650146e-02 -2.441579997539520264e-01
1.718410290777683258e-02 4.119511246681213379e-01 -4.161717742681503296e-02
-5.609125830233097076e-03 3.166331350803375244e-01 -3.306061327457427979e-01
2.011920809745788574e-01 -2.644477188587188721e-01 -1.693135350942611694e-01
3.507563471794128418e-02 -2.474778890609741211e-01 -4.475369453430175781e-01
-1.045809090137481689e-01 -3.641735017299652100e-01 -2.360908687114715576e-01
2.344414591789245605e-01 2.158944457769393921e-01 1.752877235412597656e-01
2.105527073144912720e-01 -2.791801095008850098e-01 -4.011666774749755859e-02
1.224105954170227051e-01 3.129392862319946289e-01 3.156968653202056885e-01
2.120812088251113892e-01 2.806664109230041504e-01 3.119905851781368256e-02
-8.831262588500976562e-02 -3.231438398361206055e-01 3.162718117237091064e-01
1.652799546718597412e-01 -2.973981797695159912e-01 -2.180824577808380127e-01
1.946477293968200684e-01 5.425848439335823059e-02 -3.734463751316070557e-01
-2.505328059196472168e-01 1.836555600166320801e-01 -1.478579044342041016e-01
-2.892864048480987549e-01 2.589312568306922913e-02 -1.131731644272804260e-01
-1.885455101728439331e-01 -1.060911267995834351e-01 -4.166412055492401123e-01
1.804764866828918457e-01 1.967986226081848145e-01 3.737126886844635010e-01
-1.918353140354156494e-01 -3.578132763504981995e-02 4.254280328750610352e-01
-1.942880302667617798e-01 -1.794458776712417603e-01 -3.660043179988861084e-01
-1.597059816122055054e-01 -2.079742550849914551e-01 -3.985694944858551025e-01
1.885823309421539307e-01 2.801637649536132812e-01 2.265522181987762451e-01
2.491711825132369995e-01 -5.081007257103919983e-02 -2.398015260696411133e-01
9.294667094945907593e-02 3.166611194610595703e-01 3.474839329719543457e-01
-3.884660452604293823e-02 -4.220312237739562988e-01 -4.707757383584976196e-03
2.369617223739624023e-01 -2.288047671318054199e-01 -3.880457580089569092e-02
6.601497530937194824e-02 -4.052864313125610352e-01 -9.029112756252288818e-02
8.389613032341003418e-02 2.897355556488037109e-01 3.969051241874694824e-01
1.883779913187026978e-01 -8.239493519067764282e-02 -3.845016956329345703e-01
-1.399919837713241577e-01 -3.379036784172058105e-01 -2.415315508842468262e-01
-8.948764204978942871e-02 -3.331596553325653076e-01 2.967563867568969727e-01
-2.497584093362092972e-03 -9.367424249649047852e-02 5.500095486640930176e-01
-2.119187861680984497e-01 -1.384135931730270386e-01 3.444922566413879395e-01
-2.555610537528991699e-01 1.730168014764785767e-01 -1.415683329105377197e-01
1.892867237329483032e-01 -1.147714853286743164e-01 3.998479545116424561e-01
2.474681586027145386e-01 -1.438465416431427002e-01 -1.820371896028518677e-01
9.778741747140884399e-02 -2.097163349390029907e-01 4.461846947669982910e-01
-2.011983990669250488e-01 -2.017340064048767090e-01 -3.324137032032012939e-01
-2.611123621463775635e-01 1.319423913955688477e-01 1.946743875741958618e-01
-2.113466411828994751e-01 -3.848274052143096924e-02 -3.924943506717681885e-01
-1.736300438642501831e-01 2.429144233465194702e-01 -2.935646772384643555e-01
