-5.119582414627075195e-01 1.872653067111968994e-01 -2.785840928554534912e-01
5.003157854080200195e-01 -2.372461110353469849e-01 2.616873085498809814e-01
-2.029326707124710083e-01 4.933125972747802734e-01 2.262847870588302612e-01
-1.845223307609558105e-01 -1.690778583288192749e-01 -5.136111974716186523e-01
-1.259650439023971558e-01 -5.993262678384780884e-02 -5.468137860298156738e-01
1.257953606545925140e-02 -1.985159814357757568e-01 5.460311770439147949e-01
1.071699336171150208e-01 5.057986378669738770e-01 2.762942016124725342e-01
4.772090911865234375e-01 1.593487560749053955e-01 3.448186814785003662e-01
4.591753780841827393e-01 -1.917814016342163086e-01 -3.266831338405609131e-01
-1.405249089002609253e-01 -5.007971525192260742e-01 3.496039807796478271e-01
-4.132216274738311768e-01 -5.888986214995384216e-02 4.414931535720825195e-01
5.470790863037109375e-01 -5.123419687151908875e-03 2.881657183170318604e-01
-3.449270427227020264e-01 4.594814479351043701e-01 -1.667181998491287231e-01
-5.207730531692504883e-01 -3.173075914382934570e-01 -2.078328281641006470e-01
-4.472992569208145142e-02 5.900220274925231934e-01 5.991914868354797363e-02
1.714718341827392578e-01 -5.835334062576293945e-01 5.418012291193008423e-02
5.692052245140075684e-01 1.066263243556022644e-01 2.395523041486740112e-01
-3.577181398868560791e-01 7.403683662414550781e-02 4.608714282512664795e-01
-3.666059374809265137e-01 -4.765308797359466553e-01 2.501130402088165283e-01
-5.858165621757507324e-01 1.937279552221298218e-01 -9.914317727088928223e-02
5.514563918113708496e-01 -1.519646346569061279e-01 2.352848500013351440e-01
1.633243709802627563e-01 -2.084552198648452759e-01 -4.968171715736389160e-01
5.802445411682128906e-01 2.661575078964233398e-01 -9.670677036046981812e-02
-2.529632486402988434e-02 2.742189168930053711e-01 -5.075086951255798340e-01
-5.320916771888732910e-01 2.753196656703948975e-01 1.220715492963790894e-01
-1.081784963607788086e-01 5.783377885818481445e-01 6.393952667713165283e-02
-5.160366892814636230e-01 -3.488727286458015442e-02 3.482099771499633789e-01
3.923650681972503662e-01 -4.362081885337829590e-01 1.636146456003189087e-01
-2.301265597343444824e-01 -5.809715390205383301e-01 -9.581042081117630005e-02
-2.910798490047454834e-01 5.103582739830017090e-01 6.245940923690795898e-02
8.916910737752914429e-02 1.502440571784973145e-01 5.342961549758911133e-01
-5.073651075363159180e-01 1.677159070968627930e-01 -2.972221076488494873e-01
3.813845813274383545e-01 3.532504439353942871e-01 3.117095232009887695e-01
4.986161887645721436e-01 -3.469280302524566650e-01 8.544589579105377197e-02
-3.931213319301605225e-01 -4.282858967781066895e-01 -2.449458986520767212e-01
2.053329497575759888e-01 -1.959954798221588135e-01 5.092196464538574219e-01
-3.202148675918579102e-01 1.678291112184524536e-01 -4.599792659282684326e-01
-3.461226820945739746e-01 1.794541478157043457e-01 4.311935007572174072e-01
5.784222483634948730e-01 2.551406249403953552e-02 2.364701032638549805e-01
2.169401943683624268e-02 -3.952606767416000366e-02 5.659977197647094727e-01
-3.112599849700927734e-01 -5.550697445869445801e-01 -7.951393723487854004e-02
-1.738943457603454590e-01 -5.706033110618591309e-01 -1.683434545993804932e-01
-6.121244430541992188e-01 -1.022926792502403259e-01 1.909060925245285034e-01
2.222350686788558960e-01 9.382157772779464722e-02 5.181083679199218750e-01
-3.405590057373046875e-01 -5.535457730293273926e-01 1.214628759771585464e-02
8.150178194046020508e-02 1.770374774932861328e-01 5.268752574920654297e-01
-6.053466200828552246e-01 1.191241517663002014e-01 1.294476240873336792e-01
-1.013049259781837463e-01 -5.638523697853088379e-01 -2.067958116531372070e-01
1.034337878227233887e-01 -5.826518535614013672e-01 1.730135679244995117e-01
-4.184046685695648193e-01 2.419237643480300903e-01 -3.535645008087158203e-01
4.382142722606658936e-01 -1.277411282062530518e-01 3.909689486026763916e-01
-3.909469842910766602e-01 1.369003485888242722e-02 4.515689611434936523e-01
2.642593085765838623e-01 -6.191486865282058716e-02 -5.031138062477111816e-01
-2.390267252922058105e-01 3.873605132102966309e-01 3.466507792472839355e-01
-2.064528018236160278e-01 5.391437411308288574e-01 -1.500672549009323120e-01
-3.970184922218322754e-01 -2.726311087608337402e-01 -3.751145005226135254e-01
7.320369780063629150e-02 9.717196971178054810e-02 -5.535010695457458496e-01
-4.859789907932281494e-01 2.556519806385040283e-01 -2.618933916091918945e-01
2.650999128818511963e-01 -1.841586679220199585e-01 4.886420369148254395e-01
4.335094988346099854e-01 3.573995828628540039e-01 -2.850747704505920410e-01
2.764072120189666748e-01 5.582675337791442871e-01 -1.225732546299695969e-02
3.691006898880004883e-01 -2.814638018608093262e-01 -3.530790209770202637e-01
5.110491514205932617e-01 3.128979504108428955e-01 1.938821822404861450e-01
-4.062728881835937500e-01 -7.692249864339828491e-02 -4.325212538242340088e-01
-1.127463206648826599e-01 3.604702949523925781e-01 4.192419946193695068e-01
-6.210870742797851562e-01 -7.081926614046096802e-02 1.708012372255325317e-01
-1.009802334010601044e-02 -5.852006673812866211e-01 2.161985486745834351e-01
4.249272942543029785e-01 -4.268619716167449951e-01 9.281224012374877930e-02
2.482997775077819824e-01 5.683527588844299316e-01 -6.432813592255115509e-03
1.402547061443328857e-01 1.908503472805023193e-01 5.132107138633728027e-01
-8.165945112705230713e-02 -4.061373695731163025e-02 5.631463527679443359e-01
1.083464846014976501e-01 -5.003473162651062012e-01 3.332625329494476318e-01
1.241092458367347717e-01 -5.353717207908630371e-01 -2.214193493127822876e-01
2.033359557390213013e-01 -5.703139305114746094e-01 7.374597340822219849e-02
-1.473010778427124023e-01 3.444358408451080322e-01 -4.474287629127502441e-01
-2.848011553287506104e-01 3.919924795627593994e-01 3.123706579208374023e-01
3.610856831073760986e-01 -3.371874094009399414e-01 3.452804088592529297e-01
-2.193028777837753296e-01 -2.657355368137359619e-01 -4.678450822830200195e-01
-2.649198845028877258e-02 -2.670994699001312256e-01 -4.970037341117858887e-01
-4.422907531261444092e-01 -4.851785004138946533e-01 -2.147504501044750214e-02
-4.408954977989196777e-01 -3.487424552440643311e-01 -2.823761105537414551e-01
1.599911451339721680e-01 -5.196761488914489746e-01 -2.297751605510711670e-01
-1.818256378173828125e-01 -4.453846812248229980e-01 3.974205553531646729e-01
-5.947808921337127686e-02 1.462744176387786865e-01 5.376368761062622070e-01
3.078586421906948090e-02 -4.846432209014892578e-01 3.729019463062286377e-01
1.090991795063018799e-01 3.528449833393096924e-01 4.337607026100158691e-01
5.017513036727905273e-01 7.329539954662322998e-02 -3.464241921901702881e-01
-1.813597977161407471e-01 2.149416655302047729e-01 -5.026302933692932129e-01
-1.659681648015975952e-01 -6.001182198524475098e-01 1.367396861314773560e-01
5.102726817131042480e-01 2.690365612506866455e-01 2.403374314308166504e-01
4.418596029281616211e-01 2.857646644115447998e-01 -3.347543776035308838e-01
1.833888441324234009e-01 -4.773984551429748535e-01 3.278657197952270508e-01
4.094768762588500977e-01 4.818889200687408447e-01 3.290650993585586548e-02
-7.218509167432785034e-02 -1.889520734548568726e-01 5.473744273185729980e-01
6.208264231681823730e-01 6.218877434730529785e-02 -1.295468509197235107e-01
-2.747080624103546143e-01 1.150984019041061401e-01 4.922703802585601807e-01
5.890029072761535645e-01 2.623052895069122314e-01 -4.523345082998275757e-02
4.286753237247467041e-01 -1.057637110352516174e-01 4.049718081951141357e-01
-3.517972826957702637e-01 -3.782314658164978027e-01 -3.325855731964111328e-01
-3.922139108180999756e-02 4.498476684093475342e-01 3.496102690696716309e-01
-1.848468184471130371e-01 -5.006908178329467773e-01 -2.874093949794769287e-01
1.523378193378448486e-01 5.780692398548126221e-02 -5.444123744964599609e-01
-1.127125099301338196e-01 -1.740286946296691895e-01 -5.260349512100219727e-01
-3.149640262126922607e-01 -1.196442916989326477e-02 -4.899983704090118408e-01
5.808590650558471680e-01 2.475805431604385376e-01 1.077317297458648682e-01
3.159098923206329346e-01 9.851512312889099121e-02 4.785785079002380371e-01
-4.394548237323760986e-01 -4.902280271053314209e-01 3.093744628131389618e-02
-6.349102407693862915e-02 -6.126870512962341309e-01 -6.559193134307861328e-02
-1.975652426481246948e-01 -1.689626276493072510e-01 5.307456254959106445e-01
-3.170147836208343506e-01 4.971275925636291504e-01 -9.124845266342163086e-02
5.934929251670837402e-01 -1.918170601129531860e-01 1.386080775409936905e-02
2.808660566806793213e-01 -2.038152143359184265e-02 5.060745477676391602e-01
3.859658539295196533e-01 3.012489676475524902e-01 -3.744832277297973633e-01
3.224821686744689941e-01 -7.280921936035156250e-02 -4.737362563610076904e-01
-3.793482184410095215e-01 -5.253454446792602539e-01 1.023720055818557739e-01
-6.067934036254882812e-01 1.567719429731369019e-01 -6.294172257184982300e-02
-3.019324541091918945e-01 -3.992684781551361084e-01 -3.452549278736114502e-01
-1.433741450309753418e-01 -9.083371609449386597e-02 5.529279708862304688e-01
-4.548016004264354706e-04 4.866153895854949951e-01 3.090847134590148926e-01
6.024474278092384338e-02 3.542200475931167603e-02 -5.586659908294677734e-01
3.307466208934783936e-01 4.724720418453216553e-01 -2.459380179643630981e-01
-4.975225627422332764e-01 3.419479131698608398e-01 6.137139350175857544e-02
-2.072556316852569580e-01 -5.516921281814575195e-01 2.473661601543426514e-01
-4.130859971046447754e-01 -3.791308104991912842e-01 -2.812039256095886230e-01
-1.954986900091171265e-01 -4.244392514228820801e-01 4.116374850273132324e-01
-4.511041045188903809e-01 3.794152140617370605e-01 1.097757816314697266e-01
4.946437776088714600e-01 1.459005773067474365e-01 3.309342861175537109e-01
-5.671688318252563477e-01 1.689994931221008301e-01 1.847225576639175415e-01
6.055489182472229004e-01 -1.074523329734802246e-01 1.264894604682922363e-01
-4.800805151462554932e-01 -8.396228402853012085e-02 -3.713264465332031250e-01
4.975201785564422607e-01 -3.330266475677490234e-01 -1.043384075164794922e-01
5.011292695999145508e-01 -3.140604794025421143e-01 1.652238965034484863e-01
-4.130840003490447998e-01 3.292345106601715088e-01 2.634397745132446289e-01
4.477657675743103027e-01 -1.818669438362121582e-01 3.621467649936676025e-01
9.206391125917434692e-02 3.385818302631378174e-01 -4.719575047492980957e-01
-4.278448820114135742e-01 -2.596729993820190430e-01 3.879064917564392090e-01
-1.859466582536697388e-01 -2.649325132369995117e-01 -4.776815474033355713e-01
9.213727712631225586e-02 -5.289464592933654785e-01 2.978482544422149658e-01
2.110857889056205750e-02 4.682078063488006592e-01 -3.702009618282318115e-01
4.849301874637603760e-01 -3.523645401000976562e-01 1.275822818279266357e-01
-1.960345506668090820e-01 5.116259455680847168e-01 -2.346774786710739136e-01
-1.114103198051452637e-01 -4.043385684490203857e-01 -4.049724936485290527e-01
2.537455856800079346e-01 2.245373278856277466e-01 4.670122265815734863e-01
4.494600892066955566e-01 4.476137459278106689e-01 -8.376426994800567627e-02
-2.424232661724090576e-01 5.394465327262878418e-01 2.322004176676273346e-02
1.559240221977233887e-01 5.315882563591003418e-01 2.190492302179336548e-01
-6.100559830665588379e-01 -1.827580481767654419e-01 1.625974327325820923e-01
3.155685663223266602e-01 -1.247360557317733765e-01 -4.647589623928070068e-01
9.914612025022506714e-02 -5.924227833747863770e-01 1.393815279006958008e-01
5.055515766143798828e-01 2.681908607482910156e-01 -2.701615691184997559e-01
1.366492211818695068e-01 2.775771617889404297e-01 4.757150113582611084e-01
5.085095018148422241e-02 5.232650041580200195e-01 2.555063664913177490e-01
-4.748294055461883545e-01 -4.592052996158599854e-01 4.120191931724548340e-02
5.438428521156311035e-01 -3.708650544285774231e-02 2.896881699562072754e-01
-2.576544508337974548e-02 -5.772861242294311523e-01 2.371449768543243408e-01
5.038968920707702637e-01 -2.626301944255828857e-01 2.312477231025695801e-01
-6.147448904812335968e-03 -1.662360131740570068e-01 5.540787577629089355e-01
-4.015860855579376221e-01 -2.309218980371952057e-02 -4.394775629043579102e-01
3.592033684253692627e-01 -2.159854322671890259e-01 4.228397607803344727e-01
2.048404328525066376e-02 -4.120919406414031982e-01 4.417746365070343018e-01
-7.410016842186450958e-03 -1.424104720354080200e-01 5.584141612052917480e-01
-4.409411847591400146e-01 -1.088162064552307129e-01 4.182234108448028564e-01
2.430127859115600586e-01 -1.568393558263778687e-01 5.054977536201477051e-01
3.463672697544097900e-01 1.909063607454299927e-01 4.355886280536651611e-01
-9.795825928449630737e-02 7.481747120618820190e-02 5.503842830657958984e-01
4.501026570796966553e-01 -3.251627683639526367e-01 -2.210824489593505859e-01
2.714271545410156250e-01 1.474261935800313950e-02 -5.077396035194396973e-01
3.000061511993408203e-01 4.210507571697235107e-01 3.035470247268676758e-01
8.989219367504119873e-02 5.816813707351684570e-01 1.142138689756393433e-01
2.173174768686294556e-01 4.412895143032073975e-01 -3.608328700065612793e-01
1.227343454957008362e-01 -5.682250261306762695e-01 2.014084011316299438e-01
-5.297452211380004883e-01 -3.164476454257965088e-01 -1.930353790521621704e-01
-4.765354394912719727e-01 3.684504330158233643e-01 4.886394739151000977e-02
4.487245157361030579e-02 4.953153729438781738e-01 -3.376905620098114014e-01
4.614336788654327393e-01 -1.553061008453369141e-01 -3.435971438884735107e-01
1.663966774940490723e-01 3.986920416355133057e-01 -4.167625010013580322e-01
5.709660053253173828e-01 3.003674149513244629e-01 -3.623777627944946289e-02
-3.377085328102111816e-01 -3.467154204845428467e-01 -3.671698868274688721e-01
-2.619383335113525391e-01 -5.114021897315979004e-01 -2.339438796043395996e-01
-5.136675760149955750e-02 -5.513114929199218750e-01 -2.353924959897994995e-01
4.771500527858734131e-01 4.091826081275939941e-01 -1.277663409709930420e-01
-4.459638297557830811e-01 1.272956579923629761e-01 -3.827601969242095947e-01
2.276146113872528076e-01 -4.816532731056213379e-01 -2.470096796751022339e-01
4.051062166690826416e-01 -4.461520016193389893e-01 -4.390349984169006348e-02
3.663189113140106201e-01 -2.317371964454650879e-01 4.103895425796508789e-01
-1.785574108362197876e-01 3.091623485088348389e-01 -4.594417512416839600e-01
-3.013702929019927979e-01 -5.088694095611572266e-01 -2.088785916566848755e-01
-1.869616955518722534e-01 -5.210265517234802246e-01 3.086943626403808594e-01
2.086314111948013306e-01 2.786282598972320557e-01 -4.780728220939636230e-01
1.908999532461166382e-01 1.387325674295425415e-01 5.174180865287780762e-01
2.927743494510650635e-01 -5.201433300971984863e-01 -7.030429691076278687e-02
5.596876144409179688e-01 -2.538209855556488037e-01 -5.464788526296615601e-02
-1.602475941181182861e-01 5.149995684623718262e-01 2.141745090484619141e-01
3.581996262073516846e-01 -3.462138473987579346e-01 -3.070381879806518555e-01
3.956487178802490234e-01 -4.233954548835754395e-01 1.874526888132095337e-01
3.880745917558670044e-02 5.508000254631042480e-01 2.039212137460708618e-01
2.225642949342727661e-01 5.349861979484558105e-01 -2.197681665420532227e-01
3.797035813331604004e-01 1.452411860227584839e-01 4.302542805671691895e-01
1.311266869306564331e-01 -5.050844550132751465e-01 -2.690122425556182861e-01
2.101355791091918945e-01 -2.724916636943817139e-01 -4.511952996253967285e-01
5.131630897521972656e-01 1.499955207109451294e-01 3.075596690177917480e-01
4.077681005001068115e-01 -2.955309748649597168e-01 -3.058783411979675293e-01
-6.054922342300415039e-01 -1.383908241987228394e-01 1.974075287580490112e-01
-6.347025036811828613e-01 -9.596222639083862305e-02 1.202217712998390198e-01
3.280944824218750000e-01 -3.180956467986106873e-03 4.829857647418975830e-01
-1.227269880473613739e-03 4.722245931625366211e-01 3.274405002593994141e-01
5.255060791969299316e-01 3.395237326622009277e-01 1.203500777482986450e-01
-2.051938772201538086e-01 2.437942773103713989e-01 -4.832915365695953369e-01
-4.763821065425872803e-01 1.710467934608459473e-01 3.259270191192626953e-01
3.907239735126495361e-01 -4.305972456932067871e-01 -1.409756243228912354e-01
-8.965033292770385742e-02 4.646455347537994385e-01 3.219194114208221436e-01
2.015406638383865356e-01 -5.272563099861145020e-01 2.334541678428649902e-01
-5.075101852416992188e-01 -3.734062314033508301e-01 -1.587158739566802979e-01
5.480369329452514648e-01 -1.528362333774566650e-01 -2.264443784952163696e-01
-4.698117077350616455e-01 3.810111880302429199e-01 -1.629074104130268097e-02
8.376162499189376831e-03 -9.149176627397537231e-02 -5.517857074737548828e-01
-4.672638475894927979e-01 -4.481774866580963135e-01 1.376569718122482300e-01
5.305381417274475098e-01 3.626076579093933105e-01 2.276183478534221649e-02
3.503163456916809082e-01 -4.734553396701812744e-01 -1.091919988393783569e-01
-2.617987394332885742e-01 2.460484653711318970e-01 -4.588240385055541992e-01
3.053081929683685303e-01 -3.273138999938964844e-01 3.971112668514251709e-01
4.565061330795288086e-01 -4.027298986911773682e-01 1.131344772875308990e-02
2.063979208469390869e-01 3.702124953269958496e-01 -4.261067807674407959e-01
-2.763478159904479980e-01 2.435936778783798218e-01 4.374603331089019775e-01
-3.484367728233337402e-01 -5.442875027656555176e-01 9.622421860694885254e-02
8.447155356407165527e-02 -5.590943694114685059e-01 -1.927243918180465698e-01
4.839320480823516846e-01 2.515508532524108887e-01 2.893940508365631104e-01
2.324751615524291992e-01 -6.825417280197143555e-02 5.234151482582092285e-01
3.882598876953125000e-01 4.614405333995819092e-01 1.558168232440948486e-01
9.194771945476531982e-02 -2.046329900622367859e-02 5.594951510429382324e-01
-3.846378624439239502e-01 -5.283240079879760742e-01 3.725122660398483276e-03
5.940738320350646973e-01 -1.896122246980667114e-01 2.649828232824802399e-02
-3.104080855846405029e-01 3.559988439083099365e-01 -3.571661412715911865e-01
3.034231066703796387e-01 -1.093497872352600098e-01 -4.752954542636871338e-01
-4.052384495735168457e-01 4.026624262332916260e-01 -1.878461241722106934e-01
-2.888364493846893311e-01 4.000103175640106201e-01 2.999429404735565186e-01
-5.227596312761306763e-02 5.499807596206665039e-01 1.919916421175003052e-01
-3.871142566204071045e-01 3.469085097312927246e-01 2.725151181221008301e-01
1.549073457717895508e-01 -5.800567865371704102e-01 -7.059654593467712402e-02
4.946881234645843506e-01 -2.843759059906005859e-01 -1.971402019262313843e-01
-3.206717669963836670e-01 -4.854064583778381348e-01 -2.316147536039352417e-01
4.613824188709259033e-01 -1.737928688526153564e-01 3.514567017555236816e-01
5.220102071762084961e-01 3.658111393451690674e-01 -9.421997517347335815e-02
2.517068982124328613e-01 1.110976636409759521e-01 5.042047500610351562e-01
-5.388885736465454102e-01 -2.178087979555130005e-01 -2.593814730644226074e-01
-1.370043456554412842e-01 2.047520726919174194e-01 -5.178323388099670410e-01
-5.217535495758056641e-01 -3.702359199523925781e-01 1.723217517137527466e-01
-4.298893511295318604e-01 -3.475850522518157959e-01 3.321411311626434326e-01
3.296821713447570801e-01 4.940506443381309509e-02 4.789119660854339600e-01
-5.384619235992431641e-01 1.867399960756301880e-01 -2.357028871774673462e-01
-4.329520463943481445e-01 -8.757165819406509399e-02 -4.114793539047241211e-01
-5.613317489624023438e-01 1.577329933643341064e-01 2.082291394472122192e-01
5.759477615356445312e-01 -1.545173674821853638e-01 1.785047054290771484e-01
-3.177454769611358643e-01 -3.071748316287994385e-01 4.382945597171783447e-01
-3.515707254409790039e-01 6.171583384275436401e-02 4.673194289207458496e-01
-1.406328529119491577e-01 -1.850676238536834717e-01 -5.182465910911560059e-01
1.820535361766815186e-01 5.232300162315368652e-01 -2.663570940494537354e-01
-1.325443834066390991e-01 2.302100658416748047e-01 4.947974681854248047e-01
-6.412772536277770996e-01 -1.418635398149490356e-01 -2.241104654967784882e-02
-5.666309595108032227e-01 -1.644287854433059692e-01 -2.432258129119873047e-01
-2.263035774230957031e-01 -4.199727177619934082e-01 -3.620295226573944092e-01
-2.509897649288177490e-01 3.944909870624542236e-01 3.321730196475982666e-01
-4.488019049167633057e-01 -2.291818410158157349e-01 3.829301595687866211e-01
-6.369259953498840332e-02 5.898956656455993652e-01 -8.954662829637527466e-02
1.005340367555618286e-01 1.412169635295867920e-01 -5.439055562019348145e-01
-1.200368404388427734e-01 5.575247406959533691e-01 -1.817065030336380005e-01
8.282655477523803711e-02 -1.194369941949844360e-01 -5.404366850852966309e-01
4.121970534324645996e-01 -1.368382573127746582e-01 -3.966849148273468018e-01
-2.765406966209411621e-01 4.551069140434265137e-01 -2.659069299697875977e-01
2.973646223545074463e-01 -4.307663813233375549e-02 -4.913074970245361328e-01
-5.403798222541809082e-01 -4.604236688464879990e-03 -3.070077896118164062e-01
-4.650603830814361572e-01 2.587587013840675354e-02 3.919656276702880859e-01
-5.512674450874328613e-01 2.761723995208740234e-01 -1.662879623472690582e-02
-4.174636304378509521e-01 -3.330739140510559082e-01 -3.183326721191406250e-01
3.949163556098937988e-01 2.027011215686798096e-01 3.989380598068237305e-01
5.573303699493408203e-01 -2.399942129850387573e-01 -1.029709056019783020e-01
6.334797143936157227e-01 2.208990976214408875e-03 -6.095217168331146240e-02
3.538098931312561035e-01 5.207640528678894043e-01 -4.581239074468612671e-02
5.935687199234962463e-02 -6.460364162921905518e-02 5.627043247222900391e-01
-1.283727437257766724e-01 1.472123116254806519e-01 5.276300311088562012e-01
4.335239231586456299e-01 -2.306713163852691650e-01 -3.293830752372741699e-01
-2.175290882587432861e-01 4.018392562866210938e-01 -3.729161024093627930e-01
4.652396738529205322e-01 3.791873753070831299e-01 1.826275587081909180e-01
1.351125538349151611e-01 5.880762338638305664e-01 -1.109705492854118347e-01
3.245825767517089844e-01 -4.671859741210937500e-01 -1.714870780706405640e-01
-3.675843775272369385e-01 -4.685452282428741455e-01 2.615636587142944336e-01
-6.181667447090148926e-01 1.128666698932647705e-01 -8.290879428386688232e-02
-4.857919812202453613e-01 -3.501455783843994141e-01 -2.261790782213211060e-01
-4.823697209358215332e-01 -1.832782477140426636e-01 3.670511245727539062e-01
3.883594572544097900e-01 -4.069307744503021240e-01 -1.932989954948425293e-01
-3.575182855129241943e-01 -2.896793782711029053e-01 4.243007302284240723e-01
9.510266780853271484e-02 5.938146710395812988e-01 -1.040203571319580078e-01
-6.266911029815673828e-01 -5.186768621206283569e-02 1.538878232240676880e-01
-1.257475186139345169e-02 2.410684674978256226e-01 5.050214529037475586e-01
-3.074263632297515869e-01 -5.544022917747497559e-01 1.441992521286010742e-01
4.044886231422424316e-01 1.610548235476016998e-03 4.350176453590393066e-01
6.128800511360168457e-01 1.766365170478820801e-01 7.557082921266555786e-02
4.392913281917572021e-01 2.983179092407226562e-01 -3.288539350032806396e-01
-6.234572529792785645e-01 -2.168325036764144897e-01 -2.833259291946887970e-02
4.380581974983215332e-01 -2.072585970163345337e-01 3.598461747169494629e-01
2.567516081035137177e-02 3.570956289768218994e-01 4.373624622821807861e-01
-5.678761005401611328e-01 2.444270700216293335e-01 3.825711458921432495e-02
-2.962234914302825928e-01 4.472169280052185059e-01 2.259161919355392456e-01
-5.589468479156494141e-01 -1.239009872078895569e-01 -2.696244120597839355e-01
-1.754466146230697632e-01 1.002965867519378662e-01 -5.333157777786254883e-01
1.389480978250503540e-01 -1.622479110956192017e-01 5.370661616325378418e-01
3.748895525932312012e-01 -2.386690378189086914e-01 4.003086388111114502e-01
-3.117537684738636017e-02 4.329911768436431885e-01 3.686830699443817139e-01
-4.247480258345603943e-02 2.902641594409942627e-01 4.777888357639312744e-01
5.586360096931457520e-01 -1.769922301173210144e-02 -2.664299607276916504e-01
5.935378670692443848e-01 3.047975525259971619e-02 2.053505629301071167e-01
3.601944744586944580e-01 -4.735383987426757812e-01 -8.347726613283157349e-02
-5.248866081237792969e-01 2.216761559247970581e-02 -3.240878582000732422e-01
5.035031437873840332e-01 3.394049704074859619e-01 1.726362407207489014e-01
-6.343969702720642090e-01 -1.257777512073516846e-01 -8.981362730264663696e-02
5.294038653373718262e-01 3.564245402812957764e-01 6.138847023248672485e-02
1.023226305842399597e-01 -3.837733566761016846e-01 -4.106150567531585693e-01
-4.017671644687652588e-01 6.668120622634887695e-02 -4.330615103244781494e-01
-4.026919603347778320e-01 2.929144501686096191e-01 3.126081526279449463e-01
3.701471984386444092e-01 -2.118963152170181274e-01 -3.956511914730072021e-01
-4.867270886898040771e-01 -1.929693389683961868e-03 -3.685090839862823486e-01
-1.004444137215614319e-01 -3.608230054378509521e-01 -4.390456676483154297e-01
-1.180641725659370422e-01 5.649030208587646484e-01 -1.591060310602188110e-01
-5.304567813873291016e-01 -1.416261196136474609e-01 -3.037683665752410889e-01
1.132582873106002808e-01 -3.529419898986816406e-01 -4.312372803688049316e-01
6.338484883308410645e-01 -1.358232460916042328e-02 -4.708653688430786133e-02
5.642534494400024414e-01 2.705871462821960449e-01 -1.499685198068618774e-01
3.491524234414100647e-02 3.792028129100799561e-01 4.202848672866821289e-01
-1.254786550998687744e-01 3.951115012168884277e-01 -4.160236716270446777e-01
6.998734083026647568e-03 -4.803373664617538452e-02 5.664086937904357910e-01
-3.481417596340179443e-01 1.206257473677396774e-02 -4.723637700080871582e-01
3.595297932624816895e-01 5.117020010948181152e-01 -9.536884725093841553e-02
-6.084031462669372559e-01 -2.624950706958770752e-01 -1.403801888227462769e-02
-3.048454225063323975e-01 -4.696159660816192627e-01 3.140470981597900391e-01
4.242868423461914062e-01 3.036617934703826904e-01 -3.399158716201782227e-01
8.746665716171264648e-02 3.362251520156860352e-01 4.481919705867767334e-01
5.457930564880371094e-01 -2.448309063911437988e-01 -1.335143297910690308e-01
3.582860529422760010e-01 -1.447449624538421631e-01 4.482037425041198730e-01
-6.312212347984313965e-01 -1.435733735561370850e-01 -9.172006696462631226e-02
-1.697985976934432983e-01 3.079592064023017883e-02 5.439522862434387207e-01
5.451240539550781250e-01 -2.738817632198333740e-01 -7.306107878684997559e-02
3.218446299433708191e-02 4.364116489887237549e-01 -4.026914536952972412e-01
4.155297875404357910e-01 4.690440893173217773e-01 7.657951116561889648e-02
2.586672902107238770e-01 5.373389720916748047e-01 1.379123777151107788e-01
8.511288091540336609e-03 -3.305940628051757812e-01 4.952272474765777588e-01
-2.522061169147491455e-01 5.154615044593811035e-01 1.227883100509643555e-01
-5.834463834762573242e-01 -3.025300204753875732e-01 -6.599792093038558960e-02
-4.014134705066680908e-01 -4.898543059825897217e-01 -1.250026375055313110e-01
-5.829988718032836914e-01 -1.389278173446655273e-01 2.446963489055633545e-01
-4.621626138687133789e-01 -2.765013277530670166e-01 3.480081558227539062e-01
2.950485050678253174e-01 2.820086777210235596e-01 4.197879135608673096e-01
3.028111755847930908e-01 -5.200356841087341309e-01 -3.703457117080688477e-02
1.342653632164001465e-01 -5.756214857101440430e-01 1.689992100000381470e-01
3.815048038959503174e-01 -1.145584508776664734e-01 -4.273105859756469727e-01
-4.333268105983734131e-01 3.966913223266601562e-01 1.097391843795776367e-01
1.707419753074645996e-01 5.243245959281921387e-01 2.266797423362731934e-01
-2.336179614067077637e-01 5.448790192604064941e-01 -9.225260000675916672e-04
-1.561958789825439453e-01 2.397478371858596802e-01 4.845233261585235596e-01
-1.972397416830062866e-01 5.579680800437927246e-01 -6.331906467676162720e-02
-6.426161527633666992e-01 8.726756088435649872e-03 5.959339439868927002e-02
3.061933219432830811e-01 -5.013825297355651855e-01 1.596260070800781250e-01
3.710748851299285889e-01 3.740290105342864990e-01 3.004177212715148926e-01
-5.164672620594501495e-03 -3.319347798824310303e-01 4.952535033226013184e-01
2.796532213687896729e-01 6.879283487796783447e-02 5.005319118499755859e-01
3.309064209461212158e-01 -3.924012780189514160e-01 -2.819420695304870605e-01
-1.275760680437088013e-01 2.413146048784255981e-01 4.905868768692016602e-01
3.006010949611663818e-01 3.918415009975433350e-01 3.337910175323486328e-01
4.828472435474395752e-01 1.304886639118194580e-01 -3.585108816623687744e-01
3.666260540485382080e-01 -2.651944383978843689e-02 4.603445529937744141e-01
-3.271544575691223145e-01 -3.733538091182708740e-01 3.920550048351287842e-01
-1.357414424419403076e-01 -2.291329354047775269e-01 5.290597677230834961e-01
-3.082913756370544434e-01 4.041679203510284424e-01 -3.081637322902679443e-01
5.739943385124206543e-01 -2.353639304637908936e-01 4.666045308113098145e-03
5.383045077323913574e-01 -2.205716073513031006e-01 2.061020433902740479e-01
-2.970571517944335938e-01 1.134282201528549194e-01 -4.864598214626312256e-01
-4.123209714889526367e-01 -3.618593811988830566e-01 3.372118473052978516e-01
-5.447775721549987793e-01 2.695953547954559326e-01 8.831767737865447998e-02
-4.601211845874786377e-02 -6.056316494941711426e-01 -9.858553111553192139e-02
3.268569707870483398e-01 4.081329330801963806e-03 -4.812768399715423584e-01
-3.371268510818481445e-02 -2.804985642433166504e-01 -4.904463291168212891e-01
-2.930122800171375275e-02 -1.208193376660346985e-01 5.614531636238098145e-01
-5.392363071441650391e-01 -3.547975718975067139e-01 -1.151758879423141479e-01
-3.002581000328063965e-01 1.563279181718826294e-01 4.665706157684326172e-01
2.440239638090133667e-01 -3.563233315944671631e-01 4.132997393608093262e-01
2.309830188751220703e-01 -5.578832626342773438e-01 -2.863433025777339935e-02
-1.709689646959304810e-01 -1.179928630590438843e-01 5.449341535568237305e-01
3.658918440341949463e-01 1.941488832235336304e-01 4.223347902297973633e-01
-6.146669983863830566e-01 -2.473277449607849121e-01 3.655305504798889160e-02
-5.645949244499206543e-01 -1.944434940814971924e-01 2.567230761051177979e-01
-4.342585504055023193e-01 -4.234985634684562683e-02 4.255070686340332031e-01
4.483697414398193359e-01 -1.691195666790008545e-01 3.669887781143188477e-01
-2.124473601579666138e-01 3.246592879295349121e-01 4.140112400054931641e-01
1.625457257032394409e-01 -5.741789937019348145e-01 1.408296376466751099e-01
-5.708376169204711914e-01 -2.984800040721893311e-01 1.560592055320739746e-01
-3.457237780094146729e-01 -5.409606695175170898e-01 1.214406639337539673e-01
-1.052937358617782593e-01 -3.402877748012542725e-01 -4.519779682159423828e-01
-6.101371720433235168e-02 3.127904832363128662e-01 -4.849705398082733154e-01
-2.496829330921173096e-01 2.516044080257415771e-01 -4.617857635021209717e-01
2.558969259262084961e-01 -4.797886908054351807e-01 -2.263919115066528320e-01
5.375849604606628418e-01 3.520002961158752441e-01 2.826467342674732208e-02
5.212690234184265137e-01 3.266749382019042969e-01 -1.812994778156280518e-01
2.826302051544189453e-01 -4.715647101402282715e-01 2.588906288146972656e-01
-4.183972477912902832e-01 5.680523067712783813e-02 4.241302609443664551e-01
3.618726134300231934e-01 3.526425659656524658e-01 3.280237019062042236e-01
2.802020907402038574e-01 -4.465564191341400146e-01 2.989855706691741943e-01
3.414313774555921555e-03 -6.192569136619567871e-01 3.419929742813110352e-02
-2.196578085422515869e-01 -2.392714470624923706e-01 5.062440037727355957e-01
6.305964589118957520e-01 1.172781959176063538e-01 -4.421567171812057495e-02
-4.074189364910125732e-01 3.169160187244415283e-01 -3.049829304218292236e-01
1.058459430932998657e-01 -5.043698549270629883e-01 -2.805284559726715088e-01
-4.332705140113830566e-01 -4.002726674079895020e-01 2.781082987785339355e-01
-7.157452870160341263e-03 4.945587515830993652e-01 2.976825833320617676e-01
1.201459988951683044e-01 4.727193713188171387e-01 3.187681138515472412e-01
-3.062431812286376953e-01 4.850819706916809082e-01 -1.654956489801406860e-01
-5.723761916160583496e-01 -3.318181335926055908e-01 -3.540839254856109619e-02
-4.054156839847564697e-01 1.830483675003051758e-01 3.871476352214813232e-01
-1.333347894251346588e-02 5.092603564262390137e-01 -3.157710731029510498e-01
2.894037067890167236e-01 -1.049585733562707901e-02 5.022359490394592285e-01
-4.079343974590301514e-01 3.597115278244018555e-01 -2.552304267883300781e-01
1.415846645832061768e-01 -8.629690110683441162e-02 -5.369554162025451660e-01
-1.280324906110763550e-01 5.595991611480712891e-01 1.245160475373268127e-01
-5.970178917050361633e-02 4.860180914402008057e-01 -3.392979502677917480e-01
2.459146976470947266e-01 1.389046311378479004e-01 -5.088571310043334961e-01
6.167293190956115723e-01 6.832940131425857544e-02 1.380172073841094971e-01
-4.219557642936706543e-01 2.529081702232360840e-01 -3.427044749259948730e-01
-3.987968266010284424e-01 4.267255067825317383e-01 -1.412615031003952026e-01
-2.447429001331329346e-01 5.318316221237182617e-01 7.023520767688751221e-02
-4.778388142585754395e-01 -3.942508697509765625e-01 2.230714112520217896e-01
-3.040420264005661011e-02 5.855038166046142578e-01 9.189623594284057617e-02
4.724386036396026611e-01 3.457351028919219971e-01 2.175609916448593140e-01
3.448282778263092041e-01 -3.086191415786743164e-01 -3.518127501010894775e-01
6.357477903366088867e-01 6.384088844060897827e-02 -4.332390427589416504e-02
4.073338806629180908e-01 1.868659406900405884e-01 -4.105967879295349121e-01
-2.487545162439346313e-01 1.984807997941970825e-01 4.726805090904235840e-01
-2.730450034141540527e-01 5.139877200126647949e-01 -1.298214793205261230e-01
-4.400750100612640381e-01 4.049137830734252930e-01 -8.018797636032104492e-02
1.523579061031341553e-01 5.032504200935363770e-01 -3.093540668487548828e-01
2.041449248790740967e-01 -9.725406765937805176e-02 -5.183283090591430664e-01
-2.677157223224639893e-01 -3.500740230083465576e-01 -4.012898206710815430e-01
-1.484305858612060547e-01 -4.635102748870849609e-01 3.887640237808227539e-01
-5.585116147994995117e-01 2.630026340484619141e-01 -3.635950386524200439e-02
5.257425308227539062e-01 -2.699866592884063721e-01 1.741262525320053101e-01
-3.327523171901702881e-01 4.205809831619262695e-01 -2.615862488746643066e-01
-2.261085808277130127e-01 3.942919671535491943e-01 3.465981185436248779e-01
1.528103202581405640e-01 -2.858792245388031006e-01 4.918009936809539795e-01
2.728657424449920654e-01 -5.257814526557922363e-01 1.423462927341461182e-01
-1.197986453771591187e-01 5.689408183097839355e-01 -1.419450044631958008e-01
3.409088850021362305e-01 -1.237514093518257141e-01 4.641308486461639404e-01
-2.627790570259094238e-01 -2.871783673763275146e-01 4.729597270488739014e-01
-2.120609879493713379e-01 -4.427201747894287109e-01 3.900376856327056885e-01
-5.453805997967720032e-02 2.093370705842971802e-01 5.160308480262756348e-01
6.336337924003601074e-01 1.064683645963668823e-01 2.665768843144178391e-03
-3.549387454986572266e-01 -3.046164512634277344e-01 4.182872474193572998e-01
-2.916291058063507080e-01 -5.379428267478942871e-01 2.118334025144577026e-01
1.607841253280639648e-01 5.540868639945983887e-01 1.677950769662857056e-01
-3.896465897560119629e-01 -3.253020942211151123e-01 3.824564814567565918e-01
3.575588464736938477e-01 4.832935035228729248e-01 -1.927371025085449219e-01
-4.519305825233459473e-01 1.587558910250663757e-02 -3.996636271476745605e-01
2.801533639430999756e-01 1.092912033200263977e-01 -4.998530149459838867e-01
6.308942437171936035e-01 7.424115389585494995e-02 -7.894008606672286987e-02
1.049004718661308289e-01 5.826354026794433594e-01 1.055706441402435303e-01
2.748341560363769531e-01 -4.160429537296295166e-01 3.403397500514984131e-01
-7.610899955034255981e-02 -2.931861877441406250e-01 5.127349495887756348e-01
-2.536769956350326538e-02 -5.249772667884826660e-01 -2.778773903846740723e-01
-3.008015751838684082e-01 2.750433385372161865e-01 -4.228775203227996826e-01
1.646233052015304565e-01 5.906242132186889648e-01 -2.076454646885395050e-02
-5.142857134342193604e-02 1.933496817946434021e-02 -5.596116781234741211e-01
1.015588119626045227e-01 -6.038345098495483398e-01 1.265252754092216492e-02
1.116657927632331848e-01 -5.302099585533142090e-01 2.874573767185211182e-01
-3.257238268852233887e-01 -3.431348502635955811e-01 4.134685397148132324e-01
1.378994286060333252e-01 -2.597739174962043762e-02 5.516443252563476562e-01
2.982757389545440674e-01 4.460053741931915283e-01 -3.109020590782165527e-01
3.637288510799407959e-01 3.225776553153991699e-01 -3.773524165153503418e-01
3.054491281509399414e-01 5.460936427116394043e-01 -1.967095769941806793e-02
-4.821070730686187744e-01 -2.786255478858947754e-01 -2.937028110027313232e-01
6.295369863510131836e-01 1.293714791536331177e-01 2.189909853041172028e-02
6.347801685333251953e-01 -2.834777534008026123e-02 2.204365096986293793e-03
3.619484230875968933e-02 5.971509814262390137e-01 4.813534766435623169e-02
-4.326005280017852783e-01 -4.843999743461608887e-01 1.177832111716270447e-01
-1.550713628530502319e-01 -2.147664576768875122e-01 5.297186374664306641e-01
3.088158071041107178e-01 5.440144538879394531e-01 -3.326847217977046967e-04
-1.071641445159912109e-01 -2.706697881221771240e-01 5.189116597175598145e-01
1.985933184623718262e-01 -4.629907011985778809e-02 5.359349250793457031e-01
-3.349952995777130127e-01 -4.312386736273765564e-04 4.862577021121978760e-01
2.309492323547601700e-03 6.011008620262145996e-01 -2.779298275709152222e-02
-4.929342865943908691e-01 3.182598054409027100e-01 -1.653455793857574463e-01
-8.894162625074386597e-02 9.857181459665298462e-02 5.467454791069030762e-01
4.319852888584136963e-01 -3.100503683090209961e-01 2.933706939220428467e-01
9.513219445943832397e-02 -5.984398722648620605e-01 1.133362352848052979e-01
1.278778761625289917e-01 -5.974938273429870605e-01 2.266690693795681000e-02
4.070732593536376953e-01 3.608375191688537598e-01 -3.102538585662841797e-01
-4.104497432708740234e-01 3.962068557739257812e-01 1.632456630468368530e-01
-2.818580567836761475e-01 4.125052094459533691e-01 2.898176610469818115e-01
5.719883441925048828e-01 2.536472976207733154e-01 1.284959614276885986e-01
5.834829211235046387e-01 2.640976011753082275e-01 -8.398941159248352051e-02
1.899338215589523315e-01 -2.083587050437927246e-01 -4.889090657234191895e-01
-1.118055731058120728e-01 5.302034616470336914e-01 -2.522631585597991943e-01
5.910188555717468262e-01 -1.334981471300125122e-01 1.535203158855438232e-01
-1.726222932338714600e-01 2.250179499387741089e-01 4.871083796024322510e-01
7.764803618192672729e-02 -5.455337166786193848e-01 -2.232274562120437622e-01
7.985134422779083252e-02 -3.029176592826843262e-02 5.611796379089355469e-01
5.817921161651611328e-01 2.755544781684875488e-01 -5.767875164747238159e-02
3.720993921160697937e-02 6.002444624900817871e-01 -6.952044367790222168e-02
-5.018896237015724182e-02 -8.664475381374359131e-02 5.640290379524230957e-01
1.783331632614135742e-01 -3.750833123922348022e-02 5.419668555259704590e-01
-1.172531768679618835e-01 -3.893660306930541992e-01 -4.160376787185668945e-01
-2.097472995519638062e-01 -3.843332827091217041e-01 -3.981010317802429199e-01
3.309439420700073242e-01 -4.999069571495056152e-01 -5.457034707069396973e-02
3.260650634765625000e-01 -3.240066170692443848e-01 -3.536221683025360107e-01
-1.662896126508712769e-01 4.006073176860809326e-01 -3.974119424819946289e-01
1.563208922743797302e-02 -5.276917219161987305e-01 -2.696616351604461670e-01
1.075863465666770935e-02 2.865877747535705566e-01 4.824703037738800049e-01
-2.194498181343078613e-01 -3.437902033329010010e-01 4.600151181221008301e-01
-3.309853002429008484e-02 -4.468621313571929932e-02 -5.577169060707092285e-01
1.342787891626358032e-01 -5.330376029014587402e-01 2.709428369998931885e-01
-1.899487674236297607e-01 -1.024586409330368042e-01 5.419277548789978027e-01
-3.674120604991912842e-01 2.187266200780868530e-01 -4.092822372913360596e-01
5.546427965164184570e-01 -1.559691727161407471e-01 -2.114058285951614380e-01
-5.130749344825744629e-01 1.074642408639192581e-02 -3.394125699996948242e-01
3.446817398071289062e-01 5.188331007957458496e-01 6.000553816556930542e-02
5.405101180076599121e-01 3.346801996231079102e-01 -1.080772429704666138e-01
-2.983946502208709717e-01 5.089808702468872070e-01 -8.463279157876968384e-02
-5.091992616653442383e-01 1.259137988090515137e-01 -3.154065012931823730e-01
1.779810898005962372e-02 -6.095390319824218750e-01 1.221804842352867126e-01
9.086276590824127197e-02 7.253602147102355957e-02 5.513964891433715820e-01
-1.473413407802581787e-02 3.437475487589836121e-02 5.625433325767517090e-01
-4.165903925895690918e-01 3.761883080005645752e-02 -4.260675609111785889e-01
-8.324526995420455933e-02 -3.975977376103401184e-02 -5.545468926429748535e-01
-5.716703534126281738e-01 -1.014580857008695602e-02 2.699466347694396973e-01
4.135227799415588379e-01 -4.052723050117492676e-01 -1.524697542190551758e-01
-3.141791522502899170e-01 -5.651586651802062988e-01 -6.233547814190387726e-03
-1.147823221981525421e-02 -6.200779676437377930e-01 4.593530297279357910e-02
1.424558311700820923e-01 1.536315977573394775e-01 5.247966051101684570e-01
6.248924732208251953e-01 -3.768469765782356262e-02 -9.083150327205657959e-02
-4.327692389488220215e-01 -4.924772381782531738e-01 7.371585816144943237e-02
-4.433591365814208984e-01 -4.857183694839477539e-01 -7.932905107736587524e-03
-4.197738170623779297e-01 -8.876403421163558960e-02 -4.212823808193206787e-01
1.002305001020431519e-01 -1.226031407713890076e-01 -5.371751189231872559e-01
-5.351551175117492676e-01 -3.892554342746734619e-01 6.728891283273696899e-02
-1.505423635244369507e-01 -4.929276406764984131e-01 3.566160500049591064e-01
1.016445010900497437e-01 -5.216134190559387207e-01 -2.557398676872253418e-01
-6.294661164283752441e-01 -1.267766356468200684e-01 1.298151165246963501e-01
-5.528972744941711426e-01 -3.669340610504150391e-01 4.839942604303359985e-02
-6.410353779792785645e-01 4.030606150627136230e-02 2.426818199455738068e-02
3.726862370967864990e-02 5.994687080383300781e-01 2.906410582363605499e-02
5.843815803527832031e-01 2.516526877880096436e-01 -1.071873977780342102e-01
3.857759535312652588e-01 -1.142721548676490784e-01 4.366863965988159180e-01
-5.139374732971191406e-01 3.036528229713439941e-01 -1.359809637069702148e-01
2.651950418949127197e-01 -1.392606049776077271e-01 -4.848695695400238037e-01
2.146570384502410889e-01 3.987770155072212219e-02 -5.285794138908386230e-01
-5.376856327056884766e-01 -6.173493340611457825e-02 -3.100683093070983887e-01
-3.685476258397102356e-02 5.977357029914855957e-01 -2.441424131393432617e-02
-6.264122128486633301e-01 -2.127906680107116699e-01 2.117692958563566208e-03
4.895605742931365967e-01 -2.595515847206115723e-01 2.590914070606231689e-01
-1.547918170690536499e-01 4.818146526813507080e-01 2.743065357208251953e-01
-2.949010431766510010e-01 -1.369260624051094055e-02 5.066660642623901367e-01
-3.300746083259582520e-01 4.612243175506591797e-01 1.542125493288040161e-01
-1.858471035957336426e-01 4.947007894515991211e-01 -2.737425863742828369e-01
8.388695865869522095e-02 -4.760375916957855225e-01 -3.248834311962127686e-01
-2.449738793075084686e-02 -5.082190036773681641e-01 -3.015160262584686279e-01
-4.397079050540924072e-01 -7.408629357814788818e-02 4.213989973068237305e-01
-2.044133692979812622e-01 -1.508643031120300293e-01 5.321518182754516602e-01
1.090688407421112061e-01 2.821374833583831787e-01 4.779874682426452637e-01
-5.900700688362121582e-01 7.066167891025543213e-02 -2.070636898279190063e-01
8.823975175619125366e-02 -5.662344694137573242e-01 2.282145619392395020e-01
5.820854306221008301e-01 2.796480357646942139e-01 -2.390657737851142883e-02
5.324608683586120605e-01 -9.345261752605438232e-02 2.933602035045623779e-01
-2.029688060283660889e-01 2.765684425830841064e-01 -4.686007201671600342e-01
1.077420040965080261e-01 -5.711944699287414551e-01 2.041322141885757446e-01
-2.426830381155014038e-01 -2.765487134456634521e-01 -4.547686874866485596e-01
-4.786264300346374512e-01 -1.184010282158851624e-01 -3.666169047355651855e-01
1.960549205541610718e-01 -4.809811338782310486e-02 -5.290651321411132812e-01
2.176395505666732788e-01 3.232486248016357422e-01 4.270349144935607910e-01
2.159310132265090942e-01 4.885053634643554688e-01 -3.046713173389434814e-01
6.182777881622314453e-01 -5.831514298915863037e-02 1.134068891406059265e-01
2.222508192062377930e-01 2.445342093706130981e-01 4.695305824279785156e-01
-3.988272547721862793e-01 4.437280595302581787e-01 -6.243073940277099609e-02
-4.444876611232757568e-01 -2.441309243440628052e-01 -3.520779013633728027e-01
6.295009851455688477e-01 1.103341877460479736e-01 -6.408417224884033203e-02
-5.520769357681274414e-01 4.712167009711265564e-02 -2.827322185039520264e-01
6.354703903198242188e-01 -2.966732252389192581e-03 -3.802002966403961182e-02
6.281138658523559570e-01 -7.138092815876007080e-02 2.371721714735031128e-02
4.022752642631530762e-01 1.280436515808105469e-01 -4.285597503185272217e-01
-3.563012480735778809e-01 2.459924072027206421e-01 3.878716528415679932e-01
-4.557139575481414795e-01 1.344360411167144775e-01 3.663651049137115479e-01
4.068227708339691162e-01 -1.676711291074752808e-01 4.053626060485839844e-01
2.125874161720275879e-02 -2.030048817396163940e-01 -5.221480131149291992e-01
-3.531334698200225830e-01 -4.040097892284393311e-01 -3.074163496494293213e-01
-3.582380339503288269e-02 2.893735468387603760e-01 -4.996973276138305664e-01
6.099728941917419434e-01 2.108517289161682129e-01 4.558014683425426483e-03
1.327862888574600220e-01 -1.700730323791503906e-01 -5.180351734161376953e-01
-4.184122681617736816e-01 3.076630830764770508e-01 -3.014813363552093506e-01
-4.775582551956176758e-01 -4.258432686328887939e-01 1.680649667978286743e-01
-3.014008402824401855e-01 4.748126864433288574e-01 1.641484349966049194e-01
-4.617960155010223389e-01 2.797870635986328125e-01 2.560818791389465332e-01
5.723317340016365051e-02 -9.236583113670349121e-02 -5.487615466117858887e-01
-5.649319291114807129e-01 2.523324489593505859e-01 -3.324208408594131470e-02
-3.322548568248748779e-01 3.871396780014038086e-01 2.789879441261291504e-01
-5.093542337417602539e-01 2.625987529754638672e-01 1.985483765602111816e-01
1.422432661056518555e-01 -1.105094254016876221e-01 -5.319723486900329590e-01
4.661902785301208496e-01 2.997842431068420410e-02 3.828530609607696533e-01
7.085684686899185181e-02 4.699193835258483887e-01 -3.667977750301361084e-01
4.454364776611328125e-01 -2.927869558334350586e-01 -2.645700573921203613e-01
6.129865050315856934e-01 -6.499736011028289795e-02 -1.239561364054679871e-01
-4.417882859706878662e-01 -4.752228260040283203e-01 1.240841448307037354e-01
4.348263144493103027e-01 -1.786126047372817993e-01 3.763040006160736084e-01
-6.001905798912048340e-01 1.151413843035697937e-01 1.507000327110290527e-01
2.945033609867095947e-01 -5.222216844558715820e-01 -5.412875115871429443e-02
-9.069082140922546387e-02 5.408642292022705078e-01 1.977885961532592773e-01
3.017079234123229980e-01 -3.124725446105003357e-02 4.962220489978790283e-01
1.092315465211868286e-01 -1.284672021865844727e-01 5.494299530982971191e-01
1.700729578733444214e-01 -1.230646371841430664e-01 5.366328358650207520e-01
9.157942235469818115e-02 -4.907860755920410156e-01 -3.041224181652069092e-01
-5.931591987609863281e-01 -6.899376958608627319e-02 2.361564487218856812e-01
-7.178574800491333008e-02 3.436157703399658203e-01 -4.653443098068237305e-01
-1.503104269504547119e-01 -6.122801899909973145e-01 -1.528677344322204590e-02
-4.032906293869018555e-01 -4.200549721717834473e-01 -2.448657900094985962e-01
-2.723034620285034180e-01 5.078274011611938477e-01 -1.540852785110473633e-01
-1.670943498611450195e-01 -3.019401133060455322e-01 -4.635877311229705811e-01
5.460662841796875000e-01 -9.592599421739578247e-02 2.717031538486480713e-01
-1.087745651602745056e-01 -6.187040805816650391e-01 5.125769227743148804e-02
5.922244191169738770e-01 -4.922966938465833664e-03 2.070956677198410034e-01
5.969414710998535156e-01 1.800990700721740723e-01 1.362439990043640137e-01
9.518513828516006470e-02 5.569638013839721680e-01 1.839965283870697021e-01
-6.146194338798522949e-01 -2.453280240297317505e-01 -1.949491165578365326e-02
1.756698936223983765e-01 5.877134799957275391e-01 -5.082806199789047241e-02
3.522033989429473877e-01 4.470421969890594482e-01 -2.640039324760437012e-01
