4.562115967273712158e-01 -3.360630571842193604e-02 3.888928890228271484e-01
7.496799528598785400e-02 -3.879588246345520020e-01 -1.635462343692779541e-01
-2.418608814477920532e-01 -2.576369941234588623e-01 -2.622502148151397705e-01
3.190924823284149170e-01 2.027622759342193604e-01 2.488668113946914673e-01
5.125475525856018066e-01 -3.505697250366210938e-01 -2.510329782962799072e-01
1.008220762014389038e-01 -3.577860593795776367e-01 -2.685725092887878418e-01
1.797900050878524780e-01 1.963945776224136353e-01 -4.024125933647155762e-01
3.515004515647888184e-01 -3.951860964298248291e-01 2.022123783826828003e-01
-1.648572981357574463e-01 2.839559316635131836e-01 -3.820467293262481689e-01
-2.721570730209350586e-01 3.951036036014556885e-01 9.971259534358978271e-02
5.552927851676940918e-01 -2.968701720237731934e-01 -3.007360994815826416e-01
-1.358502209186553955e-01 3.941923975944519043e-01 -1.403599418699741364e-02
-6.990309357643127441e-01 1.264465451240539551e-01 1.862647533416748047e-01
-2.566359341144561768e-01 3.305985629558563232e-01 2.891657352447509766e-01
-3.564073145389556885e-01 2.138731330633163452e-01 4.122221171855926514e-01
5.201740860939025879e-01 1.369607895612716675e-01 -1.494028866291046143e-01
1.499111056327819824e-01 -6.038776040077209473e-02 -5.278150439262390137e-01
-2.153190672397613525e-01 3.977254927158355713e-01 -9.154003858566284180e-02
-1.528545767068862915e-01 -1.864902079105377197e-01 -4.217343926429748535e-01
-4.477527141571044922e-01 -1.512224227190017700e-01 -2.416782230138778687e-01
1.813649386167526245e-01 3.168508112430572510e-01 3.501545637845993042e-02
-3.411879241466522217e-01 3.951225876808166504e-01 9.581650048494338989e-02
-1.940805166959762573e-01 -3.341560959815979004e-01 5.265250802040100098e-04
3.937451243400573730e-01 -1.123213693499565125e-01 -4.685927033424377441e-01
1.309361010789871216e-01 1.797887384891510010e-01 4.044432044029235840e-01
7.168655395507812500e-01 -1.770676970481872559e-01 -2.008242458105087280e-01
-1.988413929939270020e-01 -1.908285319805145264e-01 4.058293402194976807e-01
4.104697108268737793e-01 -4.067797064781188965e-01 1.462265700101852417e-01
3.133389949798583984e-01 -1.204764172434806824e-01 4.665762186050415039e-01
1.723817437887191772e-01 -4.215208292007446289e-01 -2.658564597368240356e-02
2.601968944072723389e-01 -1.382174491882324219e-01 -4.988296031951904297e-01
4.327124655246734619e-01 -4.126035273075103760e-01 1.084234863519668579e-01
3.487730324268341064e-01 -1.133352965116500854e-01 -4.837461113929748535e-01
1.313590258359909058e-01 -3.324087858200073242e-01 -3.285500109195709229e-01
1.415584236383438110e-01 -4.158450067043304443e-01 6.154557317495346069e-02
-3.183135986328125000e-01 -2.813930511474609375e-01 4.693875461816787720e-02
3.004753589630126953e-02 -2.528252601623535156e-01 4.156055450439453125e-01
-6.237500309944152832e-01 5.692364647984504700e-03 2.394782900810241699e-01
6.102175116539001465e-01 7.959355413913726807e-02 -4.713959246873855591e-02
6.410845518112182617e-01 4.851770401000976562e-02 -6.816950440406799316e-02
-2.574852108955383301e-02 -3.790632784366607666e-01 -9.371312707662582397e-02
-3.296552896499633789e-01 3.886325955390930176e-01 -1.526355147361755371e-01
7.160687446594238281e-01 -5.956299602985382080e-02 -1.140522435307502747e-01
-3.437026441097259521e-01 -8.017443865537643433e-02 -4.135649502277374268e-01
-1.513424664735794067e-01 2.511620521545410156e-01 3.966151773929595947e-01
-1.682432442903518677e-01 3.818173408508300781e-01 1.340471655130386353e-01
1.202994287014007568e-01 3.363375961780548096e-01 4.020717740058898926e-02
5.087602734565734863e-01 -4.050122499465942383e-01 -8.808186650276184082e-02
2.551111876964569092e-01 -1.897683590650558472e-01 4.608252048492431641e-01
-2.154243737459182739e-02 1.200405061244964600e-01 -5.085929632186889648e-01
3.627643287181854248e-01 -4.089001417160034180e-01 1.556164473295211792e-01
2.461377382278442383e-01 1.062672138214111328e-01 4.212035536766052246e-01
-3.905311524868011475e-01 -2.254263758659362793e-01 -1.436950713396072388e-01
-6.904150843620300293e-01 1.962827891111373901e-01 -1.747706234455108643e-01
-5.148544311523437500e-01 -1.379661560058593750e-01 1.864058971405029297e-01
6.261097267270088196e-03 3.666411340236663818e-01 -8.066469430923461914e-02
7.502830028533935547e-01 -2.287854701280593872e-01 3.434853255748748779e-02
-3.048372268676757812e-01 -9.063136577606201172e-02 -4.282254576683044434e-01
-1.009470373392105103e-01 3.508531749248504639e-01 -2.462478876113891602e-01
-6.462293267250061035e-01 -1.106807403266429901e-02 1.752202212810516357e-01
1.200939621776342392e-02 -2.402125298976898193e-01 -4.238647520542144775e-01
3.146193027496337891e-01 -4.067940413951873779e-01 -1.774925291538238525e-01
-6.788484454154968262e-01 2.406381368637084961e-01 1.710275709629058838e-01
-4.023251533508300781e-01 -2.326016873121261597e-01 -7.677767425775527954e-02
3.688187524676322937e-02 3.619177639484405518e-01 -1.566522754728794098e-02
2.792159020900726318e-01 -1.960506476461887360e-02 -5.019279718399047852e-01
-8.257551491260528564e-02 3.716776371002197266e-01 -1.626448333263397217e-01
-9.821215271949768066e-02 3.879809379577636719e-01 1.879259198904037476e-02
-5.685653910040855408e-02 -3.776437938213348389e-01 2.786992304027080536e-02
-6.456214189529418945e-02 -2.814047038555145264e-01 3.509891033172607422e-01
1.580300331115722656e-01 -2.995868623256683350e-01 3.788615465164184570e-01
-6.485711038112640381e-02 -3.687306046485900879e-01 -9.309900552034378052e-02
-3.901104331016540527e-01 2.914982438087463379e-01 3.298431336879730225e-01
-4.324363172054290771e-01 5.530760437250137329e-02 -4.213000535964965820e-01
6.400070190429687500e-01 -2.637922167778015137e-01 2.266607582569122314e-01
4.464519917964935303e-01 -1.251911669969558716e-01 -4.454925358295440674e-01
1.588959097862243652e-01 1.744098961353302002e-01 -4.351546168327331543e-01
3.609084188938140869e-01 6.707669794559478760e-02 3.897450268268585205e-01
-7.106488943099975586e-01 5.258826911449432373e-02 -6.298322230577468872e-02
6.331893801689147949e-01 -2.038738280534744263e-01 2.659947872161865234e-01
-1.093412637710571289e-01 -1.257470995187759399e-01 -4.837513566017150879e-01
-3.566159009933471680e-01 2.878882586956024170e-01 -3.555308878421783447e-01
-2.132985293865203857e-01 -1.039796173572540283e-01 4.674716889858245850e-01
-5.170805454254150391e-01 1.154137551784515381e-01 3.816906213760375977e-01
-4.377969205379486084e-01 3.942636549472808838e-01 2.544348873198032379e-02
-7.004080414772033691e-01 1.165627539157867432e-01 1.809694319963455200e-01
-2.941608428955078125e-01 -2.822821736335754395e-01 1.325080841779708862e-01
-5.437051653861999512e-01 1.901664137840270996e-01 3.442887365818023682e-01
2.432868927717208862e-01 -4.064915478229522705e-01 -1.718740612268447876e-01
-3.422358930110931396e-01 -2.565722763538360596e-01 -1.220143660902976990e-01
-3.832944631576538086e-01 1.606206297874450684e-01 -4.361584484577178955e-01
-6.236276030540466309e-01 4.632333293557167053e-03 -2.154211997985839844e-01
-5.359982252120971680e-01 -8.007527142763137817e-02 2.628806233406066895e-01
3.066867291927337646e-01 -1.944046914577484131e-01 4.479086697101593018e-01
-2.925062775611877441e-01 -2.007804363965988159e-01 3.376036882400512695e-01
1.393410861492156982e-01 1.615131050348281860e-01 4.190859496593475342e-01
-8.740448951721191406e-02 3.800542950630187988e-01 8.336856961250305176e-02
1.854041591286659241e-02 3.332193195819854736e-01 1.954250633716583252e-01
2.588134706020355225e-01 1.689583063125610352e-01 -3.939596712589263916e-01
-5.407912135124206543e-01 -6.997705250978469849e-02 -2.469400465488433838e-01
6.826816797256469727e-01 -2.429868429899215698e-01 -2.279448807239532471e-01
-5.802245140075683594e-01 -1.018729433417320251e-01 1.289022117853164673e-01
5.871639251708984375e-01 3.003501705825328827e-02 2.098838239908218384e-01
1.513393819332122803e-01 1.475961655378341675e-01 -4.615041911602020264e-01
-7.192010283470153809e-01 1.658113896846771240e-01 1.408279240131378174e-01
-1.585975140333175659e-01 -2.377095669507980347e-01 -3.583673536777496338e-01
-2.034984380006790161e-01 4.006482362747192383e-01 -4.108824580907821655e-02
-1.483582258224487305e-01 3.603437542915344238e-01 2.039895504713058472e-01
-4.967377483844757080e-01 -1.364368647336959839e-01 -1.980307996273040771e-01
-4.110856056213378906e-01 -4.799930751323699951e-02 -3.923141956329345703e-01
-6.495672464370727539e-02 -2.027190029621124268e-01 -4.389834403991699219e-01
7.506151199340820312e-01 -1.469768285751342773e-01 -9.796565026044845581e-02
-6.174396872520446777e-01 -5.925833433866500854e-02 -1.198991537094116211e-01
-3.120276331901550293e-01 2.952031791210174561e-01 -3.570741117000579834e-01
-3.920227587223052979e-01 3.632410764694213867e-01 -2.167865186929702759e-01
1.365713924169540405e-01 -2.406213432550430298e-01 -4.445128142833709717e-01
-6.429749131202697754e-01 1.988368779420852661e-01 -2.428511381149291992e-01
-2.290857210755348206e-02 2.897306978702545166e-01 -3.499188125133514404e-01
-2.629916965961456299e-01 1.600115895271301270e-01 -4.723071157932281494e-01
-1.289571821689605713e-01 -2.538465559482574463e-01 -3.514881134033203125e-01
5.989206954836845398e-02 -2.308789938688278198e-01 -4.434708654880523682e-01
4.200578033924102783e-01 -3.714240491390228271e-01 2.378267496824264526e-01
-4.472456872463226318e-01 -2.130203396081924438e-01 1.703249290585517883e-02
6.565368175506591797e-02 3.237088620662689209e-01 1.869939714670181274e-01
3.941894173622131348e-01 -3.963369727134704590e-01 1.871313601732254028e-01
-5.325796008110046387e-01 -5.759512633085250854e-02 -2.732616961002349854e-01
-3.989032208919525146e-01 3.787129819393157959e-01 -1.673138886690139771e-01
-3.061887621879577637e-01 -2.724997103214263916e-01 1.530460864305496216e-01
-3.912311792373657227e-01 -1.329050660133361816e-01 3.481979668140411377e-01
1.701199859380722046e-01 -3.809002637863159180e-01 2.354770004749298096e-01
1.949995905160903931e-01 2.675252556800842285e-01 2.267771065235137939e-01
4.310716688632965088e-01 9.666180610656738281e-02 3.077705800533294678e-01
4.269967079162597656e-01 -3.985749781131744385e-01 1.666703671216964722e-01
3.464696109294891357e-01 6.539753079414367676e-02 -4.404994249343872070e-01
7.145898342132568359e-01 -1.985275745391845703e-01 1.558739691972732544e-01
-1.401195973157882690e-01 -3.129228353500366211e-01 2.408049404621124268e-01
-6.064703464508056641e-01 8.865223079919815063e-02 3.073943257331848145e-01
-3.324466347694396973e-01 1.629209071397781372e-01 4.472809731960296631e-01
1.845231801271438599e-01 -3.197350502014160156e-01 -3.578274548053741455e-01
-5.700171366333961487e-02 3.207969069480895996e-01 2.692616879940032959e-01
-1.281961947679519653e-01 -3.039736449718475342e-01 -2.586356401443481445e-01
2.998471558094024658e-01 2.293980419635772705e-01 2.098639905452728271e-01
-3.082987368106842041e-01 1.321686059236526489e-01 4.651883840560913086e-01
1.332234870642423630e-02 -3.698316812515258789e-01 -1.843910962343215942e-01
-2.361930906772613525e-01 -3.139193058013916016e-01 -6.444152444601058960e-02
2.594587393105030060e-02 -8.379637449979782104e-02 5.140203237533569336e-01
4.658592939376831055e-01 1.362656354904174805e-01 2.047068923711776733e-01
-4.939307868480682373e-01 -1.169990077614784241e-01 2.633754909038543701e-01
-2.972486019134521484e-01 -1.454195827245712280e-01 -3.862417936325073242e-01
-4.661211669445037842e-01 -2.010692209005355835e-01 7.248325273394584656e-04
-7.232757210731506348e-01 1.283490806818008423e-01 -1.066962629556655884e-01
2.455973774194717407e-01 -3.302097916603088379e-01 3.394365310668945312e-01
-2.116517722606658936e-01 -2.889009714126586914e-01 2.354367971420288086e-01
-1.472762972116470337e-01 3.947598338127136230e-01 1.804380491375923157e-02
-1.366066746413707733e-03 -8.561503887176513672e-02 5.129207968711853027e-01
4.918597042560577393e-01 -3.349158465862274170e-01 -2.881086170673370361e-01
-7.428989410400390625e-01 1.433966755867004395e-01 -1.788042485713958740e-03
-3.190104663372039795e-01 1.128877103328704834e-01 4.680964946746826172e-01
5.224456787109375000e-01 -9.881815314292907715e-02 3.629941344261169434e-01
-4.713437259197235107e-01 5.834462493658065796e-02 4.080502986907958984e-01
9.166441857814788818e-02 2.044948488473892212e-01 3.929612338542938232e-01
-1.192322932183742523e-02 -1.725844591856002808e-01 -4.769956767559051514e-01
-2.240857668220996857e-02 2.454878985881805420e-01 -4.117214381694793701e-01
3.521682322025299072e-02 -3.997936248779296875e-01 2.145560830831527710e-02
5.563647150993347168e-01 -2.296140193939208984e-01 -3.545848429203033447e-01
4.423573613166809082e-01 2.006320804357528687e-01 -2.511899545788764954e-02
5.912849307060241699e-01 5.175075680017471313e-02 1.662099361419677734e-01
3.462783098220825195e-01 2.349879294633865356e-01 1.191189065575599670e-01
4.221450090408325195e-01 -4.112344086170196533e-01 1.217492744326591492e-01
-5.699861645698547363e-01 3.428364992141723633e-01 -1.324414908885955811e-01
7.203948497772216797e-01 -2.891372144222259521e-01 -7.972520589828491211e-02
-7.126279473304748535e-01 2.062107920646667480e-01 1.357524544000625610e-01
-7.305820584297180176e-01 1.162723302841186523e-01 9.321252256631851196e-02
-2.289261817932128906e-01 -2.670961916446685791e-01 -2.538603842258453369e-01
-3.705589473247528076e-01 1.341318637132644653e-01 -4.485701918601989746e-01
2.877275347709655762e-01 2.776595950126647949e-01 -5.319201946258544922e-02
1.103054285049438477e-01 -1.005585715174674988e-01 -5.224660038948059082e-01
7.848170399665832520e-02 -3.884524106979370117e-02 -5.337436199188232422e-01
9.109668433666229248e-02 -4.085495471954345703e-01 5.781442672014236450e-02
-7.829301059246063232e-03 -3.787617683410644531e-01 -1.232503429055213928e-01
5.658158659934997559e-01 -2.697646021842956543e-01 2.892210781574249268e-01
1.581752300262451172e-01 2.800955437123775482e-03 5.002177953720092773e-01
3.014511168003082275e-01 -2.279908508062362671e-01 4.314371347427368164e-01
-4.773677587509155273e-01 3.882934153079986572e-01 -5.278445314615964890e-03
2.699042260646820068e-01 -4.202105104923248291e-01 -1.134805232286453247e-01
5.350546240806579590e-01 -1.229722276329994202e-01 3.570515811443328857e-01
-7.514245808124542236e-02 3.772111237049102783e-01 8.876185119152069092e-02
-3.144193887710571289e-01 -9.400659054517745972e-02 -4.205777049064636230e-01
-4.079749286174774170e-01 2.193804085254669189e-01 3.932818770408630371e-01
-1.634389311075210571e-01 -3.200570940971374512e-01 -1.769298017024993896e-01
3.929744064807891846e-01 -4.270815253257751465e-01 2.061139233410358429e-02
5.774323344230651855e-01 -9.393144398927688599e-02 -3.608469963073730469e-01
-1.665257811546325684e-01 -5.851992219686508179e-02 -4.997240006923675537e-01
-1.247562021017074585e-01 -1.895503401756286621e-01 -4.303063452243804932e-01
6.484286189079284668e-01 -6.342358887195587158e-02 -2.700970768928527832e-01
-1.047555357217788696e-01 2.543692588806152344e-01 -4.137008786201477051e-01
7.667391002178192139e-02 -2.100290656089782715e-01 4.589209556579589844e-01
5.831136181950569153e-02 1.357981860637664795e-01 -4.918315410614013672e-01
-1.750689595937728882e-01 -1.698034256696701050e-01 -4.278760850429534912e-01
-7.065809369087219238e-01 3.092125616967678070e-02 8.209764957427978516e-03
-3.009833097457885742e-01 -1.557375341653823853e-01 -3.728366792201995850e-01
1.170486360788345337e-01 -2.930200994014739990e-01 3.832513391971588135e-01
2.305912673473358154e-01 -3.529989123344421387e-01 -3.075947165489196777e-01
4.683303460478782654e-02 -4.015229046344757080e-01 -2.949867956340312958e-02
-8.952249586582183838e-02 -3.273279368877410889e-01 2.447413057088851929e-01
6.607968807220458984e-01 -1.938686817884445190e-01 2.376890033483505249e-01
-1.203272342681884766e-01 1.714542806148529053e-01 4.638583064079284668e-01
2.284040749073028564e-01 1.750198900699615479e-01 -4.035350680351257324e-01
4.930815398693084717e-01 -3.507036864757537842e-01 -2.617126703262329102e-01
8.167995512485504150e-02 -2.068594992160797119e-01 -4.669848680496215820e-01
-4.875628948211669922e-01 2.148239016532897949e-01 3.631930053234100342e-01
5.341084674000740051e-02 -2.884357273578643799e-01 3.784970343112945557e-01
1.430377960205078125e-01 3.303160369396209717e-01 -7.311048358678817749e-02
-6.581690907478332520e-02 -3.754143118858337402e-01 1.732455752789974213e-02
-3.725483119487762451e-01 1.008782237768173218e-01 4.538795948028564453e-01
2.099189162254333496e-01 -1.049942430108785629e-02 4.905885756015777588e-01
6.240312457084655762e-01 3.743016719818115234e-02 -1.805671155452728271e-01
-6.016834974288940430e-01 -7.414251565933227539e-02 -1.242484748363494873e-01
4.337082207202911377e-01 -3.307622671127319336e-01 2.995134294033050537e-01
3.128907680511474609e-01 -2.921454608440399170e-01 3.778922557830810547e-01
-7.271158695220947266e-02 -1.577719897031784058e-01 4.737088680267333984e-01
6.469250321388244629e-01 -2.969973087310791016e-01 1.842265278100967407e-01
3.572863340377807617e-01 -2.075389325618743896e-01 4.280265271663665771e-01
-3.140524327754974365e-01 -1.730595678091049194e-01 -3.425615727901458740e-01
2.855120301246643066e-01 -2.065436989068984985e-01 -4.649162888526916504e-01
1.766725778579711914e-01 3.070753514766693115e-01 1.155401766300201416e-01
1.522026956081390381e-01 -3.395618200302124023e-01 3.199113011360168457e-01
1.701836436986923218e-01 -4.076950550079345703e-01 -1.391692459583282471e-01
-2.294933944940567017e-01 1.867876052856445312e-01 -4.650832116603851318e-01
6.801987290382385254e-01 -3.347782790660858154e-01 -4.985302686691284180e-02
4.974022135138511658e-02 -4.027035832405090332e-01 2.298983745276927948e-02
-1.629876792430877686e-01 8.676809072494506836e-02 -5.123365521430969238e-01
-3.152817785739898682e-01 -2.524111866950988770e-01 -1.874742358922958374e-01
-3.903639912605285645e-01 -8.308557793498039246e-03 4.361968040466308594e-01
5.843249559402465820e-01 -2.740288674831390381e-01 -3.030572533607482910e-01
-1.055148690938949585e-01 -3.631039857864379883e-01 -2.654158696532249451e-02
-3.881512582302093506e-01 -2.274631261825561523e-01 1.659251302480697632e-01
3.811069130897521973e-01 4.135476797819137573e-02 -4.371174871921539307e-01
-4.668895900249481201e-01 3.546294271945953369e-01 1.894222944974899292e-01
-1.130269765853881836e-01 -3.800608962774276733e-02 5.129933357238769531e-01
5.548242926597595215e-01 1.248410791158676147e-01 2.078087069094181061e-03
4.063369706273078918e-02 -3.283756077289581299e-01 3.125256597995758057e-01
3.111805915832519531e-01 -3.057342171669006348e-01 3.636769056320190430e-01
-3.818802237510681152e-01 -1.478754431009292603e-01 -3.189629912376403809e-01
3.256226181983947754e-01 -1.261290758848190308e-01 4.619931876659393311e-01
1.986495703458786011e-01 3.042945265769958496e-01 8.749224245548248291e-02
-4.179753661155700684e-01 7.974087446928024292e-02 4.372624754905700684e-01
-6.741617321968078613e-01 2.208725064992904663e-01 -1.868577748537063599e-01
-9.560473263263702393e-03 -3.892786204814910889e-01 -2.528077922761440277e-02
-1.688570231199264526e-01 2.540045976638793945e-01 -4.168653786182403564e-01
1.555047780275344849e-01 -4.076245725154876709e-01 1.344099193811416626e-01
7.589154243469238281e-01 -1.702701300382614136e-01 7.557968609035015106e-03
1.586959213018417358e-01 3.131489455699920654e-02 4.922701418399810791e-01
3.915873467922210693e-01 -3.711262941360473633e-01 2.483199387788772583e-01
-3.711589574813842773e-01 3.947215080261230469e-01 8.784215152263641357e-02
4.847115278244018555e-01 -4.131128787994384766e-01 4.672699421644210815e-02
1.605607420206069946e-01 3.229082822799682617e-01 4.641636461019515991e-02
3.831003904342651367e-01 -5.632351338863372803e-02 4.368022084236145020e-01
4.087559282779693604e-01 -1.713121831417083740e-01 4.227542579174041748e-01
-6.162893399596214294e-02 -6.730367988348007202e-02 -5.195043683052062988e-01
-5.478917956352233887e-01 3.132735192775726318e-01 -2.237056940793991089e-01
-3.696042299270629883e-01 2.652487754821777344e-01 -3.756781518459320068e-01
-3.372934758663177490e-01 3.795740306377410889e-01 -1.855860650539398193e-01
-4.846499860286712646e-01 3.011637330055236816e-01 -2.864942848682403564e-01
-3.898055553436279297e-01 1.111935675144195557e-01 4.458456933498382568e-01
5.726900100708007812e-01 -2.786085605621337891e-01 -3.073947429656982422e-01
5.537838935852050781e-01 -3.897072672843933105e-01 8.437265455722808838e-02
6.001998782157897949e-01 -3.821596205234527588e-01 -1.489686779677867889e-02
-3.583933413028717041e-01 -2.618676424026489258e-01 4.476145654916763306e-02
5.943762660026550293e-01 -2.411735057830810547e-02 -3.102494776248931885e-01
-7.790878415107727051e-02 3.843030333518981934e-01 -6.266928464174270630e-02
3.386864960193634033e-01 -4.056091904640197754e-01 1.725725084543228149e-01
-1.965743601322174072e-01 6.903274357318878174e-02 5.015419721603393555e-01
-1.305215805768966675e-01 -1.100052967667579651e-01 -4.866807758808135986e-01
-2.851101756095886230e-01 3.450841605663299561e-01 2.603327333927154541e-01
2.041939496994018555e-01 -3.297325968742370605e-02 4.958840608596801758e-01
4.503178000450134277e-01 -4.205123484134674072e-01 2.624340541660785675e-02
3.951546549797058105e-02 3.553115725517272949e-01 -1.140632033348083496e-01
1.370741277933120728e-01 -4.146120250225067139e-01 -6.320655345916748047e-02
-7.161621451377868652e-01 2.531004250049591064e-01 1.409947127103805542e-02
5.718849599361419678e-02 2.767328321933746338e-01 3.043086528778076172e-01
-1.782030798494815826e-02 -3.879401385784149170e-01 1.364897936582565308e-02
-3.102419078350067139e-01 2.666765451431274414e-01 3.751350343227386475e-01
-1.136059015989303589e-01 -3.510088920593261719e-01 1.301939338445663452e-01
6.445441842079162598e-01 -2.427611947059631348e-01 -2.741765379905700684e-01
4.427615404129028320e-01 -9.289336949586868286e-02 -4.480108320713043213e-01
-5.858988761901855469e-01 -1.011370792984962463e-01 -8.305140584707260132e-02
-3.731406331062316895e-01 1.502446979284286499e-01 4.409766793251037598e-01
1.976172327995300293e-01 2.152052707970142365e-02 -5.137885212898254395e-01
-5.893689393997192383e-01 -1.021418720483779907e-01 9.086239337921142578e-02
5.388563275337219238e-01 -1.530783325433731079e-01 -3.918859064579010010e-01
4.746773242950439453e-01 -3.539375066757202148e-01 2.456117719411849976e-01
5.104022622108459473e-01 -1.492180079221725464e-01 3.738567233085632324e-01
4.341785907745361328e-01 -3.934417963027954102e-01 1.786928921937942505e-01
-1.620239466428756714e-01 3.906044065952301025e-01 -1.130494475364685059e-01
4.512889981269836426e-01 -2.368579506874084473e-01 3.775761723518371582e-01
-2.176201641559600830e-01 -3.252258598804473877e-01 2.347262762486934662e-02
8.736779913306236267e-03 3.651213049888610840e-01 5.045598000288009644e-02
4.038602411746978760e-01 1.723326146602630615e-01 -2.651406228542327881e-01
2.104304283857345581e-01 1.767981350421905518e-01 3.703951835632324219e-01
6.957439184188842773e-01 -5.219586193561553955e-02 -1.693218946456909180e-01
1.332067251205444336e-01 3.251020312309265137e-01 -1.422904431819915771e-01
-1.540791839361190796e-01 -3.482583463191986084e-01 -2.187515608966350555e-03
-1.065633893013000488e-01 -2.702179849147796631e-01 -3.384162485599517822e-01
8.809784054756164551e-02 3.645073622465133667e-02 5.050215721130371094e-01
3.788961470127105713e-01 6.038652732968330383e-03 4.175103008747100830e-01
-2.327062040567398071e-01 2.971678674221038818e-01 3.429152071475982666e-01
7.940971851348876953e-02 -2.626167237758636475e-01 4.132142663002014160e-01
-3.177238404750823975e-01 3.911838829517364502e-01 1.207179352641105652e-01
-4.453394114971160889e-01 -1.647731065750122070e-01 -2.179429084062576294e-01
2.989596426486968994e-01 1.993495374917984009e-01 2.750560641288757324e-01
1.296406518667936325e-02 8.487957715988159180e-02 -5.205423831939697266e-01
-1.971055567264556885e-01 2.204290181398391724e-01 4.279229044914245605e-01
-1.547231823205947876e-01 -6.430538743734359741e-02 4.999291896820068359e-01
-6.726383566856384277e-01 -1.849911175668239594e-02 -1.989645138382911682e-02
-5.076759457588195801e-01 -1.271200627088546753e-01 -1.995436251163482666e-01
2.006116807460784912e-01 1.893922537565231323e-01 -4.007670581340789795e-01
2.964569032192230225e-01 -3.856141567230224609e-01 -2.407087832689285278e-01
-5.787447094917297363e-01 -8.191799372434616089e-02 1.880098581314086914e-01
4.622295498847961426e-01 -3.970064818859100342e-01 1.515131443738937378e-01
2.770182788372039795e-01 2.091228812932968140e-01 -3.233545124530792236e-01
-1.130152791738510132e-01 -2.354610264301300049e-01 3.932982087135314941e-01
4.458928108215332031e-01 9.280016645789146423e-03 3.738620579242706299e-01
-1.146571151912212372e-02 2.463841810822486877e-04 5.202965736389160156e-01
-5.352687090635299683e-02 2.768625319004058838e-01 -3.776241540908813477e-01
-5.967506393790245056e-02 -1.578331738710403442e-01 4.762059748172760010e-01
-8.889107406139373779e-02 3.754414319992065430e-01 -1.486164629459381104e-01
-1.184798404574394226e-02 3.425815403461456299e-01 1.877774894237518311e-01
-6.829935312271118164e-01 9.549284353852272034e-03 1.060504242777824402e-01
-1.948305368423461914e-01 8.221802860498428345e-02 -5.078251957893371582e-01
1.773195415735244751e-01 3.207058012485504150e-01 -2.232750318944454193e-02
3.737960457801818848e-01 2.280268967151641846e-01 8.505320549011230469e-02
1.278875023126602173e-01 1.460661888122558594e-01 4.366906285285949707e-01
2.350286990404129028e-01 -2.016508877277374268e-01 4.581537842750549316e-01
9.290790185332298279e-03 -2.875003516674041748e-01 -3.640111088752746582e-01
-2.382523119449615479e-01 3.525257408618927002e-01 -2.676553726196289062e-01
1.434570699930191040e-01 3.275967240333557129e-01 5.522584915161132812e-02
-6.551968455314636230e-01 6.433971226215362549e-02 2.371708005666732788e-01
-5.392321944236755371e-01 3.024384975433349609e-01 2.450643032789230347e-01
-5.820829048752784729e-02 -4.686417430639266968e-02 -5.252251625061035156e-01
-3.296213448047637939e-01 -1.167721673846244812e-01 -3.929859995841979980e-01
-5.552719831466674805e-01 -1.305223852396011353e-01 9.649830311536788940e-02
-2.216288745403289795e-01 1.103986352682113647e-01 4.882011413574218750e-01
2.185835689306259155e-01 5.686260759830474854e-02 4.639432132244110107e-01
-3.169374465942382812e-01 -2.231752723455429077e-01 2.781587839126586914e-01
8.811934292316436768e-02 -4.095514416694641113e-01 3.077034093439579010e-02
-1.583032608032226562e-01 3.022148907184600830e-01 -3.560698032379150391e-01
-3.112004697322845459e-02 3.159446120262145996e-01 2.688324153423309326e-01
4.301457405090332031e-01 1.258529573678970337e-01 -3.185660243034362793e-01
-1.369359642267227173e-01 -2.921863794326782227e-01 2.920932173728942871e-01
2.078605294227600098e-01 1.258781999349594116e-01 -4.590042531490325928e-01
2.130936682224273682e-01 3.064243495464324951e-01 2.180984616279602051e-02
6.569544076919555664e-01 -4.845561832189559937e-02 1.929723173379898071e-01
3.278216719627380371e-01 3.526789695024490356e-02 4.291355907917022705e-01
2.281865328550338745e-01 -4.181863963603973389e-01 -1.117404550313949585e-01
1.291092783212661743e-01 -2.029755562543869019e-01 4.652434289455413818e-01
-5.819271802902221680e-01 5.639508366584777832e-02 3.229814767837524414e-01
4.186055660247802734e-01 -3.815673887729644775e-01 -2.303843498229980469e-01
6.154524162411689758e-03 -2.027542702853679657e-02 5.206671953201293945e-01
-4.826043844223022461e-01 1.266549527645111084e-01 4.007380902767181396e-01
-6.225880384445190430e-01 2.802643775939941406e-01 1.999210268259048462e-01
-7.522657513618469238e-02 3.164684027433395386e-02 5.170132517814636230e-01
7.364382147789001465e-01 -2.571783065795898438e-01 5.326194316148757935e-02
4.539107978343963623e-01 -9.134802967309951782e-03 3.788847327232360840e-01
-5.671904683113098145e-01 2.500980198383331299e-01 -2.844404280185699463e-01
1.158638000488281250e-01 -2.698814272880554199e-01 4.095367193222045898e-01
-2.378939390182495117e-01 7.755186408758163452e-02 4.934576153755187988e-01
-5.111450552940368652e-01 3.360414206981658936e-01 -2.112035304307937622e-01
3.785471618175506592e-01 -4.021319150924682617e-01 1.745581924915313721e-01
-2.212687209248542786e-02 -1.170444488525390625e-01 5.016366839408874512e-01
3.729702532291412354e-01 2.063596248626708984e-01 -2.235352993011474609e-01
-8.343420922756195068e-03 -1.958450078964233398e-01 -4.602300226688385010e-01
-4.531024694442749023e-01 3.390452563762664795e-01 2.322389185428619385e-01
-1.892563141882419586e-02 1.091160252690315247e-01 4.918255507946014404e-01
1.447004377841949463e-01 -2.765689492225646973e-01 4.044803977012634277e-01
3.402929008007049561e-01 -2.468415945768356323e-01 4.101063311100006104e-01
7.296138405799865723e-01 -2.571482360363006592e-01 7.874837517738342285e-02
-4.032704532146453857e-01 -1.436951607465744019e-01 -3.044298589229583740e-01
3.050769213587045670e-03 3.139303922653198242e-01 2.566249370574951172e-01
1.751956716179847717e-02 -2.912244498729705811e-01 3.657076656818389893e-01
1.058159768581390381e-01 -2.751168012619018555e-01 4.029255211353302002e-01
1.163987368345260620e-01 -3.702784180641174316e-01 -2.437834441661834717e-01
-4.351146519184112549e-02 -2.126786708831787109e-01 -4.361491799354553223e-01
8.990843594074249268e-02 -1.346603482961654663e-01 4.991850256919860840e-01
2.282555699348449707e-01 2.290267311036586761e-02 4.754124283790588379e-01
-2.166189849376678467e-01 4.015375077724456787e-01 -4.217099398374557495e-02
3.300798535346984863e-01 2.395869791507720947e-01 -1.848060488700866699e-01
5.830745100975036621e-01 7.104033231735229492e-02 -1.966429799795150757e-01
-2.205564379692077637e-01 -3.019205033779144287e-01 -1.634895801544189453e-01
3.351936861872673035e-02 -3.749403059482574463e-01 -1.820964217185974121e-01
-4.393005669116973877e-01 2.721702456474304199e-01 -3.428250253200531006e-01
-2.420787066221237183e-01 2.516082823276519775e-01 -4.149475395679473877e-01
-7.124280333518981934e-01 7.875218242406845093e-02 -1.013319790363311768e-01
-2.616575658321380615e-01 -2.231999486684799194e-01 -3.099817931652069092e-01
-1.393982209265232086e-03 1.487076878547668457e-01 4.668901562690734863e-01
-4.637609124183654785e-01 3.341885805130004883e-01 2.366664707660675049e-01
-8.513991534709930420e-02 -2.140434235334396362e-01 4.262016117572784424e-01
-6.294001340866088867e-01 1.737719923257827759e-01 2.792465984821319580e-01
-7.288486361503601074e-01 7.991097122430801392e-02 -4.618042148649692535e-03
7.101734876632690430e-01 -2.325819581747055054e-01 -1.916193068027496338e-01
2.796124815940856934e-01 6.253925710916519165e-02 4.362732470035552979e-01
-3.250854611396789551e-01 -2.352728545665740967e-01 2.424588501453399658e-01
-3.145187795162200928e-01 -2.168978601694107056e-01 -2.730035781860351562e-01
7.376924753189086914e-01 -1.869715452194213867e-01 1.053422316908836365e-01
-6.610004603862762451e-02 3.067618906497955322e-01 -3.329252600669860840e-01
3.563218116760253906e-01 1.925912648439407349e-01 -2.790344953536987305e-01
-4.749392569065093994e-01 1.586007624864578247e-01 3.966864645481109619e-01
3.127002716064453125e-01 2.671355307102203369e-01 -3.748780488967895508e-02
9.830074012279510498e-02 8.121787756681442261e-02 4.862083196640014648e-01
-2.096174508333206177e-01 -5.144320428371429443e-02 4.909141659736633301e-01
4.998036026954650879e-01 1.640117168426513672e-01 -5.956473201513290405e-02
6.469371914863586426e-01 -3.572626113891601562e-01 -5.076062679290771484e-02
7.570066452026367188e-01 -2.011493891477584839e-01 -6.908951699733734131e-02
-2.723385393619537354e-01 -2.565417587757110596e-01 -2.326741218566894531e-01
4.548317193984985352e-02 3.246060907840728760e-01 -2.414280027151107788e-01
6.170408129692077637e-01 2.147073857486248016e-02 1.719206720590591431e-01
-1.316540688276290894e-02 3.729992806911468506e-01 -4.342088103294372559e-02
-1.492612063884735107e-02 -3.882212638854980469e-01 3.233596682548522949e-02
6.904786229133605957e-01 -3.256232142448425293e-01 2.099842205643653870e-02
-1.388625204563140869e-01 3.932095766067504883e-01 2.736397273838520050e-02
6.390715837478637695e-01 -1.148542314767837524e-01 2.591044008731842041e-01
1.608191132545471191e-01 3.071950674057006836e-01 1.399479359388351440e-01
-1.061393022537231445e-01 3.899231851100921631e-01 -3.419525548815727234e-02
-1.283885538578033447e-01 1.436741203069686890e-01 -4.974877536296844482e-01
-4.919386208057403564e-01 1.881875097751617432e-01 3.759007751941680908e-01
4.883066415786743164e-01 6.131499260663986206e-02 2.937107384204864502e-01
-3.089795410633087158e-01 -1.447663009166717529e-01 3.935026228427886963e-01
-4.255781769752502441e-01 -9.194456972181797028e-03 -4.045810103416442871e-01
1.416877359151840210e-01 4.415691643953323364e-02 4.918796718120574951e-01
-6.164666414260864258e-01 -7.238812744617462158e-02 1.079001650214195251e-01
-5.007119104266166687e-02 -8.567044138908386230e-02 5.095048546791076660e-01
2.970550954341888428e-01 2.700983583927154541e-01 4.788658022880554199e-02
4.803021550178527832e-01 -2.784215807914733887e-01 -3.598116338253021240e-01
-6.242821812629699707e-01 3.362172842025756836e-01 -1.608814112842082977e-02
-1.012447476387023926e-01 3.162260949611663818e-01 2.935867607593536377e-01
-4.858493506908416748e-01 1.410883963108062744e-01 -3.908279836177825928e-01
-8.527567982673645020e-02 -3.124215304851531982e-01 -2.714940905570983887e-01
-6.733363270759582520e-01 2.723806500434875488e-01 -1.258715987205505371e-01
-3.256044089794158936e-01 3.773052096366882324e-01 1.743460744619369507e-01
5.047281384468078613e-01 -2.511763870716094971e-01 -3.703896701335906982e-01
6.663044691085815430e-01 -3.462684452533721924e-01 2.885702997446060181e-05
-2.792898118495941162e-01 -1.550515145063400269e-01 -3.875839114189147949e-01
-5.063835978507995605e-01 3.920646011829376221e-02 3.809147477149963379e-01
3.812135159969329834e-01 -2.550688982009887695e-01 3.926425576210021973e-01
-1.572019755840301514e-01 -3.468784093856811523e-01 -1.479386165738105774e-02
2.575975656509399414e-01 2.905487716197967529e-01 -4.234396666288375854e-02
1.406729370355606079e-01 -5.437779426574707031e-02 5.093796849250793457e-01
-2.033643797039985657e-02 4.940700531005859375e-02 5.131343603134155273e-01
3.254963457584381104e-01 -3.766503930091857910e-01 2.518486082553863525e-01
-2.531980723142623901e-02 -3.791930899024009705e-02 5.198765993118286133e-01
-2.463136464357376099e-01 3.984176516532897949e-01 7.133760303258895874e-02
2.330228686332702637e-01 -3.542791306972503662e-01 3.008597493171691895e-01
-3.012864887714385986e-01 5.334208905696868896e-02 -4.808550477027893066e-01
-4.133037328720092773e-01 2.974866628646850586e-01 -3.253033757209777832e-01
-3.216638267040252686e-01 1.234879344701766968e-01 4.645783305168151855e-01
1.071072369813919067e-02 -3.919532299041748047e-01 -5.691944062709808350e-02
5.603597760200500488e-01 -1.726725846529006958e-01 -3.740016818046569824e-01
2.840151488780975342e-01 8.789406716823577881e-02 -4.554409384727478027e-01
6.006324887275695801e-01 8.616641163825988770e-02 -7.443385571241378784e-02
-2.829208076000213623e-01 -2.883802354335784912e-01 1.267213970422744751e-01
-3.632094264030456543e-01 2.391077578067779541e-01 -4.002764225006103516e-01
4.675624370574951172e-01 1.524013578891754150e-01 1.631327718496322632e-01
1.156386137008666992e-01 1.396333575248718262e-01 4.457663297653198242e-01
6.966454982757568359e-01 -1.913960576057434082e-01 -2.329888641834259033e-01
-1.864762008190155029e-01 -2.662778496742248535e-01 -2.927141487598419189e-01
8.320328593254089355e-02 -3.893113732337951660e-01 1.712546497583389282e-01
4.214147031307220459e-01 -4.213948547840118408e-01 -7.198250293731689453e-02
-3.657346367835998535e-01 -1.507170945405960083e-01 3.476310968399047852e-01
9.719718992710113525e-02 -3.497906029224395752e-01 -2.851186394691467285e-01
1.394319068640470505e-02 -2.610174119472503662e-01 4.032766819000244141e-01
5.813472270965576172e-01 -2.727791666984558105e-02 2.783091962337493896e-01
-2.087107002735137939e-01 -3.227486014366149902e-01 1.014776006340980530e-01
-6.044729612767696381e-03 -3.688199520111083984e-01 1.821334362030029297e-01
9.034982323646545410e-02 2.816661596298217773e-01 2.760923504829406738e-01
2.426926046609878540e-01 -3.799432516098022461e-01 2.483654767274856567e-01
-5.026974081993103027e-01 -5.814211815595626831e-02 -3.064348101615905762e-01
2.994030117988586426e-01 -3.872610628604888916e-01 2.301622033119201660e-01
-6.451935768127441406e-01 1.003847569227218628e-01 2.654024660587310791e-01
-6.502959132194519043e-01 1.341866403818130493e-01 -2.466533929109573364e-01
-4.097394943237304688e-01 1.718481183052062988e-01 -4.213574528694152832e-01
2.338441908359527588e-01 -1.320587471127510071e-04 4.810979962348937988e-01
-2.651121318340301514e-01 3.958850502967834473e-01 -1.200520917773246765e-01
2.510837316513061523e-01 -1.594435870647430420e-01 -4.927350580692291260e-01
1.324183642864227295e-01 2.902433574199676514e-01 -2.688511312007904053e-01
-6.196459531784057617e-01 -8.033262938261032104e-02 2.028804831206798553e-02
2.489992529153823853e-01 2.781707346439361572e-01 -1.720644533634185791e-01
-6.212399005889892578e-01 2.481927573680877686e-01 -2.343893796205520630e-01
-1.525050103664398193e-01 3.694545030593872070e-01 -2.074551135301589966e-01
-1.647698134183883667e-01 3.041613399982452393e-01 3.276730775833129883e-01
2.729759551584720612e-02 9.034229815006256104e-02 4.947741031646728516e-01
7.401840686798095703e-01 -2.260841578245162964e-01 -1.254947334527969360e-01
5.740004777908325195e-01 -2.451395243406295776e-01 -3.331687450408935547e-01
4.320652186870574951e-01 2.000302523374557495e-01 -1.162003725767135620e-01
3.918871581554412842e-01 2.284566015005111694e-01 -4.240618646144866943e-02
4.695768058300018311e-01 2.633646689355373383e-02 3.439045846462249756e-01
1.989471018314361572e-01 1.546424627304077148e-01 4.003454744815826416e-01
-2.808591127395629883e-01 -2.399073913693428040e-02 4.774150848388671875e-01
3.377563059329986572e-01 1.048459485173225403e-01 -4.145286381244659424e-01
-5.815963745117187500e-01 2.370252162218093872e-01 -2.826897799968719482e-01
2.994605302810668945e-01 -4.237466752529144287e-01 -9.558093547821044922e-02
-6.517914533615112305e-01 -2.806790173053741455e-02 -9.546918421983718872e-02
2.037642598152160645e-01 -3.986831307411193848e-01 -1.899793893098831177e-01
1.145557463169097900e-01 -4.081597030162811279e-01 9.751142561435699463e-02
5.089812278747558594e-01 -3.883104324340820312e-01 1.437364220619201660e-01
-2.592255771160125732e-01 -1.005589067935943604e-01 4.524072408676147461e-01
6.344850659370422363e-01 -4.349918663501739502e-02 -2.746213972568511963e-01
-5.224376320838928223e-01 -1.608891487121582031e-01 5.802594125270843506e-02
-4.359563589096069336e-01 -2.114517986774444580e-02 4.048186540603637695e-01
-1.353368163108825684e-01 4.445388913154602051e-04 -5.205690264701843262e-01
1.088563352823257446e-02 -3.161346018314361572e-01 3.240362703800201416e-01
7.410866618156433105e-01 -1.351400464773178101e-01 -1.292218565940856934e-01
-1.198382973670959473e-01 3.699667155742645264e-01 -1.923451274633407593e-01
-5.089275836944580078e-01 3.657976984977722168e-01 1.210432276129722595e-01
6.920050382614135742e-01 -2.353979051113128662e-01 1.787574440240859985e-01
-3.649569749832153320e-01 2.168385982513427734e-01 -4.154668450355529785e-01
5.178412199020385742e-01 -4.072850048542022705e-01 -4.804771393537521362e-02
3.850207328796386719e-01 1.354497820138931274e-01 2.991325855255126953e-01
7.530599832534790039e-02 -3.814126253128051758e-01 1.959215253591537476e-01
-2.067074626684188843e-01 -1.625387966632843018e-01 4.291492402553558350e-01
-2.435961216688156128e-01 4.034044146537780762e-01 2.546786330640316010e-03
-9.835627675056457520e-02 2.440237700939178467e-01 -4.243370890617370605e-01
5.070164203643798828e-01 -3.455783426761627197e-01 2.410183101892471313e-01
5.392624139785766602e-01 1.366546601057052612e-01 -8.436394855380058289e-04
-2.180263847112655640e-01 8.062829077243804932e-02 4.962673187255859375e-01
5.188519954681396484e-01 -3.383688628673553467e-01 2.448575049638748169e-01
-1.852403730154037476e-01 -7.453959435224533081e-02 4.893601536750793457e-01
-5.515689030289649963e-02 3.671919405460357666e-01 1.251928508281707764e-01
6.301587224006652832e-01 -2.455102279782295227e-02 2.117016464471817017e-01
4.162199795246124268e-01 2.154861539602279663e-01 -2.368267253041267395e-02
5.026937127113342285e-01 1.551001220941543579e-01 -1.206969097256660461e-01
-4.304637014865875244e-01 -2.022911310195922852e-01 1.673560738563537598e-01
-5.679768919944763184e-01 -1.003305986523628235e-01 1.680397838354110718e-01
4.366133213043212891e-01 -4.203514158725738525e-01 5.265527218580245972e-02
6.260799765586853027e-01 -2.960126101970672607e-01 2.102212011814117432e-01
3.609847128391265869e-01 9.009993076324462891e-02 3.700962662696838379e-01
4.436877965927124023e-01 -3.871072828769683838e-01 -2.065949887037277222e-01
-5.383290648460388184e-01 -1.273877620697021484e-01 1.635276377201080322e-01
1.171614527702331543e-01 -3.991044461727142334e-01 -1.459726393222808838e-01
-4.386934638023376465e-01 -6.355559080839157104e-02 3.767741322517395020e-01
-2.056655883789062500e-01 2.477920651435852051e-01 4.022866189479827881e-01
-3.478887975215911865e-01 9.819090366363525391e-02 -4.629527628421783447e-01
2.691918611526489258e-01 4.541897773742675781e-02 -4.850279688835144043e-01
5.612609982490539551e-01 1.002189964056015015e-01 -1.682710498571395874e-01
3.237295150756835938e-02 1.474687457084655762e-01 4.614818990230560303e-01
-9.083536267280578613e-02 3.154993653297424316e-01 -3.232160210609436035e-01
-3.841196894645690918e-01 3.447305858135223389e-01 2.461472600698471069e-01
3.496855199337005615e-01 -2.282640784978866577e-01 -4.398939013481140137e-01
5.360301733016967773e-01 -5.812107026576995850e-02 3.400876522064208984e-01
3.102128580212593079e-02 2.305916398763656616e-01 -4.164986610412597656e-01
5.974153280258178711e-01 -3.421784043312072754e-01 1.708653271198272705e-01
4.341377615928649902e-01 -2.766449153423309326e-01 3.570407032966613770e-01
5.573874115943908691e-01 1.171005219221115112e-01 5.281127989292144775e-02
3.455686271190643311e-01 -3.933749794960021973e-01 -2.171252816915512085e-01
-4.972602427005767822e-01 2.193983495235443115e-01 -3.547571599483489990e-01
4.898355305194854736e-01 -4.076016545295715332e-01 8.092527836561203003e-02
4.369433224201202393e-01 -4.147445559501647949e-01 -1.065807640552520752e-01
-2.124722898006439209e-01 9.624769538640975952e-02 -5.020173192024230957e-01
7.457299232482910156e-01 -1.372828781604766846e-01 6.139344722032546997e-02
-4.970839321613311768e-01 -1.245738342404365540e-01 -2.216108739376068115e-01
-1.460259854793548584e-01 8.459234237670898438e-02 5.032854080200195312e-01
3.142238259315490723e-01 -4.052490592002868652e-01 1.769631952047348022e-01
4.752185046672821045e-01 -1.785652935504913330e-01 3.895581662654876709e-01
-1.810090839862823486e-01 -3.386891186237335205e-01 2.984229661524295807e-02
-3.791957795619964600e-01 3.857210278511047363e-01 -1.491672694683074951e-01
-7.268837094306945801e-02 3.054354488849639893e-01 3.052908778190612793e-01
5.903691649436950684e-01 -3.703410327434539795e-01 -1.317030936479568481e-01
8.147639036178588867e-02 1.429116129875183105e-01 -4.830113053321838379e-01
-3.963691890239715576e-01 -1.542207151651382446e-01 -2.961052060127258301e-01
2.843577265739440918e-01 -3.453029394149780273e-01 -3.225395679473876953e-01
-2.108537703752517700e-01 6.612692773342132568e-02 -5.063924789428710938e-01
1.971851736307144165e-01 2.477875649929046631e-01 2.692660689353942871e-01
-3.715651109814643860e-04 9.420479089021682739e-02 4.965845942497253418e-01
4.559114277362823486e-01 -4.199064970016479492e-01 -3.571432828903198242e-02
-2.851690351963043213e-01 -1.213448718190193176e-01 4.267020225524902344e-01
2.732375860214233398e-01 2.408279180526733398e-01 -2.605566978454589844e-01
-8.087426424026489258e-02 3.531371951103210449e-01 -2.312126606702804565e-01
4.586329460144042969e-01 -2.084171175956726074e-01 -4.167062938213348389e-01
1.507102046161890030e-03 3.700484633445739746e-01 -3.508770838379859924e-02
4.940681457519531250e-01 6.726083904504776001e-02 -3.306305110454559326e-01
2.840133197605609894e-02 -3.915180563926696777e-01 1.060604676604270935e-01
-9.374664723873138428e-02 3.788354694843292236e-01 9.805880486965179443e-02
-1.257228255271911621e-01 -4.805597476661205292e-03 5.149011611938476562e-01
-1.305495500564575195e-01 2.034931629896163940e-01 4.406842589378356934e-01
1.811060309410095215e-01 -3.735997676849365234e-01 2.561335265636444092e-01
5.282999873161315918e-01 1.248560994863510132e-01 -1.722518652677536011e-01
2.051410228013992310e-01 -4.245958030223846436e-01 -3.271548077464103699e-02
3.120137751102447510e-01 -4.303680956363677979e-01 6.855439394712448120e-03
-2.240013331174850464e-01 1.470982879400253296e-01 -4.850843846797943115e-01
3.288142085075378418e-01 -3.623646199703216553e-01 -2.895142138004302979e-01
-6.631357669830322266e-01 1.031041070818901062e-01 2.415313124656677246e-01
6.118877530097961426e-01 5.364398658275604248e-02 1.149010509252548218e-01
6.358925700187683105e-01 -3.402225673198699951e-01 1.223079636693000793e-01
-2.154923826456069946e-01 -2.455743253231048584e-01 -3.083488047122955322e-01
3.883334994316101074e-01 2.153761535882949829e-01 1.095804125070571899e-01
4.761737883090972900e-01 1.309710592031478882e-01 2.005380243062973022e-01
-1.610172688961029053e-01 -1.387802213430404663e-01 4.634318351745605469e-01
-3.239818513393402100e-01 -1.552590876817703247e-01 3.730270266532897949e-01
1.633499860763549805e-01 2.812309861183166504e-01 -2.660301327705383301e-01
-3.753857910633087158e-01 3.894240558147430420e-01 -1.342104226350784302e-01
-1.756715476512908936e-01 3.981305062770843506e-01 -4.395686835050582886e-02
-7.246624231338500977e-01 1.039496585726737976e-01 -8.475231379270553589e-02
-9.902992844581604004e-02 -1.161862090229988098e-01 -4.918164312839508057e-01
-4.810716509819030762e-01 3.499374091625213623e-01 1.925805062055587769e-01
2.409727126359939575e-01 2.307955920696258545e-01 -3.126745820045471191e-01
7.217822968959808350e-02 2.238327078521251678e-02 5.108889937400817871e-01
-4.837702214717864990e-01 -9.496034681797027588e-02 3.064253032207489014e-01
-3.296322822570800781e-01 -2.708334028720855713e-01 1.008655130863189697e-01
6.893639564514160156e-01 -5.585390329360961914e-02 1.368712484836578369e-01
-3.060109913349151611e-01 -2.871481478214263916e-01 4.633044451475143433e-02
1.540553271770477295e-01 1.848685294389724731e-01 3.891593217849731445e-01
7.552003264427185059e-01 -1.499780863523483276e-01 2.089360356330871582e-02
6.044363975524902344e-01 2.143676392734050751e-02 1.945625096559524536e-01
-8.864057064056396484e-02 9.692516922950744629e-02 5.009301304817199707e-01
-4.025931060314178467e-01 3.996033370494842529e-01 -1.425319351255893707e-02
-3.000051677227020264e-01 1.826133579015731812e-01 -4.533759057521820068e-01
-6.339223980903625488e-01 5.798113346099853516e-02 2.642728984355926514e-01
-7.146813273429870605e-01 2.398146688938140869e-01 -7.032746076583862305e-02
5.758728384971618652e-01 -3.518821597099304199e-01 1.742962449789047241e-01
-2.552116811275482178e-01 1.752592772245407104e-01 -4.668801128864288330e-01
-5.067862570285797119e-02 3.722543120384216309e-01 -1.299941390752792358e-01
5.708540678024291992e-01 -2.425093054771423340e-01 3.039683997631072998e-01
-4.370134323835372925e-02 -2.222265005111694336e-01 4.298971891403198242e-01
-1.931885182857513428e-01 3.551681339740753174e-01 2.302291244268417358e-01
6.731104850769042969e-01 1.519433595240116119e-02 -4.306229203939437866e-02
-4.656395688652992249e-02 3.419752120971679688e-01 -2.474763393402099609e-01
5.515818595886230469e-01 1.191380172967910767e-01 6.659099459648132324e-02
6.556991338729858398e-01 1.304983533918857574e-02 -1.527033448219299316e-01
