1.385328620672225952e-01 2.253559529781341553e-01 6.539850682020187378e-02
7.585588097572326660e-01 -1.164451166987419128e-01 -1.668796688318252563e-02
-7.061247713863849640e-03 -2.624253332614898682e-01 -6.407369673252105713e-02
-7.134886980056762695e-01 -5.347644537687301636e-02 -2.916930615901947021e-02
-2.090092897415161133e-01 4.054143279790878296e-02 -8.953557908535003662e-02
5.673030614852905273e-01 1.396652907133102417e-01 -6.038264557719230652e-02
7.856323122978210449e-01 -7.144463807344436646e-02 -1.084961649030447006e-02
3.834504187107086182e-01 2.755495607852935791e-01 2.686303667724132538e-02
-3.235976770520210266e-02 -1.272124052047729492e-01 8.718553185462951660e-02
7.662720680236816406e-01 4.830364882946014404e-02 1.099422760307788849e-02
2.011768817901611328e-01 -4.247211664915084839e-02 8.734209835529327393e-02
-1.305048819631338120e-02 2.964895069599151611e-01 4.652697965502738953e-02
-1.861012876033782959e-01 7.936658710241317749e-02 -8.879365772008895874e-02
6.930691003799438477e-01 9.118486195802688599e-02 -4.604329168796539307e-02
5.037732720375061035e-01 -1.870564818382263184e-01 -6.118704006075859070e-02
3.583685159683227539e-01 -2.420626580715179443e-01 -6.036887690424919128e-02
-3.591391444206237793e-01 -6.508837454020977020e-03 8.490292727947235107e-02
2.449017018079757690e-01 1.018580496311187744e-01 8.047115057706832886e-02
-2.154857814311981201e-01 -3.067325949668884277e-01 4.052907973527908325e-02
1.274850517511367798e-01 -1.057265847921371460e-01 8.669483661651611328e-02
-7.599913328886032104e-02 -2.100812047719955444e-01 -7.522293925285339355e-02
2.931432425975799561e-01 2.019385099411010742e-01 -7.299181818962097168e-02
2.166196405887603760e-01 1.685322523117065430e-01 -8.223613351583480835e-02
3.232735991477966309e-01 2.966955304145812988e-01 2.316532470285892487e-02
1.904996633529663086e-01 1.314894855022430420e-01 7.975637912750244141e-02
1.829205155372619629e-01 2.406415641307830811e-01 5.944861099123954773e-02
3.442504107952117920e-01 -2.136600613594055176e-01 -6.874612718820571899e-02
-2.881573736667633057e-01 7.823579013347625732e-02 -8.388559520244598389e-02
-4.221421778202056885e-01 -1.151132807135581970e-01 7.524206489324569702e-02
5.027627572417259216e-02 -2.784043848514556885e-01 5.828406661748886108e-02
2.987279295921325684e-01 1.251668930053710938e-01 -8.494036644697189331e-02
-3.766680359840393066e-01 -6.153964996337890625e-02 8.251486718654632568e-02
1.335229426622390747e-01 -1.624278873205184937e-01 8.077592402696609497e-02
3.052752017974853516e-01 -9.334214776754379272e-02 8.001415431499481201e-02
4.240654706954956055e-01 2.886710762977600098e-01 -1.688507944345474243e-02
-5.653140544891357422e-01 -1.231814250349998474e-01 -5.070983991026878357e-02
-1.581983715295791626e-01 2.575813829898834229e-01 5.921518430113792419e-02
6.632658839225769043e-01 3.056437708437442780e-03 -5.993443354964256287e-02
7.738620787858963013e-02 -2.292950302362442017e-01 7.081570476293563843e-02
-2.887047827243804932e-01 1.050939634442329407e-01 8.300229907035827637e-02
6.119382381439208984e-01 -7.683125138282775879e-02 5.094875767827033997e-02
-1.139861047267913818e-01 -2.332857251167297363e-02 9.224649518728256226e-02
-3.703998029232025146e-01 2.588980793952941895e-01 4.618271812796592712e-02
-5.050180554389953613e-01 -1.031496226787567139e-01 6.914671510457992554e-02
3.765858411788940430e-01 2.661694288253784180e-01 -4.598109796643257141e-02
-2.155316770076751709e-01 -1.409965157508850098e-01 8.313763141632080078e-02
3.889923915266990662e-02 -2.723595499992370605e-01 -6.156694144010543823e-02
-8.095173537731170654e-02 -1.081003062427043915e-02 -9.415569901466369629e-02
4.641259908676147461e-01 -2.112892717123031616e-01 -5.953392013907432556e-02
-4.305327534675598145e-01 1.285482794046401978e-01 7.217641919851303101e-02
3.313927054405212402e-01 1.233280077576637268e-01 7.299461215734481812e-02
-1.877132356166839600e-01 1.703640073537826538e-01 7.802781462669372559e-02
-1.681291908025741577e-01 -2.277344465255737305e-02 9.149800986051559448e-02
4.314064085483551025e-01 1.396857798099517822e-01 -7.502347975969314575e-02
5.321775674819946289e-01 1.013123318552970886e-01 5.657099187374114990e-02
-5.753581523895263672e-01 4.186143726110458374e-02 -5.884467065334320068e-02
1.466011255979537964e-01 -2.314525395631790161e-01 -7.208474725484848022e-02
1.998547464609146118e-01 -2.699258029460906982e-01 5.597861483693122864e-02
-1.421159505844116211e-01 2.376925796270370483e-01 -6.814729422330856323e-02
1.618303060531616211e-01 2.505580782890319824e-01 5.764552578330039978e-02
-1.313691884279251099e-01 -2.664366960525512695e-01 -5.902169644832611084e-02
2.357743829488754272e-01 3.299076557159423828e-01 3.029311308637261391e-03
6.490311026573181152e-01 -8.510913699865341187e-02 4.392028227448463440e-02
-3.112682998180389404e-01 3.184297978878021240e-01 -1.473494153469800949e-02
-5.674133896827697754e-01 5.972747504711151123e-02 6.583238393068313599e-02
6.633367538452148438e-01 -1.971242725849151611e-01 1.054617762565612793e-02
-4.810897111892700195e-01 4.581634700298309326e-02 -7.015204429626464844e-02
-6.447494029998779297e-01 -6.365749984979629517e-02 -4.475523531436920166e-02
-4.659719765186309814e-01 4.083160310983657837e-02 -7.186317443847656250e-02
5.546011328697204590e-01 1.230414137244224548e-01 5.028910189867019653e-02
6.306622028350830078e-01 -1.299716085195541382e-01 -5.510303005576133728e-02
4.549521803855895996e-01 -2.680082023143768311e-01 3.085767291486263275e-02
-8.441945910453796387e-02 -9.931309521198272705e-02 -9.003030508756637573e-02
2.633306384086608887e-01 1.819272786378860474e-01 6.838788092136383057e-02
5.954824686050415039e-01 1.712126731872558594e-01 -4.771001636981964111e-02
-4.067891836166381836e-01 -1.083919778466224670e-01 7.708000391721725464e-02
-6.853192448616027832e-01 -1.392387151718139648e-01 2.836339920759201050e-02
-1.163021624088287354e-01 -4.825717210769653320e-02 -9.227296710014343262e-02
1.208112835884094238e-01 -7.724659144878387451e-02 -9.335768967866897583e-02
5.876927971839904785e-01 -1.799871027469635010e-01 3.893179073929786682e-02
-6.179218366742134094e-02 3.413444012403488159e-02 9.189143031835556030e-02
6.731114387512207031e-01 -1.527991443872451782e-01 2.673090621829032898e-02
1.204236894845962524e-01 1.433895528316497803e-01 8.076430857181549072e-02
-8.021923154592514038e-02 6.365746259689331055e-02 -9.289002418518066406e-02
5.828177928924560547e-01 -2.378205060958862305e-01 1.627121865749359131e-02
5.109834671020507812e-01 -1.778998821973800659e-01 5.146079137921333313e-02
-6.865735650062561035e-01 -1.106960400938987732e-01 3.735340386629104614e-02
-6.537162065505981445e-01 8.340723812580108643e-02 -4.250457137823104858e-02
2.671859264373779297e-01 -1.924649626016616821e-01 7.061792910099029541e-02
1.554863601922988892e-01 -3.339231014251708984e-01 -3.101980686187744141e-02
-5.233020782470703125e-01 -7.991086691617965698e-02 6.947883963584899902e-02
-3.659723699092864990e-01 -2.859885990619659424e-01 -2.847010269761085510e-02
-2.204383760690689087e-01 2.007703185081481934e-01 7.161316275596618652e-02
2.024949193000793457e-01 -1.060358732938766479e-01 -9.007113426923751831e-02
-5.612953901290893555e-01 -8.446569740772247314e-02 6.467347592115402222e-02
2.154392898082733154e-01 -3.420092165470123291e-01 1.328867301344871521e-02
-2.175854519009590149e-02 2.592052519321441650e-02 9.205841273069381714e-02
7.866573929786682129e-01 4.225448518991470337e-02 -7.821308448910713196e-03
-6.710430979728698730e-01 -1.303111761808395386e-01 3.664154186844825745e-02
-4.472159594297409058e-02 1.014647483825683594e-01 -9.124787151813507080e-02
6.505053043365478516e-01 -1.163082430139183998e-03 -6.207633018493652344e-02
1.499044708907604218e-02 -3.169365227222442627e-01 4.318119212985038757e-02
2.751191854476928711e-01 1.868544220924377441e-01 -7.689971476793289185e-02
-4.541805684566497803e-01 -1.456772983074188232e-01 6.851366162300109863e-02
-4.150382876396179199e-01 -1.814254522323608398e-01 -5.939335748553276062e-02
7.754433155059814453e-01 -3.030438162386417389e-02 -2.981237322092056274e-02
-1.706326305866241455e-01 -5.251795053482055664e-02 -9.027720987796783447e-02
-4.386188387870788574e-01 2.823798954486846924e-01 -1.941607519984245300e-02
-1.978790014982223511e-01 1.002304553985595703e-01 -8.687990158796310425e-02
1.751449108123779297e-01 -6.027185916900634766e-02 8.776334673166275024e-02
-4.973804354667663574e-01 -1.789907366037368774e-01 -4.958959296345710754e-02
-3.344336450099945068e-01 -3.062282502651214600e-01 -1.910884305834770203e-02
-1.376572158187627792e-02 1.338032633066177368e-01 8.440458774566650391e-02
5.002166628837585449e-01 -5.312104523181915283e-02 -7.851688563823699951e-02
3.888946175575256348e-01 1.305218040943145752e-01 6.763751059770584106e-02
-2.005462348461151123e-01 -7.045111805200576782e-02 8.933734148740768433e-02
-6.261716485023498535e-01 -4.474581032991409302e-02 5.870769172906875610e-02
-5.620090365409851074e-01 1.435107551515102386e-03 6.852052360773086548e-02
6.247134804725646973e-01 1.159117147326469421e-01 -5.577063187956809998e-02
1.296398192644119263e-01 2.293000183999538422e-02 -9.548561275005340576e-02
-2.905653119087219238e-01 -3.270594868808984756e-03 -8.586087822914123535e-02
2.118137627840042114e-01 -1.501408070325851440e-01 7.948516309261322021e-02
-1.545728594064712524e-01 -3.335143625736236572e-01 2.695112302899360657e-02
5.608642101287841797e-01 2.185890078544616699e-01 -3.563448414206504822e-02
3.139491081237792969e-01 3.036634027957916260e-01 1.924445293843746185e-02
-4.960273504257202148e-01 2.290511876344680786e-01 4.168381914496421814e-02
-6.338958740234375000e-01 -1.695777177810668945e-01 -2.368546277284622192e-02
1.124216765165328979e-01 -3.037488460540771484e-01 -4.961116611957550049e-02
7.138808369636535645e-01 -1.515601575374603271e-01 1.214297860860824585e-02
4.380265176296234131e-01 -2.845641374588012695e-01 -3.299370780587196350e-02
-1.355873048305511475e-01 2.279559522867202759e-01 -7.072383910417556763e-02
-9.633180499076843262e-02 2.339691966772079468e-01 -7.056415826082229614e-02
-3.394252657890319824e-01 -1.909024864435195923e-01 6.969059258699417114e-02
3.429937958717346191e-01 -1.199171394109725952e-01 -8.388223499059677124e-02
1.278875619173049927e-01 -3.452512919902801514e-01 -2.180115878582000732e-02
-1.200360208749771118e-01 2.280919104814529419e-01 -7.122433185577392578e-02
-1.542460173368453979e-01 4.489330202341079712e-02 -9.152627736330032349e-02
6.095153093338012695e-01 -2.334624063223600388e-03 5.347453802824020386e-02
-2.315732687711715698e-01 9.619045257568359375e-02 8.580271899700164795e-02
-2.815118432044982910e-01 2.844075262546539307e-01 4.321736842393875122e-02
-4.078138172626495361e-01 2.464010119438171387e-01 4.702600091695785522e-02
6.946619153022766113e-01 1.565736234188079834e-01 1.892130123451352119e-03
6.285292506217956543e-01 2.552979625761508942e-02 -6.474119424819946289e-02
6.803436577320098877e-02 -3.051550090312957764e-01 -4.939887672662734985e-02
-1.232663094997406006e-01 -3.299563825130462646e-01 3.222867846488952637e-02
6.899864077568054199e-01 1.054027155041694641e-01 -4.385701566934585571e-02
-6.228304505348205566e-01 -1.273923814296722412e-01 -3.931055590510368347e-02
-8.820845186710357666e-02 3.412292301654815674e-01 1.554837636649608612e-02
3.649243414402008057e-01 1.969474256038665771e-01 5.759484693408012390e-02
-6.845203638076782227e-01 1.301489584147930145e-02 4.953199252486228943e-02
-1.539799422025680542e-01 -1.463902294635772705e-01 8.406662940979003906e-02
6.188626289367675781e-01 1.515480577945709229e-01 -4.877474904060363770e-02
2.649057805538177490e-01 1.630586534738540649e-01 7.159084081649780273e-02
6.677767634391784668e-01 -1.734611205756664276e-02 -5.919358134269714355e-02
-5.257858633995056152e-01 -9.211825579404830933e-02 -6.060421094298362732e-02
1.724008768796920776e-01 -2.586904764175415039e-01 -6.447153538465499878e-02
-7.906962186098098755e-02 3.479480743408203125e-01 -6.209541112184524536e-03
-5.698464512825012207e-01 8.135764300823211670e-02 -5.718374997377395630e-02
-5.614444985985755920e-02 2.320604324340820312e-01 -7.196421176195144653e-02
-7.668735384941101074e-01 4.346410930156707764e-02 1.938622258603572845e-02
-4.301463663578033447e-01 9.014002233743667603e-02 7.643887400627136230e-02
2.662810683250427246e-01 5.983012914657592773e-02 8.262643963098526001e-02
7.404211163520812988e-01 -1.254227310419082642e-01 -2.562135830521583557e-02
-3.458398878574371338e-01 2.571418508887290955e-02 8.519375324249267578e-02
1.608347743749618530e-01 -3.479141592979431152e-01 -1.526793744415044785e-02
-5.992675423622131348e-01 -7.818943262100219727e-02 -5.143122002482414246e-02
5.745692551136016846e-02 -5.142154544591903687e-02 -9.484081715345382690e-02
-1.758964210748672485e-01 -1.207773201167583466e-02 -9.125339984893798828e-02
-2.932840883731842041e-01 7.070238888263702393e-02 -8.401652425527572632e-02
2.810746431350708008e-01 -9.567662328481674194e-02 -8.870258927345275879e-02
-3.585361540317535400e-01 2.030271142721176147e-01 6.416096538305282593e-02
9.505209326744079590e-02 2.500623464584350586e-01 6.045943126082420349e-02
6.003034114837646484e-01 7.880749553442001343e-02 4.967039451003074646e-02
7.445367425680160522e-02 2.117371112108230591e-01 7.050104439258575439e-02
-7.366071343421936035e-01 -1.100808195769786835e-02 -2.522670291364192963e-02
-1.143769249320030212e-01 4.978600144386291504e-02 9.101329743862152100e-02
-3.688979446887969971e-01 -1.752805113792419434e-01 -6.518833339214324951e-02
-5.464297533035278320e-01 -1.761142313480377197e-01 5.105912312865257263e-02
1.519574522972106934e-01 3.021158874034881592e-01 -4.731995612382888794e-02
-2.478425502777099609e-01 2.036334723234176636e-01 7.002086192369461060e-02
2.133329659700393677e-01 2.601579427719116211e-01 5.170467495918273926e-02
1.208268776535987854e-01 2.432319223880767822e-01 6.148112192749977112e-02
2.807063460350036621e-01 2.855402529239654541e-01 3.566331043839454651e-02
5.286296010017395020e-01 4.500887542963027954e-02 6.230271980166435242e-02
2.163031995296478271e-01 -1.024986431002616882e-01 8.384776860475540161e-02
5.240643620491027832e-01 7.511643320322036743e-02 6.049384921789169312e-02
7.600443363189697266e-01 5.886310338973999023e-02 1.184482779353857040e-02
3.529002517461776733e-02 2.263865321874618530e-01 -7.419020682573318481e-02
2.343218773603439331e-01 3.133022785186767578e-01 -3.458559885621070862e-02
-5.785700678825378418e-01 -1.533811986446380615e-01 -4.228916764259338379e-02
2.228140085935592651e-02 -7.805809378623962402e-02 -9.329200536012649536e-02
1.450506038963794708e-03 -3.397903144359588623e-01 2.869130298495292664e-02
2.158618271350860596e-01 3.294928073883056641e-01 -2.031545527279376984e-02
7.011982798576354980e-01 1.407391130924224854e-01 -2.745138108730316162e-02
-1.458366494625806808e-02 1.159596815705299377e-01 8.635460585355758667e-02
-1.557710468769073486e-01 -2.871726155281066895e-01 5.295074358582496643e-02
3.748671114444732666e-01 1.399621367454528809e-01 6.745044142007827759e-02
4.411575496196746826e-01 -2.331496626138687134e-01 -5.562975630164146423e-02
7.019301056861877441e-01 2.532677724957466125e-02 3.525126352906227112e-02
4.314844310283660889e-01 2.339692413806915283e-01 -5.263590812683105469e-02
5.097635984420776367e-01 1.709148734807968140e-01 4.700757190585136414e-02
-4.663307666778564453e-01 1.645854264497756958e-01 -5.945702642202377319e-02
-5.010584592819213867e-01 -1.121519058942794800e-01 -6.129812076687812805e-02
4.310275912284851074e-01 -2.107337862253189087e-01 -6.292153894901275635e-02
-1.048638895153999329e-01 2.689566314220428467e-01 5.664060637354850769e-02
-6.269990205764770508e-01 2.084075212478637695e-01 1.525463536381721497e-02
2.102417647838592529e-01 3.499177098274230957e-02 -9.391590952873229980e-02
2.019103989005088806e-02 -1.554765254259109497e-01 -8.587314933538436890e-02
-4.543804526329040527e-01 -2.338565140962600708e-01 4.674381762742996216e-02
5.293334722518920898e-01 1.553235501050949097e-01 -6.235915794968605042e-02
-1.991307884454727173e-01 7.708210498094558716e-02 8.811490982770919800e-02
-2.341360598802566528e-01 -1.808234006166458130e-01 7.695238292217254639e-02
-5.590330958366394043e-01 -6.501603871583938599e-02 -5.877137929201126099e-02
4.436835646629333496e-02 -2.578250169754028320e-01 -6.593285501003265381e-02
5.539875030517578125e-01 4.577129334211349487e-02 -7.313116639852523804e-02
4.758921265602111816e-01 1.306798160076141357e-01 5.912264436483383179e-02
-1.757588535547256470e-01 3.417349755764007568e-01 -4.013660363852977753e-03
-1.482104957103729248e-01 8.809768408536911011e-02 8.828809857368469238e-02
1.167086809873580933e-01 2.536301910877227783e-01 5.866412445902824402e-02
3.036857396364212036e-02 2.362108677625656128e-01 6.575164198875427246e-02
-5.477907657623291016e-01 -1.719043999910354614e-01 -4.325090721249580383e-02
5.100232958793640137e-01 9.252832829952239990e-02 -7.396402955055236816e-02
6.363698244094848633e-01 1.947717815637588501e-01 -2.290871366858482361e-02
6.753221750259399414e-01 -1.921806782484054565e-01 7.471895776689052582e-03
2.730257809162139893e-01 2.026394903659820557e-01 -7.386308908462524414e-02
3.683173060417175293e-01 1.646830439567565918e-01 -7.564783096313476562e-02
-4.628729447722434998e-02 2.554472982883453369e-01 -6.613250076770782471e-02
-6.042538210749626160e-02 3.340955078601837158e-02 -9.434086829423904419e-02
-1.606003791093826294e-01 3.214449882507324219e-01 -3.382448479533195496e-02
2.930244505405426025e-01 -1.211533993482589722e-01 -8.594491332769393921e-02
6.263289451599121094e-01 1.275597065687179565e-01 3.703156486153602600e-02
-5.875321626663208008e-01 -1.772722601890563965e-01 -3.355909138917922974e-02
1.003752350807189941e-01 3.399946391582489014e-01 1.254608295857906342e-02
-3.133580088615417480e-01 -1.493403464555740356e-01 7.804939150810241699e-02
-3.402231931686401367e-01 -8.309649676084518433e-02 -7.933482527732849121e-02
2.330374270677566528e-01 9.893503040075302124e-02 -8.986193686723709106e-02
-3.255945071578025818e-02 -1.824217848479747772e-02 9.255886822938919067e-02
-6.541873812675476074e-01 -7.772202789783477783e-02 -4.116561636328697205e-02
5.869005918502807617e-01 -1.054374352097511292e-01 -6.519149988889694214e-02
2.465204298496246338e-01 6.934680789709091187e-02 8.302419632673263550e-02
-2.203620821237564087e-01 -2.089790254831314087e-01 7.232937216758728027e-02
2.016331702470779419e-01 3.342594504356384277e-01 -1.452172920107841492e-02
2.340624779462814331e-01 -5.024135112762451172e-02 -9.281927347183227539e-02
4.943872615694999695e-02 -1.697106659412384033e-01 8.164483308792114258e-02
8.165738731622695923e-02 1.452355384826660156e-01 -8.773477375507354736e-02
-7.260465025901794434e-01 -8.269641548395156860e-03 3.924037516117095947e-02
2.386788874864578247e-01 1.110612973570823669e-01 -8.862435817718505859e-02
9.930515289306640625e-02 -3.256591856479644775e-01 3.673524037003517151e-02
-5.421088337898254395e-01 5.488015711307525635e-02 6.904531270265579224e-02
2.667140960693359375e-01 9.911882877349853516e-02 7.959585636854171753e-02
5.298336744308471680e-01 -7.233465462923049927e-02 6.232889369130134583e-02
6.244392395019531250e-01 -4.119887948036193848e-03 -6.598064303398132324e-02
2.126447260379791260e-01 3.345097005367279053e-01 -7.862975820899009705e-03
-2.865855097770690918e-01 -3.246257007122039795e-01 -8.575910702347755432e-03
2.321294844150543213e-01 1.457469463348388672e-01 -8.497438579797744751e-02
1.364439278841018677e-01 3.423244953155517578e-01 1.089444616809487343e-03
-3.897761702537536621e-01 3.087255544960498810e-02 -7.888850569725036621e-02
-5.536865592002868652e-01 -1.950531303882598877e-01 4.396962374448776245e-02
1.634718030691146851e-01 -1.637430340051651001e-01 -8.426938205957412720e-02
-7.275792956352233887e-01 -5.840900540351867676e-02 3.462908044457435608e-02
-5.381666868925094604e-02 -4.870349913835525513e-02 9.203211963176727295e-02
3.878681659698486328e-01 -2.359568923711776733e-01 5.176798999309539795e-02
-3.147324323654174805e-01 1.284058541059494019e-01 7.934737950563430786e-02
-4.910213053226470947e-01 -1.054960936307907104e-01 7.030062377452850342e-02
-2.448059320449829102e-01 3.214203119277954102e-01 -2.492406964302062988e-02
-2.822831869125366211e-01 7.197016477584838867e-02 8.590151369571685791e-02
1.306822337210178375e-02 -2.121291607618331909e-01 7.518446445465087891e-02
-1.948402523994445801e-01 -1.642685830593109131e-01 8.077880740165710449e-02
5.306131839752197266e-01 2.533991932868957520e-01 -2.555112354457378387e-03
-2.325940877199172974e-01 -1.756936013698577881e-01 -7.496935874223709106e-02
-3.129155635833740234e-01 -3.197710961103439331e-03 -8.451379090547561646e-02
2.468277662992477417e-01 -3.056454360485076904e-01 3.868493437767028809e-02
4.849737584590911865e-01 1.574548035860061646e-01 5.328746140003204346e-02
-2.477384507656097412e-01 -2.030589878559112549e-01 7.237047702074050903e-02
5.359954833984375000e-01 2.431814372539520264e-01 1.006547361612319946e-02
-2.413703501224517822e-02 2.922027409076690674e-01 -5.410682037472724915e-02
3.242317736148834229e-01 -3.056267797946929932e-01 -3.652466833591461182e-02
5.314477086067199707e-01 1.463086605072021484e-01 4.933233186602592468e-02
7.709140181541442871e-01 -7.505462318658828735e-02 -2.557908929884433746e-02
-2.606627345085144043e-01 -3.014736808836460114e-02 -8.702681958675384521e-02
-3.587135672569274902e-01 -9.105997532606124878e-02 8.168560266494750977e-02
-5.989300608634948730e-01 2.287574857473373413e-01 -5.875617498531937599e-04
-3.177364170551300049e-01 -3.201920688152313232e-01 -3.132796380668878555e-03
2.205650210380554199e-01 -1.412798613309860229e-01 8.011907339096069336e-02
4.928621649742126465e-01 -4.026418924331665039e-02 -7.966776937246322632e-02
2.328068017959594727e-01 -2.906041443347930908e-01 -5.123586580157279968e-02
1.000854745507240295e-01 3.355523943901062012e-02 9.007593989372253418e-02
3.862558901309967041e-01 2.918914854526519775e-01 1.354183536022901535e-02
-5.156417489051818848e-01 4.132549464702606201e-02 -6.651349365711212158e-02
-3.773503601551055908e-01 -7.870626449584960938e-02 8.147200942039489746e-02
2.229827791452407837e-01 9.903018921613693237e-02 8.178770542144775391e-02
5.539849996566772461e-01 2.369365245103836060e-01 -2.402623184025287628e-02
2.506646513938903809e-01 1.506623923778533936e-01 -8.369252085685729980e-02
-5.573894977569580078e-01 8.497691154479980469e-02 6.492594629526138306e-02
-3.033700585365295410e-01 2.256701886653900146e-01 6.213498488068580627e-02
5.719015002250671387e-01 2.175367772579193115e-01 1.694868691265583038e-02
-2.259328365325927734e-01 -3.034948408603668213e-01 -3.743758052587509155e-02
-1.577327996492385864e-01 2.831217944622039795e-01 5.034945532679557800e-02
-5.041631460189819336e-01 2.568771243095397949e-01 -2.108887955546379089e-02
-3.720783293247222900e-01 -9.162884205579757690e-03 8.418434858322143555e-02
-2.210534960031509399e-01 -2.858755290508270264e-01 -4.634224250912666321e-02
-4.765216708183288574e-01 1.010224297642707825e-01 7.163691520690917969e-02
2.719910740852355957e-01 3.164236843585968018e-01 -2.641881629824638367e-02
-6.155316829681396484e-01 -5.529430508613586426e-02 5.966687574982643127e-02
2.009470313787460327e-01 1.292170286178588867e-01 -8.782733976840972900e-02
-1.721900254487991333e-01 -3.390429317951202393e-01 -1.531778555363416672e-02
3.542136549949645996e-01 1.851952522993087769e-01 -7.279478013515472412e-02
9.928020089864730835e-02 -3.545013666152954102e-01 -7.510424591600894928e-03
-4.023245573043823242e-01 1.789516806602478027e-01 6.608482450246810913e-02
-1.158014964312314987e-02 8.504971116781234741e-02 8.902760595083236694e-02
3.498663008213043213e-02 -1.017420738935470581e-01 -9.167665988206863403e-02
-3.985456824302673340e-01 1.419905275106430054e-01 7.267201691865921021e-02
5.772445797920227051e-01 2.011708319187164307e-01 2.435852587223052979e-02
5.245365574955940247e-02 -2.407908253371715546e-02 9.171161055564880371e-02
-4.152472019195556641e-01 2.208543866872787476e-01 -5.249380692839622498e-02
-4.781823456287384033e-01 -1.914418786764144897e-01 5.678475275635719299e-02
-2.953934967517852783e-01 3.921614494174718857e-03 8.785219490528106689e-02
1.994143240153789520e-02 3.333994150161743164e-01 -3.117370419204235077e-02
5.083573460578918457e-01 2.318111956119537354e-01 2.618960477411746979e-02
-9.836958348751068115e-02 -2.697627842426300049e-01 -5.935781821608543396e-02
-3.858819901943206787e-01 -1.608494520187377930e-01 -6.623511761426925659e-02
-1.706483066082000732e-01 2.046179398894309998e-02 9.122570604085922241e-02
-2.478802800178527832e-01 3.253687322139739990e-01 1.840027980506420135e-02
-3.815865814685821533e-01 2.933797538280487061e-01 2.540739998221397400e-02
-4.736176431179046631e-01 1.255704313516616821e-01 6.893867254257202148e-02
-4.260441064834594727e-01 2.778959572315216064e-01 -2.637356892228126526e-02
-4.011685252189636230e-01 -1.647785604000091553e-01 -6.408581882715225220e-02
4.464002251625061035e-01 -2.194524928927421570e-02 -8.370186388492584229e-02
4.528087675571441650e-01 -1.112275384366512299e-02 7.184884697198867798e-02
-1.219413429498672485e-01 3.064170777797698975e-01 -4.496995359659194946e-02
6.368031501770019531e-01 -1.448031514883041382e-01 -5.106016993522644043e-02
-4.439156651496887207e-01 -2.510696649551391602e-01 4.104578867554664612e-02
-7.270944118499755859e-02 -1.875413507223129272e-01 7.948394864797592163e-02
2.892475202679634094e-02 1.641447283327579498e-02 9.183632582426071167e-02
-1.027512028813362122e-01 -1.745897382497787476e-01 8.117327839136123657e-02
6.313614547252655029e-02 1.646334677934646606e-02 9.131410717964172363e-02
-5.936359167098999023e-01 3.515038639307022095e-02 6.388130784034729004e-02
5.258051156997680664e-01 -2.545076608657836914e-01 -3.337099030613899231e-02
-2.423974871635437012e-01 1.969260349869728088e-02 8.949634432792663574e-02
-4.529387950897216797e-01 2.448529750108718872e-01 -3.903361037373542786e-02
4.902873635292053223e-01 -1.119407918304204941e-02 -8.047309517860412598e-02
2.849256396293640137e-01 -2.585120797157287598e-01 -6.010131537914276123e-02
7.262017130851745605e-01 9.557820111513137817e-02 1.717082224786281586e-02
2.125281244516372681e-01 -3.140754103660583496e-01 -4.101002588868141174e-02
5.435069799423217773e-01 -2.358147054910659790e-01 2.853805944323539734e-02
-3.750355541706085205e-01 -2.680749297142028809e-01 4.333044216036796570e-02
1.538656800985336304e-01 3.343589305877685547e-01 1.378560066223144531e-02
-2.216410338878631592e-01 5.563798546791076660e-02 8.881315588951110840e-02
-6.169972419738769531e-01 1.531457901000976562e-01 4.466074705123901367e-02
2.042446434497833252e-01 7.459068298339843750e-02 8.457796275615692139e-02
4.991491511464118958e-02 -2.615761458873748779e-01 6.335796415805816650e-02
2.241784781217575073e-01 -3.323265910148620605e-01 -2.728066034615039825e-02
7.413504123687744141e-01 1.093995049595832825e-01 -2.066752128303050995e-02
6.948347091674804688e-01 -1.150172874331474304e-01 -4.470232874155044556e-02
-6.639803647994995117e-01 4.053791612386703491e-02 5.255693197250366211e-02
6.910522580146789551e-01 7.548166066408157349e-02 3.235034644603729248e-02
-3.674534559249877930e-01 -2.369873523712158203e-01 5.602129548788070679e-02
-2.076422572135925293e-01 -2.518752217292785645e-01 6.247673556208610535e-02
-2.954631149768829346e-01 -3.116185069084167480e-01 2.785728313028812408e-02
6.973925232887268066e-02 -2.184312194585800171e-01 -7.554623484611511230e-02
6.919041872024536133e-01 1.864094659686088562e-02 -5.420447140932083130e-02
-2.209556549787521362e-01 2.399716675281524658e-01 6.230686977505683899e-02
-1.456622481346130371e-01 -8.210383355617523193e-02 8.981757611036300659e-02
-1.531874835491180420e-01 1.043938025832176208e-01 8.684840053319931030e-02
-2.428230345249176025e-01 -2.937106192111968994e-01 -4.082540050148963928e-02
4.161418676376342773e-01 -3.045035600662231445e-01 1.240529771894216537e-02
4.486059546470642090e-01 -2.474717646837234497e-01 -4.982858896255493164e-02
-8.036752790212631226e-02 -1.889620423316955566e-01 -7.902590185403823853e-02
2.979729473590850830e-01 7.555826008319854736e-02 7.981842756271362305e-02
2.761177122592926025e-01 -4.332513362169265747e-02 8.390162885189056396e-02
-7.157298326492309570e-01 -1.344499289989471436e-01 4.784488119184970856e-03
-4.727083742618560791e-01 2.751096785068511963e-01 -1.507387589663267136e-02
-6.322301626205444336e-01 1.391287893056869507e-01 4.501688480377197266e-02
5.501481890678405762e-01 -1.995507180690765381e-01 4.036121442914009094e-02
1.484189480543136597e-01 -2.201910689473152161e-02 -9.525589644908905029e-02
5.777968168258666992e-01 -9.891314804553985596e-02 -6.708116084337234497e-02
-3.864704668521881104e-01 1.654598116874694824e-02 8.316490799188613892e-02
4.112467542290687561e-02 -1.110713183879852295e-01 -9.091096371412277222e-02
3.720011711120605469e-01 -2.432039231061935425e-01 -5.896338075399398804e-02
4.215872287750244141e-01 2.909837961196899414e-01 -1.463619759306311607e-03
9.212957322597503662e-02 -1.142845451831817627e-01 8.688657730817794800e-02
-6.839626431465148926e-01 1.695710569620132446e-01 -6.360988132655620575e-03
-1.497850418090820312e-01 -2.162722945213317871e-01 -7.134371250867843628e-02
7.456288337707519531e-01 -2.225573733448982239e-02 -4.157982394099235535e-02
4.114803075790405273e-01 -7.932069152593612671e-02 -8.357457816600799561e-02
3.071331679821014404e-01 -2.774753868579864502e-01 4.583319649100303650e-02
-1.596736162900924683e-01 3.067174553871154785e-01 -4.281087592244148254e-02
-6.232494115829467773e-01 -7.832467555999755859e-02 5.639496445655822754e-02
-8.362684398889541626e-02 1.608849018812179565e-01 -8.421535044908523560e-02
5.049513578414916992e-01 -1.098177284002304077e-01 6.220405176281929016e-02
1.387910991907119751e-01 1.696849316358566284e-01 -8.386500924825668335e-02
5.095290541648864746e-01 -7.113771140575408936e-02 -7.666967064142227173e-02
-5.231394767761230469e-01 2.493607699871063232e-01 2.476025559008121490e-02
-2.235817313194274902e-01 -3.068616390228271484e-01 3.978836163878440857e-02
-6.112892627716064453e-01 8.533596992492675781e-02 -5.031525716185569763e-02
-3.132019937038421631e-01 2.540759742259979248e-01 -5.288669839501380920e-02
1.300104856491088867e-01 7.384710013866424561e-02 -9.362190216779708862e-02
-6.285740733146667480e-01 -1.811260282993316650e-01 -2.005187422037124634e-02
-3.722553551197052002e-01 2.053447365760803223e-01 -6.096417829394340515e-02
-6.582877635955810547e-01 1.414248347282409668e-01 3.838345780968666077e-02
-4.547320306301116943e-01 -1.768404841423034668e-01 6.281580775976181030e-02
5.934938192367553711e-01 4.825264215469360352e-02 5.359100550413131714e-02
-2.147975191473960876e-02 1.982964426279067993e-01 7.466496527194976807e-02
2.155836373567581177e-01 -2.284656614065170288e-01 -7.118211686611175537e-02
-3.746818304061889648e-01 -1.962585747241973877e-01 6.601133942604064941e-02
4.139657318592071533e-01 -2.702038884162902832e-01 3.647322952747344971e-02
-1.712378263473510742e-01 1.730360463261604309e-02 -9.148332476615905762e-02
7.535824775695800781e-01 -7.865969836711883545e-02 -3.336005657911300659e-02
-1.544820424169301987e-02 -7.787814736366271973e-02 9.074891358613967896e-02
-2.810572385787963867e-01 -3.252181708812713623e-01 1.481460593640804291e-02
-8.553832769393920898e-02 2.279561907052993774e-01 -7.225288450717926025e-02
2.302565574645996094e-01 -3.231509327888488770e-01 -3.409015759825706482e-02
1.561266481876373291e-01 -2.250863164663314819e-01 -7.337735593318939209e-02
8.414854854345321655e-02 2.060688436031341553e-01 7.143650949001312256e-02
3.786062896251678467e-01 -1.821887195110321045e-01 6.462729722261428833e-02
2.350569367408752441e-01 2.768671810626983643e-01 4.389274492859840393e-02
-3.673407435417175293e-01 -9.157100319862365723e-02 8.114264160394668579e-02
2.960247993469238281e-01 1.355683207511901855e-01 -8.383212238550186157e-02
6.425151228904724121e-01 7.637178897857666016e-02 4.269599169492721558e-02
-4.296874105930328369e-01 -5.001263320446014404e-02 7.956951111555099487e-02
-1.257478296756744385e-01 -2.117725163698196411e-01 -7.326059043407440186e-02
-7.768888026475906372e-02 -3.058677613735198975e-01 -4.634332656860351562e-02
5.017518401145935059e-01 -1.105144470930099487e-01 -7.393100112676620483e-02
3.159750699996948242e-01 -1.158430278301239014e-01 -8.554325997829437256e-02
-7.800927013158798218e-02 1.714835911989212036e-01 -8.284771442413330078e-02
6.189610362052917480e-01 -1.645338386297225952e-01 -4.975470155477523804e-02
1.794447749853134155e-01 -1.001755595207214355e-01 -9.100674092769622803e-02
-6.991497278213500977e-01 -1.386000216007232666e-01 -1.050072442740201950e-02
1.898413747549057007e-01 -1.014220528304576874e-03 -9.481187909841537476e-02
-6.600937247276306152e-02 1.699071377515792847e-01 7.965078949928283691e-02
-3.810163438320159912e-01 -2.823905050754547119e-01 3.464023396372795105e-02
3.006511032581329346e-01 -3.342524468898773193e-01 -9.067112579941749573e-03
-4.318823814392089844e-01 -6.478663533926010132e-02 7.867173105478286743e-02
5.471709966659545898e-01 2.466386258602142334e-01 -1.237280108034610748e-02
-4.145767092704772949e-01 -6.062003970146179199e-02 -7.503207027912139893e-02
-3.412205874919891357e-01 -1.052988395094871521e-01 8.147618174552917480e-02
-2.041364461183547974e-01 -9.997817873954772949e-02 8.738265186548233032e-02
3.144237399101257324e-02 -5.857279151678085327e-02 9.120378643274307251e-02
2.337335497140884399e-01 -1.910589784383773804e-01 -7.829068601131439209e-02
-9.171413630247116089e-02 -2.290848791599273682e-01 -7.066551595926284790e-02
6.520313024520874023e-01 -7.907789200544357300e-02 -5.846747010946273804e-02
4.901318848133087158e-01 1.974506974220275879e-01 4.274550825357437134e-02
7.004110515117645264e-02 5.730456113815307617e-02 8.969454467296600342e-02
4.704500436782836914e-01 -3.109281882643699646e-02 -8.174090832471847534e-02
-9.866134822368621826e-02 1.388227343559265137e-01 -8.657632023096084595e-02
4.488792717456817627e-01 5.276224017143249512e-02 7.011964172124862671e-02
2.040336430072784424e-01 2.422291599214076996e-02 8.705250918865203857e-02
3.007317781448364258e-01 8.577333390712738037e-02 7.884601503610610962e-02
-1.341518610715866089e-01 -1.383356451988220215e-01 8.533325791358947754e-02
-5.952637791633605957e-01 6.869068741798400879e-02 6.155878677964210510e-02
3.945432603359222412e-01 8.876308053731918335e-02 7.200340181589126587e-02
1.195922493934631348e-01 -3.003016114234924316e-01 4.855011403560638428e-02
-3.884731829166412354e-01 -5.493155121803283691e-02 -7.755468785762786865e-02
4.029935002326965332e-01 -2.106797248125076294e-01 5.671578273177146912e-02
4.641682207584381104e-01 -3.369212523102760315e-02 7.064165174961090088e-02
-7.087459564208984375e-01 -1.329583227634429932e-01 -7.581169717013835907e-03
3.618998825550079346e-01 -3.099596872925758362e-02 -8.858905732631683350e-02
5.534716248512268066e-01 -9.247430413961410522e-02 5.798371136188507080e-02
1.673131436109542847e-01 -3.503891825675964355e-01 -8.339935913681983948e-03
-7.252622842788696289e-01 5.367150902748107910e-02 -2.714798413217067719e-02
-2.269259393215179443e-01 1.881308853626251221e-01 -7.472342252731323242e-02
1.395040936768054962e-02 3.444590866565704346e-01 1.189875788986682892e-02
5.366960167884826660e-01 -1.585603356361389160e-01 5.168412998318672180e-02
5.352975130081176758e-01 -3.194524347782135010e-02 6.322691589593887329e-02
2.219960838556289673e-02 2.061137259006500244e-01 7.268392294645309448e-02
-5.905610918998718262e-01 -1.231752485036849976e-01 5.545085668563842773e-02
-4.516014754772186279e-01 1.342756152153015137e-01 -6.582935899496078491e-02
-7.184607982635498047e-01 -4.454256594181060791e-02 -2.867227233946323395e-02
-6.603009104728698730e-01 8.461326360702514648e-03 -4.533569887280464172e-02
-4.319311976432800293e-01 2.888744473457336426e-01 -1.448976900428533554e-02
-3.206755816936492920e-01 -3.136355876922607422e-01 2.034771814942359924e-02
4.075501561164855957e-01 -1.161427795886993408e-01 -8.062873780727386475e-02
-4.089414477348327637e-01 -5.203787237405776978e-02 8.092363178730010986e-02
-7.165691256523132324e-01 1.055542156100273132e-01 3.018520586192607880e-02
2.738150060176849365e-01 2.066400796175003052e-01 6.259449571371078491e-02
-1.129891052842140198e-01 1.483938843011856079e-01 -8.506653457880020142e-02
4.158917665481567383e-01 6.489549577236175537e-02 -8.381024748086929321e-02
2.710812389850616455e-01 2.798220217227935791e-01 3.941157087683677673e-02
2.960550785064697266e-01 -1.165470257401466370e-01 7.873768359422683716e-02
3.298110663890838623e-01 -1.893260180950164795e-01 -7.460857182741165161e-02
7.682343721389770508e-01 6.830634176731109619e-02 -2.147529460489749908e-02
-1.359333097934722900e-01 -4.652269184589385986e-02 -9.174333512783050537e-02
-3.675124943256378174e-01 -1.042011752724647522e-02 -8.071057498455047607e-02
5.069112777709960938e-01 1.631982326507568359e-01 4.919944703578948975e-02
1.024252548813819885e-02 2.760973274707794189e-01 5.420832708477973938e-02
-4.081735312938690186e-01 -1.162320747971534729e-01 7.616305351257324219e-02
1.007654145359992981e-01 -3.404842317104339600e-02 9.063442796468734741e-02
4.610572457313537598e-01 -1.874880641698837280e-01 5.561046674847602844e-02
-1.644141972064971924e-01 -7.377345114946365356e-02 -8.937345445156097412e-02
-3.931343182921409607e-02 1.347069889307022095e-01 -8.825509250164031982e-02
5.967411994934082031e-01 -1.618708670139312744e-01 -5.427992343902587891e-02
2.000079602003097534e-01 9.202244877815246582e-02 8.340971916913986206e-02
6.434445381164550781e-01 -7.857768982648849487e-02 4.553398862481117249e-02
5.813739448785781860e-02 3.029302656650543213e-01 -4.954130575060844421e-02
3.418790996074676514e-01 2.886917293071746826e-01 2.564190886914730072e-02
5.361831784248352051e-01 -1.978285163640975952e-01 -5.436453595757484436e-02
9.252632409334182739e-02 2.808980047702789307e-01 5.041901394724845886e-02
5.321037769317626953e-01 -8.275379985570907593e-02 6.138264015316963196e-02
1.146096363663673401e-01 2.167559415102005005e-01 6.825152039527893066e-02
3.540143966674804688e-01 -1.500613093376159668e-01 7.136648893356323242e-02
-2.565360367298126221e-01 3.211432993412017822e-01 -2.337488904595375061e-02
-1.701743751764297485e-01 -1.120245158672332764e-01 8.721865713596343994e-02
-6.092633008956909180e-01 3.809870779514312744e-02 6.160708889365196228e-02
-6.592019200325012207e-01 1.787916272878646851e-01 2.246554195880889893e-02
3.523740470409393311e-01 1.342114657163619995e-01 -8.115686476230621338e-02
2.191848456859588623e-01 3.333909213542938232e-01 -1.042580814100801945e-03
1.692128181457519531e-02 -2.573308646678924561e-01 6.489841639995574951e-02
1.174311712384223938e-01 8.951901644468307495e-02 -9.275197237730026245e-02
-5.157902240753173828e-01 -4.860158264636993408e-02 7.230959832668304443e-02
3.091822862625122070e-01 8.815898746252059937e-02 -8.797242492437362671e-02
-5.144661068916320801e-01 -8.402054011821746826e-02 7.005383074283599854e-02
2.271310836076736450e-01 8.731640875339508057e-02 -9.092296659946441650e-02
-1.314592808485031128e-01 -2.553178966045379639e-01 -6.238575279712677002e-02
1.009459272027015686e-01 2.578040361404418945e-01 -6.563819199800491333e-02
-3.129839003086090088e-01 2.870144248008728027e-01 3.911974281072616577e-02
-2.992762029170989990e-01 9.900011122226715088e-02 8.312637358903884888e-02
-6.119390726089477539e-01 -5.989913642406463623e-02 -5.110617354512214661e-02
4.644126892089843750e-01 2.666731774806976318e-01 -2.898220531642436981e-02
-4.710779190063476562e-01 2.576700039207935333e-02 7.701088488101959229e-02
8.658833801746368408e-02 -3.279090821743011475e-01 -3.734301030635833740e-02
3.909644186496734619e-01 3.989010304212570190e-02 7.570629566907882690e-02
-2.798903882503509521e-01 2.027769945561885834e-02 8.821222931146621704e-02
4.380486011505126953e-01 -2.907017171382904053e-01 1.991873420774936676e-02
-2.498171925544738770e-01 1.454587280750274658e-01 -7.987175881862640381e-02
2.045263797044754028e-01 -2.026970311999320984e-02 -9.435154497623443604e-02
-5.771071910858154297e-01 1.915409713983535767e-01 4.104332253336906433e-02
-1.555564403533935547e-01 -3.460086882114410400e-01 8.182564750313758850e-03
-1.060772538185119629e-01 -3.999019414186477661e-02 -9.286804497241973877e-02
2.127488106489181519e-01 4.499488323926925659e-02 -9.354317188262939453e-02
6.352156400680541992e-01 1.319314390420913696e-01 -5.044440552592277527e-02
3.986490070819854736e-01 -2.460299432277679443e-01 4.757114499807357788e-02
-2.568114101886749268e-01 2.119928002357482910e-01 -6.838091462850570679e-02
3.202486038208007812e-01 -1.715188771486282349e-01 -7.818274945020675659e-02
-2.664541006088256836e-01 -1.113094910979270935e-01 8.441276103258132935e-02
2.239536028355360031e-03 -2.714339829981327057e-02 -9.526379406452178955e-02
-5.006465911865234375e-01 1.702353358268737793e-01 -5.405140295624732971e-02
-2.255010604858398438e-01 -7.072971761226654053e-02 -8.696334064006805420e-02
-3.121861815452575684e-01 -3.124152123928070068e-01 -1.812566071748733521e-02
7.059860229492187500e-02 3.234951794147491455e-01 -3.782003000378608704e-02
-3.014829456806182861e-01 -3.226846456527709961e-01 -6.097007542848587036e-03
7.101598978042602539e-01 -5.668517947196960449e-02 -4.906062036752700806e-02
4.668751955032348633e-01 -2.628275156021118164e-01 3.128390759229660034e-02
6.673791408538818359e-01 7.343997806310653687e-02 3.809713944792747498e-02
-4.064374268054962158e-01 -8.128385245800018311e-02 7.941838353872299194e-02
6.334721446037292480e-01 -2.169646918773651123e-01 1.043790951371192932e-02
3.967003524303436279e-01 6.791500002145767212e-02 -8.483984321355819702e-02
6.735249757766723633e-01 -1.440191417932510376e-01 2.899965830147266388e-02
-7.599142193794250488e-01 -7.343893498182296753e-02 3.897506045177578926e-03
-1.726078242063522339e-02 8.030975610017776489e-02 -9.310201555490493774e-02
5.093970894813537598e-01 7.156620919704437256e-02 -7.592484354972839355e-02
-3.226319551467895508e-01 2.105165868997573853e-01 6.475833058357238770e-02
5.375030636787414551e-01 -8.629556000232696533e-02 -7.282202690839767456e-02
6.732406020164489746e-01 -6.695915013551712036e-02 -5.584000796079635620e-02
3.307457864284515381e-01 2.302992939949035645e-01 -6.360685080289840698e-02
-4.659726023674011230e-01 1.032556965947151184e-01 -6.789943575859069824e-02
5.250910520553588867e-01 -1.439056545495986938e-01 5.560982972383499146e-02
4.081124663352966309e-01 1.332060694694519043e-01 -7.770964503288269043e-02
-9.407769143581390381e-02 4.598273895680904388e-03 -9.392651170492172241e-02
-9.044408053159713745e-02 -9.812016785144805908e-02 8.942210674285888672e-02
3.823032379150390625e-01 1.547548323869705200e-01 6.447512656450271606e-02
3.642376363277435303e-01 2.426910847425460815e-01 4.449783265590667725e-02
-5.165195092558860779e-02 1.510265171527862549e-01 -8.615177869796752930e-02
-5.943642258644104004e-01 7.944147288799285889e-02 6.070019304752349854e-02
5.356205701828002930e-01 -3.184732049703598022e-04 -7.639045268297195435e-02
-4.319676756858825684e-02 -1.116222962737083435e-01 8.856795728206634521e-02
-6.596534699201583862e-02 1.409330219030380249e-01 8.368971198797225952e-02
4.465150237083435059e-01 3.837554901838302612e-02 -8.303703367710113525e-02
-4.290803372859954834e-01 2.024334669113159180e-01 -5.574342608451843262e-02
-4.822928607463836670e-01 -1.475578248500823975e-01 6.541577726602554321e-02
-2.722367346286773682e-01 3.070147931575775146e-01 -3.263083845376968384e-02
-3.969028592109680176e-01 1.764349788427352905e-01 -6.459311395883560181e-02
2.532851397991180420e-01 -1.835485547780990601e-01 7.286867499351501465e-02
-1.693935841321945190e-01 4.277370870113372803e-02 9.056268632411956787e-02
4.931174516677856445e-01 2.385838776826858521e-01 2.606849558651447296e-02
4.560495615005493164e-01 -2.371467202901840210e-01 -5.263393744826316833e-02
-2.998353838920593262e-01 -5.680361390113830566e-02 8.663950115442276001e-02
5.534039139747619629e-01 -2.203844189643859863e-01 3.289063647389411926e-02
-1.910001188516616821e-01 -1.199074536561965942e-01 8.603209257125854492e-02
-1.977706998586654663e-01 -2.437392026185989380e-01 -6.224002316594123840e-02
-3.960409462451934814e-01 -2.355942279100418091e-01 5.355200543999671936e-02
-1.461479216814041138e-01 -1.764415949583053589e-01 -7.893366366624832153e-02
-6.471052169799804688e-01 1.423412859439849854e-01 4.091377556324005127e-02
-4.323421418666839600e-01 -2.339544892311096191e-01 4.977790266275405884e-02
-4.991099834442138672e-01 -1.961896866559982300e-01 -4.469925910234451294e-02
-4.167548120021820068e-01 9.481086581945419312e-02 7.697244733572006226e-02
7.242850661277770996e-01 7.331077009439468384e-02 -4.068137332797050476e-02
5.272729396820068359e-01 -1.780237853527069092e-01 -6.045054271817207336e-02
-5.871518328785896301e-02 1.570672094821929932e-01 -8.525048941373825073e-02
-6.707819700241088867e-01 -1.556635499000549316e-01 -1.597351208329200745e-02
7.798640131950378418e-01 4.039039462804794312e-02 -2.196205593645572662e-02
-1.150838658213615417e-01 1.666751205921173096e-01 -8.258895576000213623e-02
3.879518210887908936e-01 -1.764719784259796143e-01 6.481470912694931030e-02
-3.091477751731872559e-01 -2.747738659381866455e-01 4.778474196791648865e-02
-5.017583966255187988e-01 -2.753468230366706848e-02 -6.803222745656967163e-02
4.503950849175453186e-02 -3.020628392696380615e-01 -5.072388797998428345e-02
-1.077850982546806335e-01 2.537665665149688721e-01 -6.508303433656692505e-02
-6.009015813469886780e-02 2.172180265188217163e-01 7.089915871620178223e-02
-2.981042116880416870e-02 2.701090276241302490e-01 5.661811307072639465e-02
2.446018159389495850e-01 -1.135011315345764160e-01 -8.833708614110946655e-02
-8.192688226699829102e-02 -3.337527811527252197e-01 -2.984431013464927673e-02
1.638070940971374512e-01 -2.863157540559768677e-02 -9.491713345050811768e-02
2.007426321506500244e-01 3.650031983852386475e-02 8.677266538143157959e-02
2.458262443542480469e-02 3.489506542682647705e-01 -1.962835667654871941e-03
-6.797397136688232422e-01 1.554881334304809570e-01 -1.846245303750038147e-02
-8.731690235435962677e-03 -3.416470289230346680e-01 2.702305093407630920e-02
1.458647549152374268e-01 -1.123524904251098633e-01 -9.045013040304183960e-02
4.413521587848663330e-01 1.948123723268508911e-01 -6.341654062271118164e-02
4.212900400161743164e-01 2.785152196884155273e-01 -3.043502941727638245e-02
-3.900240361690521240e-02 -3.401644825935363770e-01 2.776428870856761932e-02
-5.502005815505981445e-01 2.223373055458068848e-01 -2.924783527851104736e-02
4.054118394851684570e-01 8.615219593048095703e-02 -8.296530693769454956e-02
5.532017946243286133e-01 -1.384311914443969727e-01 5.268992111086845398e-02
6.085556745529174805e-01 -1.752039790153503418e-01 -4.885963723063468933e-02
5.997890233993530273e-01 2.200389504432678223e-01 2.211749088019132614e-04
2.281268686056137085e-01 -2.449406236410140991e-01 6.162187084555625916e-02
1.964296996593475342e-01 2.670922279357910156e-01 5.037133023142814636e-02
1.267190575599670410e-01 -3.191690146923065186e-01 3.933754190802574158e-02
-7.223077416419982910e-01 9.571084380149841309e-02 3.058240003883838654e-02
6.605131179094314575e-02 -1.749873906373977661e-01 -8.333594352006912231e-02
4.727499485015869141e-01 6.451543420553207397e-02 -7.965756207704544067e-02
-2.520019710063934326e-01 -2.506193220615386963e-01 -5.660450085997581482e-02
5.240250825881958008e-01 -1.697861701250076294e-01 5.132940039038658142e-02
-5.524363741278648376e-02 -2.231112122535705566e-01 -7.303519546985626221e-02
7.097876071929931641e-02 1.053842008113861084e-01 8.620804548263549805e-02
5.394518971443176270e-01 1.422246843576431274e-01 -6.365574151277542114e-02
-4.353444278240203857e-01 2.146733403205871582e-01 -5.180304870009422302e-02
-2.040876448154449463e-02 -3.502677977085113525e-01 1.727695018053054810e-02
