-1.760138198733329773e-02 -6.547924131155014038e-04 1.633425205945968628e-01
-2.435263991355895996e-02 -7.510903477668762207e-02 -1.484049856662750244e-01
3.160205483436584473e-02 3.707894384860992432e-01 -5.589633435010910034e-02
3.209096938371658325e-02 -2.465789020061492920e-01 5.273326113820075989e-02
-2.426793612539768219e-02 -1.489899605512619019e-01 -1.455460786819458008e-01
3.395216539502143860e-02 -4.289726167917251587e-02 -6.342070549726486206e-02
3.632269799709320068e-02 1.248333230614662170e-01 -3.048202209174633026e-02
4.219037946313619614e-03 5.594465732574462891e-01 -1.261426359415054321e-01
-2.220155671238899231e-02 -1.534661501646041870e-01 -1.532121002674102783e-01
1.023651007562875748e-02 6.302050948143005371e-01 -9.244148433208465576e-02
3.164251521229743958e-02 -7.664583623409271240e-02 9.730981290340423584e-02
-1.892792619764804840e-02 -4.110758602619171143e-01 1.264580935239791870e-01
-2.269205637276172638e-02 5.215722322463989258e-01 -4.546111822128295898e-02
-2.211840637028217316e-02 -6.056608557701110840e-01 2.036445215344429016e-02
-2.097908593714237213e-02 1.899226605892181396e-01 -1.518748104572296143e-01
-2.061917446553707123e-02 6.387148797512054443e-02 -1.613991260528564453e-01
3.124174475669860840e-02 -3.189274072647094727e-01 9.454412385821342468e-03
-3.593384847044944763e-02 5.113247036933898926e-02 3.413490951061248779e-02
2.472001872956752777e-02 1.618658900260925293e-01 1.419497877359390259e-01
3.010401129722595215e-02 -3.322573900222778320e-01 4.229100421071052551e-02
-3.402592614293098450e-02 -1.396430730819702148e-01 -8.084501326084136963e-02
-3.464249521493911743e-02 -2.516596578061580658e-02 -7.718431204557418823e-02
-2.141288295388221741e-02 4.360350072383880615e-01 -1.027421578764915466e-01
3.628263249993324280e-02 -3.170132637023925781e-02 3.360083326697349548e-02
-1.627296395599842072e-02 -8.793552964925765991e-02 1.667498797178268433e-01
2.449416927993297577e-02 5.594705939292907715e-01 -5.041928216814994812e-02
-1.964386180043220520e-02 -4.870228469371795654e-01 1.050394326448440552e-01
3.066661022603511810e-02 -1.802351623773574829e-01 9.092361479997634888e-02
2.366745658218860626e-02 5.986499786376953125e-01 2.717704512178897858e-02
-1.512175612151622772e-02 5.825441479682922363e-01 6.397137045860290527e-02
-3.006666898727416992e-02 2.287868708372116089e-01 7.803162932395935059e-02
7.813254371285438538e-03 2.920392751693725586e-01 -1.722594499588012695e-01
-3.354579582810401917e-02 5.073637515306472778e-02 -8.590181171894073486e-02
-3.413951024413108826e-02 -6.474145501852035522e-02 -8.334095776081085205e-02
-2.824700623750686646e-02 1.510260105133056641e-01 1.060016602277755737e-01
-3.299430757761001587e-02 3.016454353928565979e-02 -9.315815567970275879e-02
5.583058577030897141e-03 -6.163374185562133789e-01 8.785576373338699341e-02
2.937332540750503540e-02 2.274624705314636230e-01 -1.036306247115135193e-01
3.122245892882347107e-02 -3.158336579799652100e-01 2.180816233158111572e-02
1.812848076224327087e-02 2.537907063961029053e-01 1.574128121137619019e-01
1.931692473590373993e-02 -5.618749856948852539e-01 -1.550032664090394974e-02
-2.806004881858825684e-02 -3.291375339031219482e-01 -1.038522720336914062e-01
-3.689498826861381531e-02 -9.694518521428108215e-04 1.533012185245752335e-02
-1.796416193246841431e-02 -6.540414094924926758e-01 8.609955199062824249e-03
-3.400873392820358276e-02 1.631727963685989380e-01 4.480659216642379761e-02
1.418617367744445801e-02 5.697820186614990234e-01 1.034009382128715515e-01
-1.119179092347621918e-02 -6.204396486282348633e-01 8.458872139453887939e-02
1.842610910534858704e-02 4.837061464786529541e-02 1.673758327960968018e-01
-2.519209124147891998e-02 -5.458873510360717773e-01 -4.259384423494338989e-02
3.402040526270866394e-02 -2.126709669828414917e-01 8.886916562914848328e-03
-3.003060258924961090e-02 -2.445695698261260986e-01 -1.047861054539680481e-01
-3.476889431476593018e-02 5.215685814619064331e-02 -7.039525359869003296e-02
-2.985693328082561493e-02 -4.435465335845947266e-01 -4.813410714268684387e-02
2.889372967183589935e-02 4.665986299514770508e-01 5.590611696243286133e-02
3.084136545658111572e-02 -2.063963860273361206e-01 -6.974628567695617676e-02
-2.555729262530803680e-02 4.435735046863555908e-01 4.680294170975685120e-02
3.327733278274536133e-02 -3.365807235240936279e-02 -7.266376167535781860e-02
-3.088683076202869415e-02 1.503149867057800293e-01 8.524802327156066895e-02
2.788659371435642242e-02 -1.824863851070404053e-01 1.131400242447853088e-01
3.048353828489780426e-02 -1.424574702978134155e-01 9.915293753147125244e-02
1.061138045042753220e-02 -6.441498398780822754e-01 -3.248322755098342896e-02
2.422847785055637360e-02 3.801123704761266708e-03 1.471395790576934814e-01
1.120183710008859634e-02 -2.602541744709014893e-01 -1.604156941175460815e-01
-3.462653979659080505e-02 -3.193214237689971924e-01 -1.631234772503376007e-02
-3.624634351581335068e-03 6.107180714607238770e-01 9.523344784975051880e-02
-1.822926662862300873e-02 5.699750781059265137e-02 1.598383784294128418e-01
1.218727137893438339e-02 -4.358029663562774658e-01 1.341932117938995361e-01
-2.543616667389869690e-02 -5.643199086189270020e-01 1.920629991218447685e-03
2.092190459370613098e-02 -3.371207714080810547e-01 1.245364397764205933e-01
1.931358501315116882e-02 6.355434656143188477e-01 4.477060958743095398e-02
-3.109985403716564178e-02 -3.823255002498626709e-01 5.252448096871376038e-02
3.163760527968406677e-02 4.382359683513641357e-01 2.111440710723400116e-02
-1.812694035470485687e-02 5.247244834899902344e-01 7.412619143724441528e-02
3.331950679421424866e-02 -1.884175688028335571e-01 -3.977163136005401611e-02
1.593543775379657745e-02 -5.268430709838867188e-01 -7.780181616544723511e-02
3.664799034595489502e-02 3.422450274229049683e-02 -2.030191197991371155e-02
-1.953645981848239899e-02 -5.203063488006591797e-01 -9.732610732316970825e-02
-2.784902043640613556e-02 -4.021853506565093994e-01 -8.701131492853164673e-02
3.604253754019737244e-02 3.425314277410507202e-02 -3.690777719020843506e-02
1.413395721465349197e-02 1.337067782878875732e-01 1.748992800712585449e-01
-1.217522937804460526e-02 -5.894531607627868652e-01 9.601940214633941650e-02
2.187101915478706360e-02 6.130732297897338867e-01 -3.840665146708488464e-02
2.659826911985874176e-02 4.443263113498687744e-01 -8.268670737743377686e-02
-3.423126414418220520e-02 -1.776146590709686279e-01 6.179718300700187683e-02
1.644538599066436291e-03 1.498693376779556274e-01 1.849915236234664917e-01
-2.859583869576454163e-02 -1.873623281717300415e-01 -1.209786534309387207e-01
-1.768344454467296600e-02 6.005509495735168457e-01 2.281505987048149109e-02
-2.706554904580116272e-02 -4.819373190402984619e-01 -6.252846121788024902e-02
-3.501870483160018921e-02 -3.691103309392929077e-03 -7.136885076761245728e-02
-1.630060747265815735e-02 5.265763998031616211e-01 8.457572013139724731e-02
-3.149805217981338501e-02 -2.721760869026184082e-01 -8.810507506132125854e-02
-2.632589079439640045e-02 -3.632653057575225830e-01 1.004406660795211792e-01
3.627357631921768188e-02 2.019780725240707397e-01 2.777904644608497620e-02
2.730372920632362366e-02 -3.553806245326995850e-01 7.336802780628204346e-02
2.714547514915466309e-02 -2.262337952852249146e-01 -9.846629202365875244e-02
-3.595542907714843750e-02 -4.407525807619094849e-02 -5.773646384477615356e-02
-1.365228462964296341e-02 6.341817378997802734e-01 -5.052635073661804199e-02
-3.478535264730453491e-02 -2.316639274358749390e-01 -5.630182847380638123e-02
-1.094925589859485626e-02 -2.241624742746353149e-01 -1.738976687192916870e-01
-1.226255670189857483e-02 -4.818038046360015869e-01 1.298870444297790527e-01
-3.355273976922035217e-02 -3.139080405235290527e-01 4.101882129907608032e-02
5.714438855648040771e-03 1.827131062746047974e-01 1.820035576820373535e-01
1.134655252099037170e-02 4.937514364719390869e-01 -1.344458162784576416e-01
-2.153564617037773132e-02 4.950166046619415283e-01 -7.758034765720367432e-02
-3.685395419597625732e-02 4.125751554965972900e-02 -2.036574296653270721e-02
3.206353634595870972e-02 2.758314907550811768e-01 -7.419943064451217651e-02
9.872301481664180756e-03 2.619134783744812012e-01 1.719929575920104980e-01
-1.976343430578708649e-02 5.264512896537780762e-01 6.061166524887084961e-02
-3.227494284510612488e-02 -1.884399354457855225e-01 -9.376128762960433960e-02
2.457900904119014740e-02 4.456841349601745605e-01 -9.636288136243820190e-02
-3.411098569631576538e-02 -3.450071811676025391e-01 -2.318715443834662437e-03
-1.348895672708749771e-02 2.430800534784793854e-02 -1.800968945026397705e-01
-2.598434127867221832e-02 3.243739604949951172e-01 -1.046646013855934143e-01
2.445923630148172379e-03 -5.544728040695190430e-01 1.187742426991462708e-01
-1.629833318293094635e-02 -4.212705790996551514e-01 1.330260932445526123e-01
-1.014901138842105865e-02 3.961814641952514648e-01 -1.531805098056793213e-01
-2.942693792283535004e-02 9.625346399843692780e-03 -1.222500205039978027e-01
2.021563984453678131e-02 3.880547881126403809e-01 -1.301217228174209595e-01
-3.604821115732192993e-02 -2.412844896316528320e-01 -1.195643329992890358e-03
2.763652987778186798e-02 -4.115427434444427490e-01 2.768965438008308411e-02
2.699409238994121552e-02 5.464475750923156738e-01 2.363736741244792938e-02
4.616385558620095253e-04 2.279586941003799438e-01 1.790957301855087280e-01
-2.460265904664993286e-02 -5.557057857513427734e-01 3.810571134090423584e-02
2.487438358366489410e-02 -3.813051879405975342e-01 -7.356943190097808838e-02
2.273538708686828613e-02 -4.043692946434020996e-01 -8.257693797349929810e-02
1.849412545561790466e-02 3.961570262908935547e-01 -1.350040137767791748e-01
3.340144455432891846e-02 -2.176570743322372437e-01 3.803081437945365906e-02
-2.325767464935779572e-02 -3.420354723930358887e-01 -1.273086816072463989e-01
-2.261886186897754669e-02 -6.044912934303283691e-01 -8.714686147868633270e-03
1.288447808474302292e-02 -5.820310115814208984e-01 -6.676130741834640503e-02
-2.629777789115905762e-02 -4.684014320373535156e-01 -7.598824054002761841e-02
-3.630413487553596497e-02 7.380864769220352173e-02 -3.437474742531776428e-02
3.648877516388893127e-02 1.962646245956420898e-01 -8.418018929660320282e-03
2.785924263298511505e-02 -2.831541001796722412e-03 1.289697438478469849e-01
-2.118441462516784668e-02 -6.145868301391601562e-01 -2.657953277230262756e-02
-1.520719099789857864e-02 -6.092591285705566406e-01 7.635235041379928589e-02
2.305700257420539856e-02 -3.400857150554656982e-01 -1.002054214477539062e-01
-2.305807359516620636e-02 -8.244842290878295898e-02 1.441507339477539062e-01
3.270302712917327881e-02 -2.667120993137359619e-01 -9.144906653091311455e-05
-2.917557023465633392e-02 -1.985128521919250488e-01 -1.162824481725692749e-01
-3.706492483615875244e-02 -2.244425006210803986e-02 1.096912752836942673e-02
-1.103928592056035995e-02 6.508659124374389648e-01 -5.644886940717697144e-02
-1.951834373176097870e-02 5.619803071022033691e-01 3.827229887247085571e-02
-3.435616567730903625e-02 -6.560667604207992554e-02 6.694304943084716797e-02
3.672206029295921326e-02 1.801405102014541626e-01 5.030417814850807190e-03
-2.676423871889710426e-03 4.142568111419677734e-01 -1.591328233480453491e-01
1.115491800010204315e-02 2.536990866065025330e-02 1.823941916227340698e-01
2.281447872519493103e-02 4.106222093105316162e-01 -1.144347712397575378e-01
2.498062700033187866e-02 -4.346886873245239258e-01 6.037255749106407166e-02
-2.888184040784835815e-02 -3.871191740036010742e-01 -8.306952565908432007e-02
-1.360084116458892822e-02 5.536369085311889648e-01 8.699829876422882080e-02
1.817949488759040833e-02 -5.733382105827331543e-01 3.507302328944206238e-02
-3.089196607470512390e-02 -3.497517406940460205e-01 -7.519824802875518799e-02
-3.475683927536010742e-02 8.992840349674224854e-02 -6.528771668672561646e-02
1.785931549966335297e-02 -2.169499732553958893e-02 1.684287339448928833e-01
3.425799310207366943e-02 -7.355093210935592651e-02 -5.465220659971237183e-02
2.853354625403881073e-02 -2.152072191238403320e-01 1.027036979794502258e-01
-2.776685357093811035e-02 -4.233207404613494873e-01 7.385398447513580322e-02
2.766765467822551727e-02 -1.709816455841064453e-01 -1.043433919548988342e-01
2.910568937659263611e-02 2.632018923759460449e-01 -1.015452519059181213e-01
-2.241643331944942474e-02 -5.763614177703857422e-01 4.797054827213287354e-02
-1.145447231829166412e-02 6.684015989303588867e-01 1.617461256682872772e-02
-3.326264396309852600e-02 -1.650423407554626465e-01 7.451642304658889771e-02
-1.987326703965663910e-02 5.398300290107727051e-01 -6.678520888090133667e-02
2.774944901466369629e-02 4.608510434627532959e-01 -6.683419644832611084e-02
-2.850837260484695435e-02 3.727200031280517578e-01 4.608043655753135681e-02
1.447868347167968750e-02 -6.113222241401672363e-01 -2.927020378410816193e-02
3.232447803020477295e-02 1.339114308357238770e-01 9.650793671607971191e-02
4.341349471360445023e-03 1.074173375964164734e-01 -1.872640550136566162e-01
-1.824222691357135773e-02 4.608858525753021240e-01 -1.122620105743408203e-01
-3.000274486839771271e-02 2.622418999671936035e-01 -8.633218705654144287e-02
-2.687149122357368469e-02 -2.644583582878112793e-01 -1.219917312264442444e-01
2.960592322051525116e-02 4.143436849117279053e-01 -6.484220176935195923e-02
3.616014122962951660e-02 1.124345213174819946e-01 -3.528495132923126221e-02
-3.652927652001380920e-02 4.499407112598419189e-02 1.889677904546260834e-02
1.496649906039237976e-02 -2.983057200908660889e-01 -1.448865234851837158e-01
-1.673485338687896729e-02 -1.107556745409965515e-01 -1.712657064199447632e-01
3.660209476947784424e-02 -3.465707600116729736e-02 1.420679967850446701e-02
3.344902396202087402e-02 2.886661291122436523e-01 -5.454199761152267456e-02
-2.718818373978137970e-02 2.304538041353225708e-01 -1.159183531999588013e-01
-6.004386115819215775e-03 4.677874147891998291e-01 1.362137347459793091e-01
-3.460688516497612000e-02 -8.963630348443984985e-02 -7.707614451646804810e-02
2.346519939601421356e-02 1.883190721273422241e-01 1.454560458660125732e-01
3.240641206502914429e-02 5.868116021156311035e-02 -8.663399517536163330e-02
2.438207156956195831e-02 3.190624713897705078e-02 -1.386218369007110596e-01
-2.291580662131309509e-02 -5.347145199775695801e-01 -7.222038507461547852e-02
-9.606221690773963928e-03 6.601732969284057617e-01 -5.770945176482200623e-02
1.183356158435344696e-02 -5.699119567871093750e-01 -7.901591807603836060e-02
-3.710258379578590393e-02 -5.091192573308944702e-02 1.158827543258666992e-02
3.464010357856750488e-02 1.644569262862205505e-02 -5.977286398410797119e-02
2.930548740550875664e-03 -1.261550560593605042e-02 1.891242861747741699e-01
1.835117861628532410e-02 6.569383144378662109e-01 -3.352069482207298279e-02
-2.062499709427356720e-02 5.195204019546508789e-01 -7.228754460811614990e-02
-3.167964890599250793e-02 -2.425712943077087402e-01 -9.168292582035064697e-02
2.692366763949394226e-02 -6.850829347968101501e-03 1.340169012546539307e-01
3.369968384504318237e-02 3.720517456531524658e-01 -3.821334568783640862e-03
-3.087031468749046326e-02 -6.487981975078582764e-02 -1.127721518278121948e-01
-1.673711836338043213e-02 -5.693663358688354492e-01 -8.942947536706924438e-02
3.523482754826545715e-02 -1.431931704282760620e-01 2.028053440153598785e-02
2.392277866601943970e-02 1.663927435874938965e-01 -1.386632770299911499e-01
1.576445437967777252e-02 -5.207756757736206055e-01 9.312331676483154297e-02
-2.822166308760643005e-02 1.874068081378936768e-01 1.011156141757965088e-01
-2.256483212113380432e-02 -2.272671759128570557e-01 1.386218965053558350e-01
-1.672251895070075989e-02 -5.422447323799133301e-01 9.921491146087646484e-02
-1.917597837746143341e-02 -4.266196787357330322e-01 -1.257459819316864014e-01
-2.867009304463863373e-02 -4.950956404209136963e-01 2.124063111841678619e-02
-3.542218729853630066e-02 1.226773038506507874e-01 2.789661660790443420e-02
2.632867358624935150e-02 5.417172312736511230e-01 4.203995317220687866e-02
1.507946383208036423e-02 3.636908233165740967e-01 -1.502592861652374268e-01
2.344738878309726715e-02 1.391127556562423706e-01 -1.419008672237396240e-01
3.372323885560035706e-02 -3.741296380758285522e-02 -6.697569042444229126e-02
2.139088325202465057e-02 -5.373058319091796875e-01 5.173417739570140839e-03
-2.573095820844173431e-02 1.609138548374176025e-01 1.205179616808891296e-01
3.611573949456214905e-02 1.393330991268157959e-01 -3.426304459571838379e-02
2.968455292284488678e-02 -3.616325557231903076e-01 2.263632602989673615e-02
-3.092858381569385529e-02 -8.002847433090209961e-03 -1.122632250189781189e-01
2.010570280253887177e-02 -3.204234540462493896e-01 -1.209606602787971497e-01
2.077255584299564362e-02 -5.115028619766235352e-01 -4.657730087637901306e-02
-1.205583009868860245e-02 5.346074104309082031e-01 1.009948924183845520e-01
7.437989581376314163e-03 -2.990306019783020020e-01 1.679283082485198975e-01
3.204792505130171776e-03 -2.881833612918853760e-01 1.730119138956069946e-01
1.334584876894950867e-02 -5.975939631462097168e-01 -5.330032482743263245e-02
2.225781977176666260e-02 -2.944603562355041504e-03 -1.470781415700912476e-01
-1.536986790597438812e-02 -5.297098159790039062e-01 -1.089644730091094971e-01
-2.629943005740642548e-02 -1.516240090131759644e-02 1.289148777723312378e-01
3.506280109286308289e-02 3.094920814037322998e-01 -3.195568278897553682e-04
2.458338066935539246e-02 1.596409976482391357e-01 -1.359372437000274658e-01
-3.720400482416152954e-02 -9.353295713663101196e-02 -1.714511960744857788e-02
-3.392138332128524780e-02 2.358427494764328003e-01 -2.912046387791633606e-02
1.121627725660800934e-02 6.801350116729736328e-01 5.577949434518814087e-02
2.064314438030123711e-03 -4.821527898311614990e-01 1.398622989654541016e-01
8.316450752317905426e-03 -4.398886859416961670e-02 1.853207647800445557e-01
-3.560699149966239929e-02 -2.691156864166259766e-01 1.553464913740754128e-03
-2.091711387038230896e-02 1.730952560901641846e-01 -1.536776721477508545e-01
1.770845986902713776e-02 6.491249203681945801e-01 -4.820519685745239258e-02
-1.710020937025547028e-02 2.813862562179565430e-01 1.430176496505737305e-01
-1.459905784577131271e-02 -5.945272445678710938e-01 8.608423918485641479e-02
-6.413102149963378906e-03 1.948623359203338623e-01 -1.826590895652770996e-01
2.860807254910469055e-02 4.993388354778289795e-01 -3.473521769046783447e-02
2.927619032561779022e-02 9.637517482042312622e-02 1.207748576998710632e-01
2.168967947363853455e-02 -4.827322959899902344e-01 6.893938779830932617e-02
-2.763540297746658325e-02 -6.382243335247039795e-02 1.218363940715789795e-01
-2.311390079557895660e-02 -4.826852679252624512e-01 8.828794211149215698e-02
1.833204738795757294e-02 -5.280084609985351562e-01 -5.998767912387847900e-02
-3.566082194447517395e-02 -1.648883670568466187e-01 4.118252545595169067e-02
1.321091596037149429e-02 3.265709877014160156e-01 1.597344130277633667e-01
-2.856269478797912598e-02 4.087557792663574219e-01 -3.530924022197723389e-02
-2.788126468658447266e-02 -5.088863968849182129e-01 -3.089759312570095062e-02
1.012295018881559372e-02 1.414474993944168091e-01 1.806548684835433960e-01
-3.503617271780967712e-02 -2.880174517631530762e-01 1.630942709743976593e-02
-3.691027685999870300e-02 -2.232839353382587433e-02 -3.315076231956481934e-02
-2.486185170710086823e-02 4.915242791175842285e-01 1.744361780583858490e-02
-2.592829987406730652e-02 -4.965775907039642334e-01 6.108068302273750305e-02
-3.239523619413375854e-02 -3.646154999732971191e-01 -4.956367984414100647e-02
3.482136502861976624e-02 3.037433922290802002e-01 2.970674633979797363e-02
-3.575909510254859924e-02 -3.458778560161590576e-02 -6.105282157659530640e-02
2.261231094598770142e-02 -2.478313744068145752e-01 1.331926286220550537e-01
2.472182363271713257e-02 -4.091623425483703613e-01 7.691550254821777344e-02
-1.909034699201583862e-02 -1.234203502535820007e-01 1.575703024864196777e-01
-1.182836666703224182e-02 7.851231843233108521e-02 -1.818516105413436890e-01
-2.740039303898811340e-02 1.040845662355422974e-01 1.164768636226654053e-01
2.989130094647407532e-02 -3.506325185298919678e-01 3.050866723060607910e-02
-1.741325110197067261e-02 4.212257862091064453e-01 1.139668449759483337e-01
-2.919480577111244202e-02 -4.919411242008209229e-01 4.942367784678936005e-03
3.300581499934196472e-02 -9.482552111148834229e-02 -6.791556626558303833e-02
-5.469956900924444199e-03 5.821982622146606445e-01 -1.132310554385185242e-01
-3.563812747597694397e-02 1.466177999973297119e-01 7.770452648401260376e-03
1.951201446354389191e-02 -4.132181704044342041e-01 -1.004813611507415771e-01
-3.328549489378929138e-02 -3.771218061447143555e-01 -8.115910924971103668e-03
2.962424047291278839e-02 -2.195437252521514893e-01 9.247255325317382812e-02
2.551797963678836823e-02 -4.470428228378295898e-01 4.199668765068054199e-02
3.231628239154815674e-02 -2.715021967887878418e-01 3.038130886852741241e-02
-3.261502459645271301e-02 2.342099547386169434e-01 -6.166939064860343933e-02
-3.045960702002048492e-02 -1.835533827543258667e-01 -1.090084016323089600e-01
3.535519912838935852e-02 2.073723077774047852e-01 5.093695968389511108e-02
-3.632223606109619141e-02 -1.131636872887611389e-01 3.355716913938522339e-02
-2.845882205292582512e-03 -5.650855302810668945e-01 1.174307689070701599e-01
-2.793350443243980408e-02 -7.913105934858322144e-02 1.199324876070022583e-01
-1.947980374097824097e-02 9.468849748373031616e-02 1.538416892290115356e-01
3.336141631007194519e-02 -1.510326415300369263e-01 -5.123708024621009827e-02
2.378460764884948730e-02 -2.828468680381774902e-01 1.209883615374565125e-01
2.768192067742347717e-02 7.986406236886978149e-02 -1.216181293129920959e-01
3.374661505222320557e-02 -2.087448239326477051e-01 -1.831071078777313232e-02
-2.855515293776988983e-02 -5.048829317092895508e-01 8.427049964666366577e-03
1.978469081223011017e-02 -9.589855372905731201e-02 -1.519135385751724243e-01
3.441450744867324829e-02 2.366667389869689941e-01 6.115975230932235718e-02
-7.232519332319498062e-03 -4.678190052509307861e-01 1.412411183118820190e-01
-3.023208305239677429e-02 1.527748405933380127e-01 9.062418341636657715e-02
-1.973798498511314392e-02 5.550625920295715332e-01 4.148116335272789001e-02
3.173927962779998779e-02 1.116324067115783691e-01 1.025327071547508240e-01
3.539335355162620544e-02 1.721455007791519165e-01 -4.533638805150985718e-02
-2.537269331514835358e-02 2.568104863166809082e-01 -1.227291971445083618e-01
2.090637572109699249e-02 2.651865184307098389e-01 -1.438826471567153931e-01
-3.464515507221221924e-02 2.113977670669555664e-01 -1.332209352403879166e-02
-2.645764686167240143e-02 -2.893246710300445557e-01 1.125669404864311218e-01
-1.643546670675277710e-02 4.160197973251342773e-01 -1.320324242115020752e-01
-1.674710889346897602e-03 7.257072329521179199e-01 1.877240720205008984e-04
-3.406911715865135193e-02 -3.424515128135681152e-01 -1.869801618158817291e-02
1.855723001062870026e-02 1.393310725688934326e-01 1.645632833242416382e-01
6.052412558346986771e-03 -5.622912198305130005e-02 -1.850305050611495972e-01
2.019360847771167755e-02 -4.625236615538597107e-04 1.619935929775238037e-01
-2.281635999679565430e-02 -5.061732530593872070e-01 8.166250586509704590e-02
2.982623688876628876e-02 -3.046064674854278564e-01 6.339462101459503174e-02
2.607759833335876465e-02 2.780549786984920502e-02 -1.300964504480361938e-01
3.630965948104858398e-02 6.535750627517700195e-02 -3.233546763658523560e-02
1.761845685541629791e-02 3.498823642730712891e-01 1.467611491680145264e-01
-1.830589026212692261e-02 -3.653387427330017090e-01 -1.408580541610717773e-01
7.335593923926353455e-03 3.436502069234848022e-03 -1.849656999111175537e-01
-2.964803017675876617e-02 -3.275797069072723389e-01 8.364418894052505493e-02
-2.948473952710628510e-02 3.929972648620605469e-01 5.037093535065650940e-03
2.081112191081047058e-02 5.669638514518737793e-01 7.746884971857070923e-02
-2.701426483690738678e-02 -1.366211771965026855e-01 1.234660595655441284e-01
2.212148718535900116e-02 3.088358342647552490e-01 1.381840854883193970e-01
2.280554547905921936e-02 1.167983934283256531e-01 1.518325358629226685e-01
2.226569131016731262e-02 -5.109452009201049805e-01 -2.434656769037246704e-02
2.763030119240283966e-02 3.924161791801452637e-01 9.417480975389480591e-02
-2.274895086884498596e-02 3.394077420234680176e-01 -1.212960779666900635e-01
-2.562067657709121704e-02 -2.159222364425659180e-01 1.255449503660202026e-01
3.197982162237167358e-02 1.139318048954010010e-01 -9.021422266960144043e-02
-1.505727972835302353e-02 -5.671198368072509766e-01 -9.620185196399688721e-02
-1.918808743357658386e-02 -6.043427586555480957e-01 -5.783504620194435120e-02
-1.971687935292720795e-02 3.124580085277557373e-01 -1.404629051685333252e-01
-2.676022797822952271e-02 -2.223800569772720337e-01 1.188154071569442749e-01
-3.579647466540336609e-02 1.451842486858367920e-01 -1.001740526407957077e-02
-2.750998549163341522e-02 -3.772539198398590088e-01 -9.652679413557052612e-02
-2.737052366137504578e-02 -8.815867826342582703e-03 -1.346694231033325195e-01
1.587751321494579315e-02 4.039040207862854004e-01 -1.417847275733947754e-01
-1.698684133589267731e-02 5.310373306274414062e-01 7.859903573989868164e-02
-3.209931030869483948e-02 9.952916204929351807e-02 8.084962517023086548e-02
8.277395740151405334e-03 -5.247536897659301758e-01 -1.103208512067794800e-01
2.835695631802082062e-02 4.679621160030364990e-01 6.171915307641029358e-02
1.609398424625396729e-02 5.866885185241699219e-01 -9.267038851976394653e-02
-3.270602226257324219e-02 -2.805072963237762451e-01 6.313117593526840210e-02
-1.546211354434490204e-02 6.305438876152038574e-01 -3.082480654120445251e-02
-3.396834363229572773e-04 5.527302026748657227e-01 -1.284072697162628174e-01
-2.073784172534942627e-02 -5.640330910682678223e-01 -7.200717180967330933e-02
2.992615476250648499e-02 3.682018518447875977e-01 -7.554975152015686035e-02
-2.829554118216037750e-02 -3.112541437149047852e-01 9.731820970773696899e-02
2.504904381930828094e-02 -4.567069709300994873e-01 -2.753628604114055634e-02
-2.475425228476524353e-02 -5.538874864578247070e-01 -4.167988523840904236e-02
3.443769738078117371e-02 3.279857933521270752e-01 -1.787665113806724548e-02
2.275698445737361908e-02 5.500530004501342773e-01 -7.155108451843261719e-02
1.219640113413333893e-02 -6.149263978004455566e-01 -4.827867820858955383e-02
3.377327322959899902e-02 3.303251564502716064e-01 -3.519102185964584351e-02
1.398110575973987579e-02 6.733450293540954590e-01 4.944409057497978210e-02
1.618699170649051666e-02 -5.074334144592285156e-01 -8.506813645362854004e-02
1.852342300117015839e-02 6.675769090652465820e-01 2.711205976083874702e-03
-1.119260862469673157e-02 8.220046758651733398e-02 1.762244254350662231e-01
2.275843173265457153e-02 -4.956445395946502686e-01 4.585470259189605713e-02
-2.348505333065986633e-02 4.835988581180572510e-01 4.809052869677543640e-02
3.311697393655776978e-02 2.661347687244415283e-01 7.274185121059417725e-02
2.930357307195663452e-02 -1.132512465119361877e-01 1.122522056102752686e-01
2.001325227320194244e-02 3.233520686626434326e-01 -1.406271159648895264e-01
-2.915840968489646912e-02 -4.786768853664398193e-01 -3.393201902508735657e-02
3.307857364416122437e-02 2.841778695583343506e-01 -6.069538369774818420e-02
-3.663814440369606018e-02 -6.373687088489532471e-02 -4.288336634635925293e-02
2.854991704225540161e-02 5.133669972419738770e-01 -2.194230444729328156e-02
-1.963327638804912567e-02 -3.353674709796905518e-01 1.371156275272369385e-01
-1.736531592905521393e-02 5.980892777442932129e-01 3.090926818549633026e-02
3.464090079069137573e-02 -4.243367165327072144e-02 6.687489151954650879e-02
-2.182796411216259003e-02 5.312799811363220215e-01 3.386492654681205750e-02
-3.216871619224548340e-02 -3.024996519088745117e-01 -7.447759062051773071e-02
-9.174035862088203430e-03 -6.646684408187866211e-01 -6.008400022983551025e-02
-1.569672673940658569e-02 5.380985736846923828e-01 -9.678241610527038574e-02
1.783696189522743225e-02 -5.179192423820495605e-01 -6.956326216459274292e-02
-2.657356299459934235e-02 -1.361225396394729614e-01 -1.358270347118377686e-01
-9.016526862978935242e-03 -6.051366329193115234e-01 9.653942286968231201e-02
-3.496240079402923584e-02 -1.646985560655593872e-01 -6.600008159875869751e-02
3.407765924930572510e-02 6.988470256328582764e-02 -6.905152648687362671e-02
2.814840897917747498e-02 3.264778554439544678e-01 1.050576046109199524e-01
2.764524146914482117e-02 -1.236219182610511780e-01 1.222349777817726135e-01
2.547018416225910187e-02 -2.303002774715423584e-01 -1.090902611613273621e-01
-1.559714507311582565e-02 -6.680989861488342285e-01 2.250889129936695099e-02
2.097829058766365051e-02 -2.167910151183605194e-02 -1.514773219823837280e-01
3.620643168687820435e-02 -7.675509899854660034e-02 1.175905228592455387e-03
1.934402808547019958e-02 2.326917946338653564e-01 -1.522370129823684692e-01
3.135087713599205017e-02 -3.153674900531768799e-01 5.335457623004913330e-03
6.598989944905042648e-03 -4.863184094429016113e-01 -1.261042803525924683e-01
1.249256636947393417e-02 -2.037000209093093872e-01 1.704397499561309814e-01
-3.151050582528114319e-02 3.621715307235717773e-02 9.214276075363159180e-02
-2.837467566132545471e-02 4.127521812915802002e-01 1.887589879333972931e-02
-1.835346780717372894e-02 -2.581754624843597412e-01 -1.560266166925430298e-01
2.808063291013240814e-02 -1.522292196750640869e-02 1.272571086883544922e-01
-1.394208706915378571e-02 -2.260327786207199097e-01 -1.691409647464752197e-01
-2.484038099646568298e-02 -4.520429074764251709e-01 -9.257077425718307495e-02
-1.121278014034032822e-02 5.537928342819213867e-01 9.697975963354110718e-02
-4.904882051050662994e-03 6.242375373840332031e-01 -9.692274779081344604e-02
-7.365103811025619507e-03 2.542365491390228271e-01 1.697147786617279053e-01
-1.822214946150779724e-02 -6.170845627784729004e-01 5.454827845096588135e-02
3.114433726295828819e-03 -6.995983123779296875e-01 -8.272306062281131744e-03
2.128487266600131989e-02 -4.910590350627899170e-01 -5.469869077205657959e-02
2.641347981989383698e-02 1.249472722411155701e-01 1.359047442674636841e-01
3.568603098392486572e-02 1.010865941643714905e-01 -4.538343101739883423e-02
-8.190362714231014252e-03 5.504727363586425781e-01 -1.187907382845878601e-01
-3.464747965335845947e-02 -3.115062713623046875e-01 1.360221300274133682e-02
2.174677513539791107e-02 -3.123404979705810547e-01 -1.144278496503829956e-01
1.482150144875049591e-02 -4.208571612834930420e-01 -1.199202463030815125e-01
9.151384234428405762e-03 6.916994452476501465e-01 -5.845808237791061401e-02
-3.028357774019241333e-02 -2.416222989559173584e-01 9.320554882287979126e-02
2.412456274032592773e-02 2.346274256706237793e-01 -1.331844031810760498e-01
-2.617291174829006195e-02 -4.896740317344665527e-01 6.203776597976684570e-02
3.056337498128414154e-02 1.782714016735553741e-02 1.120189651846885681e-01
5.357200745493173599e-03 -4.224285781383514404e-01 1.501515954732894897e-01
-2.142541855573654175e-02 -4.500995576381683350e-01 1.070985943078994751e-01
2.793747745454311371e-02 -8.933228999376296997e-02 1.236461400985717773e-01
-2.054319158196449280e-02 -2.550656795501708984e-01 1.437989771366119385e-01
-2.444995939731597900e-02 -5.203537344932556152e-01 6.300272047519683838e-02
1.025632955133914948e-03 5.303439497947692871e-01 1.279844939708709717e-01
-3.686430305242538452e-02 9.458250366151332855e-03 1.456131320446729660e-02
2.062407322227954865e-02 -3.520952761173248291e-01 -1.112229973077774048e-01
2.164484700188040733e-03 -6.956481337547302246e-01 -2.524345926940441132e-02
3.499325737357139587e-02 2.810893058776855469e-01 -2.715589664876461029e-02
2.912978082895278931e-02 4.193007647991180420e-01 7.356280833482742310e-02
3.445438295602798462e-02 -1.894362419843673706e-01 1.660130545496940613e-02
-3.283576667308807373e-02 -3.930133879184722900e-01 -7.351771928369998932e-03
3.570811077952384949e-02 -1.048440486192703247e-01 2.549775876104831696e-02
-1.530765462666749954e-02 4.696678817272186279e-01 -1.222477406263351440e-01
2.301796525716781616e-02 -2.039575576782226562e-01 -1.270447224378585815e-01
1.080877613276243210e-02 6.702401638031005859e-01 -6.910946965217590332e-02
-3.112296015024185181e-02 3.396175205707550049e-01 1.367943827062845230e-02
-3.242202475666999817e-02 -1.595552712678909302e-01 8.343165367841720581e-02
3.202454745769500732e-02 -2.479793131351470947e-01 -3.870540112257003784e-02
-1.625910773873329163e-02 -4.523922502994537354e-01 -1.284612566232681274e-01
2.893926203250885010e-02 -3.684438467025756836e-01 -2.490404807031154633e-02
-1.270496565848588943e-02 1.355986893177032471e-01 -1.780183911323547363e-01
-1.835834607481956482e-02 5.375382900238037109e-01 6.598584353923797607e-02
3.003506176173686981e-02 -2.740147411823272705e-01 7.281298190355300903e-02
-3.446858748793601990e-02 -3.921630978584289551e-02 -7.957097887992858887e-02
-2.892579138278961182e-02 -4.014596939086914062e-01 -7.803501188755035400e-02
1.657905988395214081e-02 6.858027726411819458e-02 1.718017309904098511e-01
-2.499677985906600952e-02 -9.171592444181442261e-02 1.353244781494140625e-01
2.331897616386413574e-02 1.916929036378860474e-01 -1.399448364973068237e-01
3.659516945481300354e-02 1.036101020872592926e-02 -1.853215135633945465e-02
-2.193950675427913666e-02 -9.242706000804901123e-02 -1.570781618356704712e-01
2.633539773523807526e-02 2.582730054855346680e-01 1.258721053600311279e-01
1.511749625205993652e-02 6.949412822723388672e-01 1.809520414099097252e-03
-2.343701384961605072e-02 -3.173885345458984375e-01 -1.307164281606674194e-01
-2.734186872839927673e-02 -5.121309757232666016e-01 3.287522494792938232e-02
3.682972863316535950e-02 3.031287342309951782e-04 -2.039364539086818695e-03
3.524439781904220581e-02 3.001003265380859375e-01 4.621843807399272919e-03
3.311217948794364929e-02 -1.504713445901870728e-01 6.902287155389785767e-02
-7.171189412474632263e-03 3.859870135784149170e-01 -1.597665995359420776e-01
-3.177827224135398865e-02 2.443357110023498535e-01 5.407232791185379028e-02
1.362168230116367340e-02 5.204913616180419922e-01 1.205101758241653442e-01
1.979924738407135010e-02 6.363552808761596680e-01 -4.003908485174179077e-02
3.202489390969276428e-02 -1.401989459991455078e-01 8.459763973951339722e-02
-1.679706387221813202e-02 5.849540829658508301e-01 4.913179948925971985e-02
-3.216852247714996338e-02 -3.442624807357788086e-01 -6.166320294141769409e-02
2.242301963269710541e-02 -1.058195717632770538e-02 -1.461428999900817871e-01
3.031367622315883636e-02 -3.397626578807830811e-01 2.853965945541858673e-02
-1.716794259846210480e-02 2.038779407739639282e-01 -1.629034280776977539e-01
-2.454207278788089752e-02 -5.761007666587829590e-01 1.141319889575242996e-02
2.804479934275150299e-02 -4.077745378017425537e-01 3.839904209598898888e-03
-2.574144490063190460e-02 1.365945041179656982e-01 -1.359785348176956177e-01
-3.290070220828056335e-02 -3.907836973667144775e-01 -1.881739124655723572e-03
4.122719168663024902e-03 2.082186937332153320e-01 1.807597875595092773e-01
3.698143735527992249e-02 1.326418370008468628e-01 1.805879175662994385e-03
3.139653056859970093e-02 -2.448401153087615967e-01 -5.068708211183547974e-02
1.994429714977741241e-02 -5.362337231636047363e-01 4.997218772768974304e-02
3.333035856485366821e-02 -1.631384938955307007e-01 6.237175315618515015e-02
-1.858884841203689575e-02 8.441691100597381592e-02 1.574126631021499634e-01
-3.016776219010353088e-02 3.740541338920593262e-01 -2.246163226664066315e-02
-3.594616428017616272e-02 -1.499821096658706665e-01 -5.109355971217155457e-02
-3.299263119697570801e-02 -2.728612124919891357e-01 -7.212387025356292725e-02
1.641906425356864929e-02 6.728266477584838867e-01 3.235652297735214233e-02
-3.110257722437381744e-02 -4.367867410182952881e-01 -2.632104046642780304e-02
2.130714617669582367e-02 6.282541751861572266e-01 2.870408445596694946e-02
3.647304698824882507e-02 1.786250323057174683e-01 2.776291966438293457e-02
-2.428085915744304657e-02 -4.846296906471252441e-01 -8.465418964624404907e-02
-2.773731574416160583e-02 -9.874343872070312500e-02 1.206988021731376648e-01
3.161195665597915649e-02 3.306178450584411621e-01 7.501024007797241211e-02
-2.866126410663127899e-02 4.074622690677642822e-01 1.649172604084014893e-02
-3.064190037548542023e-02 -3.904387950897216797e-01 -6.379713118076324463e-02
-3.310434520244598389e-02 2.349853962659835815e-01 3.547994047403335571e-02
-6.096355617046356201e-03 3.058575559407472610e-03 -1.890465170145034790e-01
9.524219669401645660e-03 -1.551537662744522095e-01 1.791400462388992310e-01
3.536287695169448853e-02 2.566391825675964355e-01 3.669335320591926575e-02
-3.152735158801078796e-02 3.357762098312377930e-01 -5.441104993224143982e-03
-3.370081633329391479e-02 1.664326488971710205e-01 -6.543871015310287476e-02
2.844609133899211884e-02 2.841818928718566895e-01 -1.034246310591697693e-01
-1.276040356606245041e-02 -7.359735667705535889e-02 1.751379221677780151e-01
-3.523406386375427246e-02 1.183565333485603333e-01 3.383684530854225159e-02
2.180089242756366730e-02 -1.120277717709541321e-01 1.517124325037002563e-01
3.168853744864463806e-02 -2.697595655918121338e-01 4.873529821634292603e-02
-2.235162630677223206e-02 -2.688439786434173584e-01 -1.419621556997299194e-01
2.365774661302566528e-02 -3.351631164550781250e-01 1.099758073687553406e-01
-7.021560799330472946e-03 6.492376923561096191e-01 -7.784602046012878418e-02
3.220752626657485962e-02 2.043774574995040894e-01 -8.251723647117614746e-02
3.197108209133148193e-02 4.201139211654663086e-01 -2.337048947811126709e-02
1.689875125885009766e-02 -6.561480462551116943e-02 1.696180552244186401e-01
1.494191773235797882e-02 6.279882788658142090e-01 7.559356093406677246e-02
-1.521531119942665100e-02 2.016855478286743164e-01 1.586316227912902832e-01
3.518994525074958801e-02 -1.698778755962848663e-02 6.122704967856407166e-02
2.486927062273025513e-02 5.795869231224060059e-01 -2.681264281272888184e-02
-3.395527228713035583e-02 -1.644378155469894409e-01 6.670034676790237427e-02
3.571780025959014893e-02 2.570509016513824463e-01 2.389258146286010742e-02
2.931259199976921082e-02 2.497084736824035645e-01 1.091964617371559143e-01
8.478892035782337189e-03 2.823201119899749756e-01 -1.723992377519607544e-01
-3.574929013848304749e-02 -1.372417360544204712e-01 4.305133968591690063e-02
-3.155580908060073853e-02 3.264927268028259277e-01 -3.003202751278877258e-02
3.452870249748229980e-02 8.517336100339889526e-04 -6.015124544501304626e-02
6.292636506259441376e-03 -1.188622638583183289e-01 -1.817985475063323975e-01
3.371612355113029480e-02 -2.238034009933471680e-01 1.807122305035591125e-02
-3.411453962326049805e-02 1.951305717229843140e-01 -4.830277711153030396e-02
3.530899807810783386e-02 2.956992089748382568e-01 9.191174991428852081e-03
-3.110539540648460388e-02 -1.836043149232864380e-01 9.298958629369735718e-02
-1.679015345871448517e-02 7.761467993259429932e-02 1.632523089647293091e-01
-3.344580158591270447e-02 -3.696247637271881104e-01 4.092532210052013397e-03
3.515341132879257202e-02 2.664988934993743896e-01 3.844486922025680542e-02
-4.426981322467327118e-03 7.855930179357528687e-02 -1.892797201871871948e-01
-2.486178092658519745e-02 -4.159404635429382324e-01 -1.031572669744491577e-01
-1.403631642460823059e-02 6.417281031608581543e-01 -3.655186668038368225e-02
-2.810355089604854584e-02 -3.217491805553436279e-01 -1.050540581345558167e-01
2.024622820317745209e-02 -1.395615190267562866e-01 1.552943587303161621e-01
3.038529865443706512e-02 -1.699156910181045532e-01 -8.247427642345428467e-02
3.156753629446029663e-02 9.877624362707138062e-02 -9.409976750612258911e-02
-2.110428921878337860e-02 4.062620699405670166e-01 9.927343577146530151e-02
-3.479295969009399414e-02 -3.040915541350841522e-02 -7.535388320684432983e-02
-3.348045423626899719e-02 -1.119276583194732666e-01 -8.872595429420471191e-02
2.867430076003074646e-02 4.704719483852386475e-01 -5.207699537277221680e-02
-1.800259388983249664e-02 -4.883168339729309082e-01 -1.136634424328804016e-01
-2.360356785356998444e-02 4.266886711120605469e-01 -9.067437052726745605e-02
-3.603177145123481750e-02 4.738009721040725708e-02 -4.846549034118652344e-02
2.490225248038768768e-02 5.873191952705383301e-01 -1.189101394265890121e-02
-3.151177242398262024e-02 3.238842189311981201e-01 1.704970560967922211e-02
-2.032676013186573982e-03 -3.492471575736999512e-01 1.659042984247207642e-01
-3.487279638648033142e-02 1.382675766944885254e-01 3.571234643459320068e-02
-2.562027797102928162e-02 4.600815176963806152e-01 3.425105661153793335e-02
-2.911239862442016602e-02 -4.948733150959014893e-01 -3.946972079575061798e-03
-1.216942630708217621e-02 -4.163583815097808838e-01 -1.449781507253646851e-01
2.067558653652667999e-02 6.004059314727783203e-01 6.008321046829223633e-02
2.686993218958377838e-02 -5.655714124441146851e-02 1.321228444576263428e-01
2.359307743608951569e-02 -1.130765378475189209e-01 1.443014144897460938e-01
-2.547154761850833893e-02 -4.369446635246276855e-01 -9.333570301532745361e-02
1.474383845925331116e-02 4.946527183055877686e-01 -1.261387765407562256e-01
1.509259175509214401e-02 -5.976818203926086426e-01 -3.735312819480895996e-02
2.214263379573822021e-02 -2.619216144084930420e-01 -1.222503781318664551e-01
1.384292636066675186e-02 -3.172134459018707275e-01 -1.451386958360671997e-01
-2.193251065909862518e-02 5.645120888948440552e-02 -1.571188569068908691e-01
2.974775992333889008e-02 4.943423569202423096e-01 9.308350272476673126e-03
-1.131302793510258198e-03 5.852532386779785156e-01 -1.175034791231155396e-01
1.853043027222156525e-02 -5.051104426383972168e-01 -7.100118696689605713e-02
-1.440087612718343735e-02 3.932661116123199463e-01 -1.435833275318145752e-01
-3.201564028859138489e-02 2.717153429985046387e-01 -5.654941871762275696e-02
3.088978119194507599e-02 -3.255332410335540771e-01 -8.311174809932708740e-03
-2.931086719036102295e-02 1.973973214626312256e-01 9.107605367898941040e-02
-3.654877468943595886e-02 -1.286599487066268921e-01 -3.996634483337402344e-02
3.441516682505607605e-02 2.211484313011169434e-01 -5.424647405743598938e-02
3.675185516476631165e-02 6.736302375793457031e-02 -1.912438496947288513e-02
3.450358286499977112e-02 -1.889297217130661011e-01 4.192404448986053467e-03
-2.775971032679080963e-02 4.247660636901855469e-01 -3.952744975686073303e-02
-3.392732143402099609e-02 -2.531942129135131836e-01 -6.448408216238021851e-02
-2.917818911373615265e-02 -2.214393615722656250e-01 -1.137295141816139221e-01
3.187007084488868713e-02 -5.991811305284500122e-02 -8.461250364780426025e-02
-3.169133514165878296e-02 5.740309134125709534e-04 9.249888360500335693e-02
-2.587377466261386871e-02 1.309662759304046631e-01 -1.357836574316024780e-01
3.707407414913177490e-02 9.729568660259246826e-02 9.994794614613056183e-03
-2.739075757563114166e-02 -3.719417452812194824e-01 -9.869459271430969238e-02
3.084452822804450989e-02 4.621302485466003418e-01 -1.374436542391777039e-02
2.472100220620632172e-02 5.728512406349182129e-01 -3.686866536736488342e-02
-3.630862385034561157e-02 -2.057034224271774292e-01 1.269551273435354233e-02
2.218030393123626709e-02 -1.910448968410491943e-01 1.428520828485488892e-01
-3.242578729987144470e-02 7.664876431226730347e-02 8.025335520505905151e-02
-1.862813904881477356e-02 -2.930771000683307648e-02 1.605111807584762573e-01
-2.958831004798412323e-02 1.732467263936996460e-01 9.284264594316482544e-02
2.772933430969715118e-02 4.239986836910247803e-01 -7.969742268323898315e-02
1.658564992249011993e-02 5.971011519432067871e-01 8.441522717475891113e-02
3.089562244713306427e-02 -3.295559585094451904e-01 1.212379615753889084e-02
-1.191186159849166870e-02 2.970150411128997803e-01 1.557260155677795410e-01
3.170825541019439697e-02 2.501434385776519775e-01 9.026358276605606079e-02
3.422643989324569702e-02 1.780636459589004517e-01 -6.255491822957992554e-02
-9.032900445163249969e-03 4.282350242137908936e-01 1.392235457897186279e-01
1.339067798107862473e-02 7.019715309143066406e-01 1.681299507617950439e-02
-1.926904171705245972e-02 5.784695744514465332e-01 -4.016799107193946838e-02
3.211242333054542542e-02 7.159069180488586426e-02 -8.947200328111648560e-02
2.545255795121192932e-02 -3.257007896900177002e-01 1.002713441848754883e-01
8.952870033681392670e-03 -6.541339159011840820e-01 4.578086733818054199e-02
2.842926234006881714e-02 -2.924820780754089355e-01 8.449586480855941772e-02
3.090702928602695465e-02 3.902462720870971680e-01 -5.809304863214492798e-02
8.266440592706203461e-03 -3.879289031028747559e-01 1.528179645538330078e-01
3.695349022746086121e-02 7.589510828256607056e-02 -1.006688084453344345e-02
-3.205596655607223511e-02 -4.009332060813903809e-01 -3.392453491687774658e-02
-2.155989408493041992e-02 7.247885316610336304e-02 1.473790109157562256e-01
3.219939768314361572e-02 4.259433150291442871e-01 -4.550441168248653412e-03
-2.324367873370647430e-02 5.205219388008117676e-01 1.880713365972042084e-02
3.170144930481910706e-02 -1.875167340040206909e-01 -6.450429558753967285e-02
3.113914653658866882e-02 2.199101001024246216e-01 9.922049939632415771e-02
-3.584583103656768799e-02 -6.226360797882080078e-03 4.312860220670700073e-02
1.905956305563449860e-02 3.804377019405364990e-01 1.375668644905090332e-01
2.593219652771949768e-02 -2.004378139972686768e-01 1.228925883769989014e-01
3.455609828233718872e-02 1.488783061504364014e-01 -6.064540520310401917e-02
1.473716832697391510e-02 5.015198886394500732e-02 -1.719056814908981323e-01
-7.234535180032253265e-03 3.774713873863220215e-01 -1.610924601554870605e-01
-1.756092719733715057e-02 1.944083869457244873e-01 1.522856950759887695e-01
8.653629571199417114e-03 -1.853720545768737793e-01 1.781080961227416992e-01
2.485390007495880127e-02 -1.184441968798637390e-01 -1.278322786092758179e-01
2.820766344666481018e-02 -3.242633938789367676e-01 -6.178391352295875549e-02
-3.476297482848167419e-02 -2.046646624803543091e-01 5.022609233856201172e-02
-3.301721811294555664e-02 -3.764809072017669678e-01 -2.666380070149898529e-02
2.309781499207019806e-02 -2.606330215930938721e-01 1.287193447351455688e-01
2.390510216355323792e-02 -4.002621024847030640e-02 1.472256481647491455e-01
-3.446085378527641296e-02 1.162104532122612000e-01 4.898747056722640991e-02
-6.380079314112663269e-03 6.840262413024902344e-01 4.178778827190399170e-02
2.837851643562316895e-02 -3.992610275745391846e-01 1.768330112099647522e-03
3.646590188145637512e-02 1.160031631588935852e-01 3.922877088189125061e-02
2.357961982488632202e-02 3.183153271675109863e-01 1.309138685464859009e-01
2.658625692129135132e-02 2.187893986701965332e-01 -1.219578981399536133e-01
-3.192400932312011719e-02 -3.135900944471359253e-02 9.145780652761459351e-02
-2.483227290213108063e-02 -1.957415044307708740e-01 -1.396410763263702393e-01
-9.562891907989978790e-03 -5.817673206329345703e-01 -1.027571931481361389e-01
-2.672191895544528961e-02 4.485260844230651855e-01 -3.975022956728935242e-02
1.609325222671031952e-02 5.143850296735763550e-02 1.731599271297454834e-01
-1.370330341160297394e-02 -1.851787716150283813e-01 -1.729991883039474487e-01
-3.346277028322219849e-02 -1.939137130975723267e-01 6.919652968645095825e-02
-2.094505541026592255e-02 -3.399380147457122803e-01 1.315117329359054565e-01
3.059967420995235443e-02 -2.467008233070373535e-01 -6.095948070287704468e-02
2.637606672942638397e-02 -2.318401485681533813e-01 -1.028381511569023132e-01
2.713459543883800507e-02 -4.293233156204223633e-01 8.202892728149890900e-03
-3.480412065982818604e-02 -2.790707349777221680e-01 -4.002319276332855225e-02
2.600332349538803101e-02 4.714166224002838135e-01 -7.845021784305572510e-02
1.805029436945915222e-02 -4.749255180358886719e-01 9.934992343187332153e-02
-1.641069166362285614e-02 -6.391586661338806152e-01 -4.988417774438858032e-02
5.278785247355699539e-03 3.999112546443939209e-01 -1.607266068458557129e-01
1.400206144899129868e-02 4.473916888236999512e-01 1.376770883798599243e-01
-1.991057209670543671e-02 -2.832899056375026703e-02 -1.649203598499298096e-01
-3.035364113748073578e-02 -9.160131961107254028e-02 -1.157516688108444214e-01
-1.648782636038959026e-03 2.766297459602355957e-01 -1.783072650432586670e-01
