2.446023374795913696e-01 -3.679158091545104980e-01 3.142174780368804932e-01
-3.967444971203804016e-02 -6.455429196357727051e-01 3.433715105056762695e-01
2.575460970401763916e-01 4.220588803291320801e-01 3.680943846702575684e-01
3.427456021308898926e-01 -3.158229216933250427e-02 1.532527953386306763e-01
-3.574537038803100586e-01 4.862491786479949951e-02 3.576377034187316895e-02
2.923823520541191101e-02 5.710930228233337402e-01 -5.227453708648681641e-01
2.818567752838134766e-01 1.095735188573598862e-02 -5.034297108650207520e-01
2.677162289619445801e-01 -3.253308534622192383e-01 2.766033411026000977e-01
1.960939466953277588e-01 5.134478583931922913e-02 -6.974889039993286133e-01
3.394057154655456543e-01 4.983357712626457214e-02 2.273385375738143921e-01
3.350929617881774902e-01 -1.444068849086761475e-01 -2.070769108831882477e-02
-3.578335940837860107e-01 -2.208188921213150024e-01 -2.442435920238494873e-02
-2.627082541584968567e-02 -4.099374711513519287e-01 6.700544953346252441e-01
2.885984480381011963e-01 -7.699492573738098145e-02 -4.515476822853088379e-01
1.430714428424835205e-01 6.919991225004196167e-02 7.420692443847656250e-01
2.313164323568344116e-01 5.289904475212097168e-01 -3.189757466316223145e-01
-6.255267560482025146e-02 6.771861910820007324e-01 1.074147820472717285e-01
-2.283539175987243652e-01 3.383372724056243896e-02 -6.574081182479858398e-01
-6.586542725563049316e-02 3.763095438480377197e-01 6.567044854164123535e-01
2.486200481653213501e-01 -4.354896247386932373e-01 -4.108225554227828979e-02
-7.420640904456377029e-03 5.863133072853088379e-01 4.426962733268737793e-01
1.918135136365890503e-01 5.022370815277099609e-01 -4.686584770679473877e-01
2.910932004451751709e-01 3.549149930477142334e-01 -3.537767827510833740e-01
-2.235905826091766357e-01 -2.057180106639862061e-01 -6.437757015228271484e-01
1.365856677293777466e-01 -5.815967321395874023e-01 2.333340793848037720e-01
-3.478823006153106689e-01 1.112286821007728577e-01 8.676955848932266235e-02
3.287955746054649353e-02 4.835988208651542664e-02 8.093265295028686523e-01
2.110762447118759155e-01 -1.989953964948654175e-01 -5.968813300132751465e-01
-3.742308542132377625e-02 -6.150712966918945312e-01 4.115687906742095947e-01
-2.290024459362030029e-01 -2.190928906202316284e-01 -6.291951537132263184e-01
-2.946978807449340820e-01 -3.154475092887878418e-01 3.858624398708343506e-01
-2.203426361083984375e-01 -5.256400704383850098e-01 -3.662205934524536133e-01
-1.905445307493209839e-01 -1.045106947422027588e-01 -7.187771201133728027e-01
-1.477531529963016510e-02 6.310114860534667969e-01 3.490124046802520752e-01
2.605471014976501465e-01 3.677556663751602173e-02 -5.672497749328613281e-01
3.140929341316223145e-01 1.200956925749778748e-01 3.697669208049774170e-01
-1.607655286788940430e-01 -5.181903243064880371e-01 -4.924850165843963623e-01
-2.236510664224624634e-01 4.503145813941955566e-01 2.712089419364929199e-01
-2.454779148101806641e-01 3.401594161987304688e-01 -4.265865385532379150e-01
-3.263103365898132324e-01 -6.501401960849761963e-02 -3.875450789928436279e-01
-2.385218441486358643e-01 -3.939859867095947266e-01 4.803447425365447998e-01
3.004005178809165955e-02 -3.745631277561187744e-01 6.843444705009460449e-01
-3.377429842948913574e-01 1.790551394224166870e-01 -1.056134328246116638e-01
-2.865720093250274658e-01 3.211061954498291016e-01 2.204393893480300903e-01
1.504545360803604126e-01 -2.954348325729370117e-01 6.298336386680603027e-01
7.639963179826736450e-02 -4.656713902950286865e-01 5.664252638816833496e-01
-3.094796836376190186e-01 -3.514357209205627441e-01 2.854012846946716309e-01
-2.488214969635009766e-01 -1.568463444709777832e-01 -6.103748083114624023e-01
1.004776433110237122e-01 2.345362603664398193e-01 -7.697403430938720703e-01
-2.483889311552047729e-01 -5.709839463233947754e-01 -1.041060611605644226e-01
1.793904155492782593e-01 3.158472180366516113e-01 6.222358345985412598e-01
-1.714282780885696411e-01 5.318204760551452637e-01 -3.303815424442291260e-01
-1.795225739479064941e-01 5.647377371788024902e-01 1.233137324452400208e-01
-3.605144023895263672e-01 -2.071350626647472382e-02 -1.171303763985633850e-01
-2.515589818358421326e-02 5.031737089157104492e-01 5.546921491622924805e-01
1.316908895969390869e-01 5.870259404182434082e-01 3.917318880558013916e-01
-8.838704973459243774e-02 -6.775845885276794434e-01 2.276151627302169800e-01
1.652959883213043213e-01 -5.413711667060852051e-01 -2.478275299072265625e-01
-7.895050942897796631e-02 3.165455162525177002e-01 -7.306448817253112793e-01
-1.018223986029624939e-01 6.580584049224853516e-01 -8.567824959754943848e-02
-5.690630525350570679e-02 5.587694644927978516e-01 -5.012750029563903809e-01
-3.168466091156005859e-01 -3.478327095508575439e-01 2.492798715829849243e-01
5.305239930748939514e-02 6.360744833946228027e-01 3.534455299377441406e-01
-3.580272197723388672e-01 -2.170203030109405518e-01 -4.202426224946975708e-02
2.001180201768875122e-01 -4.529961347579956055e-01 3.333376348018646240e-01
2.873500287532806396e-01 -2.341777384281158447e-01 3.160912394523620605e-01
-2.933502495288848877e-01 -1.381633132696151733e-01 -5.019888877868652344e-01
-3.352752923965454102e-01 -3.367530107498168945e-01 -1.375523507595062256e-01
1.420076191425323486e-01 -1.321526020765304565e-01 7.208445072174072266e-01
-1.450930386781692505e-01 3.031812608242034912e-01 6.335084438323974609e-01
-1.297947466373443604e-01 -4.722057878971099854e-01 5.714191198348999023e-01
3.031640946865081787e-01 4.201921448111534119e-02 4.164606332778930664e-01
-1.145575568079948425e-01 -4.420618712902069092e-01 6.129752993583679199e-01
6.617425382137298584e-02 -4.335378408432006836e-01 -6.169815659523010254e-01
3.305033221840858459e-02 -2.310190498828887939e-01 -7.802717089653015137e-01
-3.499800562858581543e-01 -4.352243989706039429e-02 2.128474861383438110e-01
1.809830218553543091e-01 -4.068895876407623291e-01 -4.694408774375915527e-01
1.229168698191642761e-01 -6.264568567276000977e-01 3.103037178516387939e-02
4.296327009797096252e-03 7.301858812570571899e-02 8.100103139877319336e-01
2.129555642604827881e-01 -4.202323853969573975e-01 3.491206467151641846e-01
2.969824075698852539e-01 -2.309076488018035889e-01 -2.738489806652069092e-01
2.368917688727378845e-02 -6.706990599632263184e-01 2.167986929416656494e-01
-2.398667335510253906e-01 -2.231125533580780029e-01 -6.069812178611755371e-01
-6.751453131437301636e-02 7.730184495449066162e-02 -8.234958648681640625e-01
-3.318840265274047852e-01 -3.199389949440956116e-02 3.243781030178070068e-01
9.910540282726287842e-02 6.296330690383911133e-01 3.410707712173461914e-01
3.423722088336944580e-01 1.724081337451934814e-01 -2.035732865333557129e-01
3.216241896152496338e-01 2.857581675052642822e-01 -2.675936818122863770e-01
7.134463638067245483e-02 -3.788393735885620117e-01 -6.639031171798706055e-01
-1.334102153778076172e-01 -6.350848674774169922e-01 3.052988648414611816e-01
3.401081264019012451e-01 -7.956533879041671753e-02 -1.356295496225357056e-01
9.546679258346557617e-02 4.037249833345413208e-02 7.830293178558349609e-01
-5.531708151102066040e-02 2.929402589797973633e-01 7.203455567359924316e-01
6.796319782733917236e-02 1.134850233793258667e-01 -8.172887563705444336e-01
2.533649280667304993e-02 -4.760432541370391846e-01 5.942940115928649902e-01
4.243605583906173706e-02 6.915507912635803223e-01 -2.378429621458053589e-01
3.331771194934844971e-01 3.249866068363189697e-01 -5.739810690283775330e-02
1.682511419057846069e-01 -1.308132857084274292e-01 6.882499456405639648e-01
1.900521069765090942e-01 3.160458207130432129e-01 6.068055033683776855e-01
-2.376808375120162964e-01 -1.826372295618057251e-01 6.008524894714355469e-01
-1.805761158466339111e-01 -6.545311212539672852e-01 7.136632502079010010e-02
2.002844512462615967e-01 2.926399409770965576e-01 -6.350498795509338379e-01
3.121291697025299072e-01 1.699006706476211548e-01 3.658742308616638184e-01
4.556726291775703430e-02 -6.511344313621520996e-01 -2.517425119876861572e-01
3.421790003776550293e-01 1.163155138492584229e-01 2.055101394653320312e-01
-1.719458587467670441e-02 -1.339085549116134644e-01 8.024073839187622070e-01
-2.629556059837341309e-01 -3.801237940788269043e-01 -4.483608901500701904e-01
-1.928628655150532722e-03 3.897377252578735352e-01 -7.136105298995971680e-01
-2.652548551559448242e-01 2.086173184216022491e-02 5.465078949928283691e-01
3.421670757234096527e-03 6.129454970359802246e-01 3.979046046733856201e-01
-1.491396725177764893e-01 -8.590744435787200928e-02 -7.689630985260009766e-01
-1.885705441236495972e-01 -6.202464699745178223e-01 2.191040366888046265e-01
2.776149809360504150e-01 -3.586570322513580322e-01 8.933219313621520996e-02
3.295068144798278809e-01 -1.518642008304595947e-01 1.227333918213844299e-01
-2.880221307277679443e-01 3.686770796775817871e-01 -5.045700818300247192e-02
-1.241960003972053528e-01 -4.328258335590362549e-01 -6.257259249687194824e-01
2.816123962402343750e-01 9.075274318456649780e-02 4.900569319725036621e-01
-3.215497434139251709e-01 -3.188855051994323730e-01 2.593785226345062256e-01
-2.182525098323822021e-01 -2.674056589603424072e-01 6.056113839149475098e-01
-3.664173558354377747e-02 6.970137953758239746e-01 4.110207036137580872e-02
3.171864449977874756e-01 -1.599479019641876221e-01 2.313218563795089722e-01
1.256861984729766846e-01 -3.805866241455078125e-01 5.954955220222473145e-01
2.806499004364013672e-01 4.927930831909179688e-01 -1.285249143838882446e-01
3.211404383182525635e-01 9.290737658739089966e-02 -3.596106767654418945e-01
-1.554105132818222046e-01 -5.644173622131347656e-01 4.210013747215270996e-01
-9.257665276527404785e-02 6.646160483360290527e-01 -9.396973252296447754e-02
-6.627664715051651001e-02 -1.172496303915977478e-01 -8.177895545959472656e-01
-1.203407123684883118e-01 -6.877535581588745117e-01 1.186148598790168762e-01
-3.613245487213134766e-01 -1.378600746393203735e-01 -1.085595637559890747e-01
1.922080963850021362e-01 6.260688900947570801e-01 -1.860354095697402954e-01
2.732035517692565918e-01 -8.131773769855499268e-02 -5.011096596717834473e-01
2.033091336488723755e-01 -4.701643884181976318e-01 -2.824453413486480713e-01
-2.161189466714859009e-01 3.423223197460174561e-01 -5.110458135604858398e-01
2.839082181453704834e-01 1.073526069521903992e-01 -5.027626156806945801e-01
1.317897439002990723e-01 -6.011828780174255371e-01 -1.709559410810470581e-01
-3.499650657176971436e-01 4.292098432779312134e-02 1.641507446765899658e-01
-2.382775247097015381e-01 -5.532159209251403809e-01 -2.430524379014968872e-01
-1.654373556375503540e-01 -2.516885101795196533e-01 6.869497299194335938e-01
3.207814693450927734e-01 -2.113961130380630493e-01 -7.485374063253402710e-02
-2.999931871891021729e-01 2.397422641515731812e-01 -3.259676694869995117e-01
5.697282403707504272e-02 -6.067429780960083008e-01 -3.612764477729797363e-01
1.541492436081171036e-02 2.244521528482437134e-01 -8.034120202064514160e-01
-2.497079223394393921e-01 -5.554735064506530762e-01 -1.737582534551620483e-01
1.396288871765136719e-01 4.801968336105346680e-01 -5.741680264472961426e-01
-3.104544878005981445e-01 6.822898238897323608e-02 -4.229539632797241211e-01
2.942646741867065430e-01 -2.449052222073078156e-02 -4.523933827877044678e-01
2.465399354696273804e-01 5.378825664520263672e-01 1.897869408130645752e-01
-2.916842997074127197e-01 2.039115577936172485e-01 -4.060343801975250244e-01
6.469687074422836304e-02 3.799948990345001221e-01 -7.133135795593261719e-01
-7.853358983993530273e-02 2.646338939666748047e-01 7.224400043487548828e-01
-3.551745414733886719e-01 -9.917897731065750122e-02 1.721303761005401611e-01
-2.093316614627838135e-01 3.024659752845764160e-01 5.228839516639709473e-01
-2.527879774570465088e-01 -5.616025328636169434e-01 1.084787249565124512e-01
-3.242920339107513428e-01 -3.741007447242736816e-01 -1.626992970705032349e-01
2.519463300704956055e-01 -2.304449379444122314e-01 -4.690147936344146729e-01
-2.302136421203613281e-01 -5.915773510932922363e-01 -1.414656788110733032e-01
-1.444409191608428955e-01 2.620196640491485596e-01 -7.009426951408386230e-01
3.351330459117889404e-01 -6.100556626915931702e-02 -2.148064672946929932e-01
3.112605214118957520e-01 -4.974642023444175720e-02 3.573064506053924561e-01
-1.592642813920974731e-02 6.759414076805114746e-01 -2.680545151233673096e-01
-2.294620871543884277e-01 1.341751217842102051e-01 5.904056429862976074e-01
1.307028532028198242e-01 2.793425023555755615e-01 -7.281783223152160645e-01
1.308411657810211182e-01 -5.663263611495494843e-03 7.546743154525756836e-01
-3.368647992610931396e-01 -2.703973054885864258e-01 -2.392530888319015503e-01
-2.729173004627227783e-01 -2.940544784069061279e-01 4.709910750389099121e-01
1.481898725032806396e-01 -5.981241464614868164e-01 -5.036657303571701050e-02
3.008071780204772949e-01 -2.946331501007080078e-01 -1.827031001448631287e-02
1.551861763000488281e-01 -5.245692729949951172e-01 -3.314452171325683594e-01
-1.425129175186157227e-01 -6.844515800476074219e-01 1.811499148607254028e-02
2.924660146236419678e-01 1.353355199098587036e-01 -4.718410968780517578e-01
-1.309113390743732452e-02 -6.874483823776245117e-01 1.908821016550064087e-01
3.420390188694000244e-01 -4.646402224898338318e-02 1.454309821128845215e-01
-2.820214033126831055e-01 3.826863169670104980e-01 3.393460810184478760e-02
-3.381982147693634033e-01 -2.178720384836196899e-01 -2.791908681392669678e-01
-4.684502258896827698e-02 -5.161669254302978516e-01 5.640365481376647949e-01
1.365125626325607300e-01 2.632755637168884277e-01 -7.296959757804870605e-01
3.101848363876342773e-01 2.683600783348083496e-01 -3.468639850616455078e-01
-1.866479218006134033e-01 -8.193658292293548584e-02 -7.266190648078918457e-01
-1.132828742265701294e-01 3.367641270160675049e-01 6.464377641677856445e-01
3.205270171165466309e-01 -2.055940479040145874e-01 9.887597709894180298e-02
3.318876922130584717e-01 2.955839037895202637e-01 1.426171511411666870e-01
-3.494421541690826416e-01 -2.721102535724639893e-01 -9.738534688949584961e-02
3.525376319885253906e-01 1.463873535394668579e-01 -7.818337529897689819e-02
2.364341169595718384e-01 9.144894778728485107e-02 6.021703481674194336e-01
-3.643327355384826660e-01 -9.991537779569625854e-02 -4.560879990458488464e-02
-2.621944248676300049e-01 2.285280078649520874e-01 -4.899251461029052734e-01
2.654170989990234375e-01 -3.822421431541442871e-01 -1.396838277578353882e-01
1.509016007184982300e-01 -4.656358063220977783e-01 -4.543379545211791992e-01
2.977014780044555664e-01 1.677085459232330322e-01 -4.466942846775054932e-01
-1.671928763389587402e-01 -6.603741049766540527e-01 -1.201753020286560059e-01
-3.070895373821258545e-01 -2.507771849632263184e-01 3.852740228176116943e-01
-2.161031514406204224e-01 -8.938824385404586792e-02 6.547558903694152832e-01
1.250713020563125610e-01 6.941220164299011230e-01 -3.727973625063896179e-02
-2.416036128997802734e-01 4.014336466789245605e-01 -3.437651395797729492e-01
2.721315026283264160e-01 -4.154876247048377991e-02 5.037130117416381836e-01
1.455969661474227905e-01 -3.927420079708099365e-01 5.531796813011169434e-01
1.860229671001434326e-01 -5.130339413881301880e-03 6.890476942062377930e-01
3.018395900726318359e-01 -2.856991887092590332e-01 -7.798918336629867554e-02
-3.172965347766876221e-01 2.761147022247314453e-01 -4.535070620477199554e-03
5.076505616307258606e-02 2.152109444141387939e-01 7.682696580886840820e-01
1.292454004287719727e-01 2.404668033123016357e-01 7.146226167678833008e-01
-8.453650027513504028e-02 9.913469105958938599e-02 -8.115791082382202148e-01
8.497479557991027832e-02 6.085471808910369873e-02 7.881420254707336426e-01
1.013255864381790161e-01 6.663243770599365234e-01 2.385462373495101929e-01
2.414545118808746338e-01 -2.775722742080688477e-01 -4.563207924365997314e-01
2.427338659763336182e-01 5.716393589973449707e-01 6.454139947891235352e-02
2.925956547260284424e-01 -3.115467131137847900e-01 -1.071318686008453369e-01
-4.890371859073638916e-02 3.222590982913970947e-01 -7.444859147071838379e-01
-3.255338072776794434e-01 -4.117484018206596375e-02 3.568206131458282471e-01
-1.923000514507293701e-01 4.523654580116271973e-01 3.792432546615600586e-01
-3.049587598070502281e-03 5.465431213378906250e-01 5.068833827972412109e-01
-3.373257219791412354e-01 1.778555363416671753e-01 -1.186626181006431580e-01
-3.034384250640869141e-01 8.341951668262481689e-02 -4.436416029930114746e-01
3.473100364208221436e-01 -4.340081661939620972e-02 -7.236713171005249023e-02
2.431616783142089844e-01 -3.988998532295227051e-01 -2.587569952011108398e-01
3.308538794517517090e-01 -1.247032806277275085e-01 -1.726654469966888428e-01
-1.970859467983245850e-01 2.769798338413238525e-01 5.693693757057189941e-01
-1.361475735902786255e-01 -1.453870683908462524e-01 7.472544908523559570e-01
1.158367097377777100e-01 6.636550426483154297e-01 2.259382307529449463e-01
-3.303085863590240479e-01 -1.535838991403579712e-01 3.273042738437652588e-01
3.510466516017913818e-01 6.537558883428573608e-02 1.078759357333183289e-01
1.294755283743143082e-02 -6.550436019897460938e-01 -2.878588438034057617e-01
2.888781428337097168e-01 -5.332076177000999451e-02 -4.611288607120513916e-01
-1.374751031398773193e-01 5.782736539840698242e-01 2.666639685630798340e-01
1.601726412773132324e-01 3.594320118427276611e-01 6.186923980712890625e-01
4.963263124227523804e-02 -6.349456310272216797e-01 -2.977026700973510742e-01
2.925730645656585693e-01 1.751255840063095093e-01 -4.627599716186523438e-01
3.055550456047058105e-01 -2.776811122894287109e-01 -2.585803344845771790e-02
2.365904599428176880e-01 2.293546050786972046e-01 -5.953186154365539551e-01
-1.009698808193206787e-01 7.043749839067459106e-02 7.753978371620178223e-01
-7.505343854427337646e-02 6.319605708122253418e-01 -3.200131058692932129e-01
-2.600576579570770264e-01 -4.792650938034057617e-01 3.091169297695159912e-01
9.600091725587844849e-03 -5.395547747611999512e-01 5.234887599945068359e-01
-1.110345572233200073e-01 1.476302593946456909e-01 -7.823146581649780273e-01
2.099426686763763428e-01 6.204081177711486816e-01 4.108121991157531738e-02
-2.526465654373168945e-01 -5.619876980781555176e-01 -1.181485131382942200e-01
-3.211255073547363281e-01 1.160865742713212967e-02 -3.987281620502471924e-01
1.257078796625137329e-01 -5.984451174736022949e-01 2.141268998384475708e-01
2.494959086179733276e-01 -4.224687814712524414e-01 -1.298208981752395630e-01
2.191173136234283447e-01 -3.552644252777099609e-01 -4.336884915828704834e-01
-1.553441137075424194e-01 5.989419817924499512e-01 -1.526408493518829346e-01
2.412998974323272705e-01 4.752551615238189697e-01 3.450263738632202148e-01
-1.828647553920745850e-01 1.714698076248168945e-01 6.567333936691284180e-01
-2.876229584217071533e-01 -4.561938643455505371e-01 -2.411845177412033081e-01
1.169039979577064514e-01 4.685662686824798584e-01 -6.086587905883789062e-01
3.375230431556701660e-01 2.832997143268585205e-01 9.503619372844696045e-02
3.132545948028564453e-01 -1.046102643013000488e-01 3.135527670383453369e-01
1.404981315135955811e-01 -2.305418699979782104e-01 6.826599836349487305e-01
2.263221293687820435e-01 2.352701574563980103e-01 -6.139764785766601562e-01
-7.019523531198501587e-02 1.019987687468528748e-01 7.874704599380493164e-01
3.447904810309410095e-02 1.946123093366622925e-01 7.791119813919067383e-01
-3.418231606483459473e-01 7.238994538784027100e-02 -2.473386675119400024e-01
-3.327234089374542236e-01 2.107763588428497314e-01 -6.496308743953704834e-02
1.241877153515815735e-01 6.043468117713928223e-01 -4.126293361186981201e-01
-6.750479340553283691e-02 -2.621345520019531250e-01 7.528450489044189453e-01
3.284268677234649658e-01 2.662335634231567383e-01 2.149162292480468750e-01
3.448035717010498047e-01 2.051976770162582397e-01 -1.503766775131225586e-01
-2.161782085895538330e-01 2.648377120494842529e-01 5.394896268844604492e-01
-2.966119945049285889e-01 -3.327077031135559082e-01 -3.839130699634552002e-01
-1.892983540892601013e-02 6.923583745956420898e-01 -1.877118796110153198e-01
1.944378763437271118e-01 -4.527875185012817383e-01 -3.562653958797454834e-01
-1.524651497602462769e-01 -5.340777039527893066e-01 -4.808447360992431641e-01
2.847115397453308105e-01 -3.418945372104644775e-01 6.294316053390502930e-02
-8.798016607761383057e-02 6.606768965721130371e-01 1.082578822970390320e-01
-3.025291860103607178e-02 -5.214790701866149902e-01 -5.637460947036743164e-01
2.659386396408081055e-01 4.998447895050048828e-01 -2.260543704032897949e-01
3.540607392787933350e-01 7.188083231449127197e-02 4.163592308759689331e-02
-2.968612313270568848e-01 -4.788596630096435547e-01 5.578866600990295410e-02
3.095202744007110596e-01 2.409122884273529053e-01 -3.684847354888916016e-01
3.325416743755340576e-01 3.170182406902313232e-01 -1.097709089517593384e-01
1.846016645431518555e-01 -5.054253339767456055e-01 -2.713290154933929443e-01
3.319548964500427246e-01 -5.021668970584869385e-02 -2.502467930316925049e-01
3.729921579360961914e-02 -3.456851840019226074e-02 -8.317363262176513672e-01
-1.608385741710662842e-01 9.690948575735092163e-02 -7.464993000030517578e-01
-3.024203777313232422e-01 -3.598707616329193115e-01 3.093958795070648193e-01
3.167350888252258301e-01 -1.712637543678283691e-01 2.183302044868469238e-01
1.718036234378814697e-01 6.215980648994445801e-01 2.357628345489501953e-01
9.244069457054138184e-03 -6.941770315170288086e-01 1.117026209831237793e-01
-1.463706493377685547e-01 4.507802724838256836e-01 -5.330857038497924805e-01
-1.112834215164184570e-01 -5.929630398750305176e-01 -4.283403158187866211e-01
2.717289328575134277e-01 2.491325289011001587e-01 4.730198681354522705e-01
1.579777002334594727e-01 6.161717176437377930e-01 2.852932512760162354e-01
-1.913219839334487915e-01 -2.305238544940948486e-01 -6.841384768486022949e-01
9.563206136226654053e-02 1.283716559410095215e-01 7.725455760955810547e-01
4.982457496225833893e-03 2.169895768165588379e-01 -8.062968254089355469e-01
2.705207467079162598e-01 -2.856685817241668701e-01 -3.346961140632629395e-01
-1.239940375089645386e-01 -1.981739401817321777e-01 -7.655289769172668457e-01
-8.500096946954727173e-02 3.298771977424621582e-01 6.775125265121459961e-01
-1.056952178478240967e-01 -4.285207986831665039e-01 6.309312582015991211e-01
-2.809860706329345703e-01 -3.164083063602447510e-01 4.315685033798217773e-01
7.838849723339080811e-02 -6.019469723105430603e-02 -8.098405599594116211e-01
1.967627257108688354e-01 5.973563194274902344e-01 2.299852520227432251e-01
-1.040280461311340332e-01 6.193159222602844238e-01 2.392452508211135864e-01
1.198716536164283752e-01 5.872797966003417969e-01 -4.496028721332550049e-01
-1.243853494524955750e-01 1.114847734570503235e-01 -7.804802060127258301e-01
2.277308553457260132e-01 2.181431800127029419e-01 -6.173909306526184082e-01
1.874279975891113281e-01 9.065441787242889404e-02 6.865189075469970703e-01
-2.711238265037536621e-01 3.924162387847900391e-01 -1.851262301206588745e-01
-2.649427950382232666e-01 -4.168445989489555359e-02 -5.871449708938598633e-01
-3.528073132038116455e-01 -1.358343064785003662e-01 -2.162161618471145630e-01
5.699314549565315247e-02 -6.716955304145812988e-01 -1.148132756352424622e-01
-2.754941582679748535e-01 -5.298688411712646484e-01 6.365518085658550262e-03
-2.153750509023666382e-01 3.863808214664459229e-01 -4.599498212337493896e-01
1.938584148883819580e-01 -3.893653154373168945e-01 -4.603024423122406006e-01
2.452871054410934448e-01 2.730317413806915283e-01 5.282155871391296387e-01
3.056476116180419922e-01 2.229844778776168823e-01 -3.951544463634490967e-01
3.207338750362396240e-01 -1.944690644741058350e-01 -1.401483118534088135e-01
1.837129592895507812e-01 6.096830964088439941e-01 -2.796429693698883057e-01
-3.094034492969512939e-01 -1.975675970315933228e-01 -4.288703203201293945e-01
3.271930515766143799e-01 3.523091673851013184e-01 -7.051974534988403320e-02
3.001255393028259277e-01 -2.007630467414855957e-01 2.894883155822753906e-01
1.684687286615371704e-01 -4.690579771995544434e-01 4.034057259559631348e-01
2.108841538429260254e-01 6.203389763832092285e-01 -6.877771764993667603e-02
1.571374386548995972e-01 2.671395540237426758e-01 6.755093932151794434e-01
-2.247286289930343628e-01 -1.638826131820678711e-01 6.295007467269897461e-01
-1.052336618304252625e-01 -2.410054439678788185e-03 -8.087841868400573730e-01
3.362142741680145264e-01 -1.350679695606231689e-01 -4.787605255842208862e-02
2.259925752878189087e-01 -4.530610740184783936e-01 -2.080668061971664429e-01
-7.036787271499633789e-02 -3.154110610485076904e-01 7.259501814842224121e-01
2.210698127746582031e-01 3.005632162094116211e-01 -5.937486886978149414e-01
-7.019044458866119385e-02 -4.563489854335784912e-01 6.230062842369079590e-01
7.629061490297317505e-02 1.851904392242431641e-01 7.688753008842468262e-01
-3.424044847488403320e-01 -2.090551406145095825e-01 2.304726094007492065e-01
-2.435841262340545654e-01 2.288662195205688477e-01 -5.423690080642700195e-01
5.584424361586570740e-02 6.267105340957641602e-01 -4.208610951900482178e-01
-5.898728966712951660e-02 6.863985061645507812e-01 3.825550526380538940e-02
2.230279594659805298e-01 -2.816072106361389160e-01 -5.055170655250549316e-01
-2.099694758653640747e-01 4.125223159790039062e-01 3.917015492916107178e-01
3.459730744361877441e-01 1.523510664701461792e-01 1.567420065402984619e-01
8.817127346992492676e-02 -5.475874543190002441e-01 -4.359315633773803711e-01
-1.777721047401428223e-01 -4.294902980327606201e-01 5.582081675529479980e-01
-2.110900580883026123e-01 4.757377207279205322e-01 2.656038105487823486e-01
-4.360217601060867310e-02 3.029996454715728760e-01 7.199862599372863770e-01
2.421990633010864258e-01 -1.615628302097320557e-01 5.350319743156433105e-01
-2.029877156019210815e-02 3.231403529644012451e-01 7.159712314605712891e-01
-1.696849912405014038e-01 1.877932399511337280e-01 -7.055066227912902832e-01
-1.341943442821502686e-01 -4.687788188457489014e-01 -5.817086100578308105e-01
-1.130972579121589661e-01 6.500583291053771973e-01 -5.696280300617218018e-02
-1.394996941089630127e-01 -5.665514469146728516e-01 4.387798309326171875e-01
3.101026117801666260e-01 -2.485350221395492554e-01 -1.119907647371292114e-01
-2.407878637313842773e-01 1.220183596014976501e-01 5.713276267051696777e-01
2.874989211559295654e-01 1.321727484464645386e-01 4.666899144649505615e-01
-3.468932509422302246e-01 -2.124055288732051849e-02 -2.639733254909515381e-01
3.019692003726959229e-01 4.073829650878906250e-01 1.797329485416412354e-01
8.008164167404174805e-02 -3.955180756747722626e-03 7.926027774810791016e-01
3.189228475093841553e-01 1.411561965942382812e-01 3.434171378612518311e-01
-4.439818672835826874e-03 -3.196398913860321045e-02 8.150185942649841309e-01
2.219850867986679077e-01 -1.601432859897613525e-01 5.830593109130859375e-01
-2.199056893587112427e-01 -4.604535996913909912e-01 4.515528976917266846e-01
-5.747602134943008423e-02 6.554492712020874023e-01 -2.780700623989105225e-01
3.451084792613983154e-01 -4.296236485242843628e-02 -1.201664209365844727e-01
-5.614702776074409485e-02 6.181809902191162109e-01 3.366492092609405518e-01
-7.936334237456321716e-03 -5.482105612754821777e-01 5.181951522827148438e-01
2.895494401454925537e-01 4.536796808242797852e-01 1.561782956123352051e-01
2.802734971046447754e-01 5.001352429389953613e-01 5.044683814048767090e-02
2.847647368907928467e-01 2.404959946870803833e-01 -4.638946056365966797e-01
2.599633038043975830e-01 -4.106860458850860596e-01 -6.278377957642078400e-03
2.770826220512390137e-01 4.402146637439727783e-01 2.635373473167419434e-01
-2.034985274076461792e-01 -4.178455770015716553e-01 -5.434157848358154297e-01
2.402801439166069031e-02 3.040824830532073975e-01 -7.680377364158630371e-01
-2.502135634422302246e-01 4.378903806209564209e-01 1.489878445863723755e-01
-6.230892613530158997e-02 -6.783550977706909180e-01 -2.422951012849807739e-01
2.818678319454193115e-01 -2.514882981777191162e-01 3.209269642829895020e-01
-1.408452540636062622e-01 4.889594018459320068e-01 -4.902259409427642822e-01
-3.517643809318542480e-01 -2.425817400217056274e-01 1.019376292824745178e-01
3.365689814090728760e-01 -8.629129827022552490e-02 -1.701033562421798706e-01
3.300034403800964355e-01 1.769225448369979858e-01 2.714869379997253418e-01
3.544286489486694336e-01 1.056963950395584106e-01 -4.663609340786933899e-02
1.543629616498947144e-01 5.979764461517333984e-01 -3.789086937904357910e-01
-2.603161036968231201e-01 2.140896320343017578e-01 -5.069967508316040039e-01
1.287165880203247070e-01 -5.381054878234863281e-01 -3.743989169597625732e-01
-2.180714160203933716e-01 -3.508361279964447021e-01 5.573867559432983398e-01
3.495967090129852295e-01 -2.588506042957305908e-02 3.190327435731887817e-02
1.789495497941970825e-01 -4.223786294460296631e-01 -4.527981877326965332e-01
-1.856299340724945068e-01 3.486525714397430420e-01 -5.728364586830139160e-01
-3.354929685592651367e-01 -1.932158321142196655e-01 2.841357290744781494e-01
2.595596313476562500e-01 5.370572805404663086e-01 9.650880843400955200e-02
3.030471801757812500e-01 1.270871013402938843e-01 4.136279523372650146e-01
1.997741907835006714e-01 -5.277064442634582520e-01 3.702551499009132385e-02
2.439859360456466675e-01 -4.353058636188507080e-01 -1.263427138328552246e-01
-2.219918221235275269e-01 2.369846105575561523e-01 -5.880435705184936523e-01
2.561061382293701172e-01 -4.106305241584777832e-01 -1.109662875533103943e-01
-2.122170478105545044e-01 2.006118595600128174e-01 5.912674069404602051e-01
-3.664839267730712891e-02 -5.845746994018554688e-01 4.673019051551818848e-01
-3.576900362968444824e-01 -1.442639231681823730e-01 -1.606984138488769531e-01
2.324059456586837769e-01 -1.105404868721961975e-01 -5.961056947708129883e-01
3.305281996726989746e-01 -1.699187159538269043e-01 -2.276515588164329529e-02
-1.689433455467224121e-01 -2.593245208263397217e-01 -6.996421813964843750e-01
2.395793423056602478e-02 -2.035673409700393677e-01 -7.949036955833435059e-01
-2.181582301855087280e-01 -5.023297667503356934e-01 -4.109356403350830078e-01
-2.015650570392608643e-01 -3.762119412422180176e-01 -5.834679007530212402e-01
-4.841750860214233398e-02 -4.437454938888549805e-01 6.397922039031982422e-01
-2.004073262214660645e-01 2.238887846469879150e-01 -6.390691399574279785e-01
-1.225168481469154358e-01 -1.626981943845748901e-01 -7.771519422531127930e-01
-3.392195701599121094e-01 -1.887413412332534790e-01 2.640572786331176758e-01
1.722688376903533936e-01 6.069888472557067871e-01 2.757588624954223633e-01
1.235855147242546082e-01 -6.255744099617004395e-01 -3.448724374175071716e-02
1.775971800088882446e-01 -1.418725401163101196e-01 -6.854916214942932129e-01
1.393826305866241455e-01 4.732277691364288330e-01 5.424664616584777832e-01
-2.939636111259460449e-01 -2.236550748348236084e-01 -4.705589413642883301e-01
1.184434592723846436e-01 -1.175080984830856323e-01 -7.661816477775573730e-01
-1.406076103448867798e-01 1.142590120434761047e-01 -7.645176053047180176e-01
2.381446808576583862e-01 -3.370656669139862061e-01 -3.948732018470764160e-01
1.255349814891815186e-01 5.084272623062133789e-01 5.161748528480529785e-01
-2.887109518051147461e-01 -5.883272364735603333e-02 -5.241668820381164551e-01
-5.220105499029159546e-02 -4.652177095413208008e-01 -6.275427937507629395e-01
9.736400842666625977e-02 -2.225591838359832764e-01 -7.445971369743347168e-01
-1.461235731840133667e-01 -6.002981066703796387e-01 3.676503002643585205e-01
1.481146067380905151e-01 6.777992248535156250e-01 4.531312733888626099e-02
1.796913743019104004e-01 -5.504310727119445801e-01 1.189666911959648132e-01
-2.582821846008300781e-01 -5.542549490928649902e-01 9.574349969625473022e-02
1.228124722838401794e-01 6.667399406433105469e-01 2.016633599996566772e-01
3.187144100666046143e-01 -1.231650486588478088e-01 2.644175887107849121e-01
-1.970081925392150879e-01 -3.702271282672882080e-01 5.789647698402404785e-01
2.743946909904479980e-01 4.635885357856750488e-01 2.308205068111419678e-01
-1.635690331459045410e-01 -4.150491058826446533e-01 -6.032493114471435547e-01
-2.847648262977600098e-01 2.560673952102661133e-01 3.366401195526123047e-01
-9.024374932050704956e-02 3.603332936763763428e-01 -6.919232606887817383e-01
2.279986143112182617e-01 3.503584265708923340e-01 5.157253146171569824e-01
-3.387060165405273438e-01 -2.974158227443695068e-01 -1.854056715965270996e-01
2.892896831035614014e-01 1.265378892421722412e-01 -4.836804270744323730e-01
1.183255314826965332e-01 9.640488773584365845e-02 -7.870987653732299805e-01
1.421180218458175659e-01 6.842881441116333008e-01 -3.975094482302665710e-02
-1.174985989928245544e-02 5.211818218231201172e-01 -5.835299491882324219e-01
9.861393272876739502e-02 5.340499877929687500e-01 5.059610605239868164e-01
1.294777989387512207e-01 6.771299242973327637e-01 -1.856964230537414551e-01
-3.473023474216461182e-01 -2.984256148338317871e-01 -2.031183987855911255e-02
1.680017560720443726e-01 1.435312926769256592e-01 -7.298737764358520508e-01
2.513175904750823975e-01 5.616479516029357910e-01 1.037791837006807327e-02
6.409565359354019165e-02 -6.299817562103271484e-01 -2.856743335723876953e-01
-3.419334888458251953e-01 -2.338103204965591431e-01 2.141056507825851440e-01
-3.440196216106414795e-01 -1.282173842191696167e-01 -2.855914235115051270e-01
2.866547405719757080e-01 -3.060291111469268799e-01 1.893876343965530396e-01
3.193963468074798584e-01 -2.045980989933013916e-01 1.203770413994789124e-01
-1.319307684898376465e-01 -3.567738533020019531e-01 6.651296615600585938e-01
-1.641911864280700684e-01 2.981491014361381531e-02 -7.537512779235839844e-01
-2.843305468559265137e-01 -1.116614639759063721e-01 -5.331383347511291504e-01
9.604291617870330811e-02 5.327080190181732178e-02 7.819774746894836426e-01
-4.749549087136983871e-03 -6.136092543601989746e-01 4.053348600864410400e-01
-2.696395218372344971e-01 -5.089515447616577148e-01 -2.093184441328048706e-01
-1.889292895793914795e-01 -3.640233576297760010e-01 5.956140160560607910e-01
2.688961103558540344e-02 4.557376503944396973e-01 -6.601278185844421387e-01
2.770172432065010071e-02 7.058433890342712402e-01 -1.588688641786575317e-01
2.841370701789855957e-01 -3.469409942626953125e-01 1.669868081808090210e-02
-3.209995329380035400e-01 -3.881301581859588623e-01 -1.579159796237945557e-01
1.416646838188171387e-01 -2.505428791046142578e-01 6.703631281852722168e-01
2.136560231447219849e-01 -4.891563653945922852e-01 1.562904864549636841e-01
1.863698363304138184e-01 -1.541801691055297852e-01 6.524502038955688477e-01
4.171608388423919678e-02 6.301983594894409180e-01 3.683331906795501709e-01
2.934923171997070312e-01 -1.173107847571372986e-01 3.971649706363677979e-01
8.949536830186843872e-03 -4.924374520778656006e-01 5.835193395614624023e-01
1.634509414434432983e-01 6.410238146781921387e-01 1.947599053382873535e-01
-2.342956513166427612e-01 4.644670784473419189e-01 1.718005836009979248e-01
-1.851200908422470093e-01 4.890174865722656250e-01 -3.816073536872863770e-01
-3.459032177925109863e-01 -2.924658656120300293e-01 -1.036278903484344482e-01
-2.038292139768600464e-01 3.447337448596954346e-02 -6.994442939758300781e-01
-4.623600840568542480e-02 -6.042898893356323242e-01 -4.355694651603698730e-01
-4.926379024982452393e-02 -1.789566427469253540e-01 -8.067855238914489746e-01
-1.322692930698394775e-01 5.476661324501037598e-01 -4.049048721790313721e-01
2.630250453948974609e-01 -3.346207439899444580e-01 -2.894635498523712158e-01
3.351904749870300293e-01 -5.398213118314743042e-02 2.074893563985824585e-01
-2.042811214923858643e-01 5.029054880142211914e-01 -2.728959619998931885e-01
-1.323047727346420288e-01 -5.788150429725646973e-01 -4.331391751766204834e-01
8.132447302341461182e-02 -3.040080964565277100e-01 -7.118005156517028809e-01
2.523637562990188599e-02 -6.348202228546142578e-01 -3.326666653156280518e-01
2.244442701339721680e-01 5.103929042816162109e-01 -3.769069612026214600e-01
2.774268686771392822e-01 9.270009398460388184e-02 5.022572278976440430e-01
-6.477643549442291260e-02 5.840455293655395508e-01 3.990778625011444092e-01
-5.984563380479812622e-02 -6.468186378479003906e-01 3.385269045829772949e-01
-3.054559528827667236e-01 -2.353120446205139160e-01 -4.248348474502563477e-01
-2.494051754474639893e-01 3.474107943475246429e-03 -6.192556619644165039e-01
-1.640066355466842651e-01 -3.386538475751876831e-02 -7.568016052246093750e-01
-2.234239429235458374e-01 4.528379440307617188e-01 -3.150833547115325928e-01
-3.557395637035369873e-01 -7.877732068300247192e-02 1.668772697448730469e-01
-3.634249567985534668e-01 -3.561877831816673279e-02 -5.146287009119987488e-02
2.181536704301834106e-01 5.593990683555603027e-01 -2.977226376533508301e-01
-3.076241016387939453e-01 -4.538482129573822021e-01 2.477554604411125183e-03
-3.485395014286041260e-01 -1.917233169078826904e-01 -2.222677320241928101e-01
-1.790825277566909790e-01 -6.583707332611083984e-01 -3.582850843667984009e-02
-1.415463238954544067e-01 6.215854883193969727e-01 2.865479141473770142e-02
-7.465863972902297974e-02 5.384013056755065918e-01 -5.147078037261962891e-01
3.165720403194427490e-01 -2.151628136634826660e-01 -1.352473199367523193e-01
-1.597297191619873047e-01 5.913077592849731445e-01 1.159428730607032776e-01
2.623717784881591797e-01 -8.633220195770263672e-02 5.166166424751281738e-01
5.365514010190963745e-02 -6.713371276855468750e-01 1.346337348222732544e-01
-1.299138814210891724e-01 9.775762259960174561e-02 7.460271120071411133e-01
3.323626816272735596e-01 -1.597060710191726685e-01 1.742453128099441528e-02
3.408524990081787109e-01 8.162406086921691895e-02 2.194395959377288818e-01
1.424252390861511230e-01 6.763750314712524414e-01 9.403555095195770264e-02
2.046592980623245239e-01 -5.204603672027587891e-01 1.414821203798055649e-02
8.160134404897689819e-02 6.533073782920837402e-01 2.972776889801025391e-01
3.897611424326896667e-02 -5.257549136877059937e-02 8.072047829627990723e-01
-3.179325759410858154e-01 3.842119127511978149e-02 -4.037890136241912842e-01
1.405405700206756592e-01 2.047288566827774048e-01 7.174239158630371094e-01
2.092245370149612427e-01 -1.276130229234695435e-01 -6.370494365692138672e-01
-2.998024225234985352e-01 2.311820834875106812e-01 2.959008216857910156e-01
-2.089318484067916870e-01 -5.631257891654968262e-01 3.127309978008270264e-01
9.755972772836685181e-02 -2.376230359077453613e-01 7.237183451652526855e-01
2.675602138042449951e-01 -2.982797920703887939e-01 3.236104846000671387e-01
2.740713953971862793e-01 1.565428636968135834e-02 -5.277087688446044922e-01
-2.397692799568176270e-01 -2.089368700981140137e-01 -6.126722097396850586e-01
-3.330444395542144775e-01 -3.037337958812713623e-01 2.016138136386871338e-01
-2.891913056373596191e-01 3.659010827541351318e-01 -3.648893535137176514e-02
1.293684840202331543e-01 -3.207183778285980225e-01 6.403934359550476074e-01
6.558922678232192993e-02 -3.095291554927825928e-01 7.087692618370056152e-01
3.460523188114166260e-01 -6.250200420618057251e-02 -4.715579375624656677e-02
-2.382243573665618896e-01 4.820942580699920654e-01 -7.128945738077163696e-02
2.832691669464111328e-01 -1.348212659358978271e-01 4.255143702030181885e-01
-3.587750792503356934e-01 -2.046497911214828491e-01 -6.234124302864074707e-02
3.142392039299011230e-01 1.485405117273330688e-01 -3.849897682666778564e-01
2.963822782039642334e-01 3.691392540931701660e-01 2.807705104351043701e-01
-1.885409951210021973e-01 1.219836249947547913e-01 6.678821444511413574e-01
-9.075491875410079956e-02 6.627651453018188477e-01 -1.290933340787887573e-01
-3.499002754688262939e-01 -2.788756489753723145e-01 -5.741609260439872742e-02
-1.230006590485572815e-01 -3.621340692043304443e-01 -6.834638714790344238e-01
3.358094096183776855e-01 3.131153285503387451e-01 6.174874491989612579e-03
-3.092143237590789795e-01 3.044714331626892090e-01 -1.618470065295696259e-03
2.909983992576599121e-01 -2.555979192256927490e-01 2.638756930828094482e-01
4.624134674668312073e-02 3.976494669914245605e-01 6.670301556587219238e-01
-2.215559035539627075e-01 2.916426360607147217e-01 -5.469235777854919434e-01
1.790247485041618347e-02 5.782253742218017578e-01 4.641125500202178955e-01
-3.061989545822143555e-01 -3.480632007122039795e-01 3.057963848114013672e-01
-2.180169895291328430e-02 1.932615935802459717e-01 -8.116117119789123535e-01
-1.630380600690841675e-01 3.968364596366882324e-01 5.215932130813598633e-01
-2.369687110185623169e-01 4.273554086685180664e-01 -3.106068372726440430e-01
2.041418999433517456e-01 3.863939940929412842e-01 -5.674291253089904785e-01
2.081260830163955688e-01 1.442141979932785034e-01 -6.714258193969726562e-01
2.149768471717834473e-01 1.096681803464889526e-01 -6.640569567680358887e-01
-1.969498842954635620e-01 5.427017807960510254e-01 -1.577540934085845947e-01
-2.440758496522903442e-01 4.560594558715820312e-01 -1.759014129638671875e-01
-3.061705529689788818e-01 -4.370860755443572998e-01 -1.553210616111755371e-01
7.639262825250625610e-02 -6.643835306167602539e-01 -5.805952847003936768e-02
2.834003269672393799e-01 4.078215956687927246e-01 -3.202480375766754150e-01
-3.366097807884216309e-01 7.031205296516418457e-02 -2.871728539466857910e-01
-4.299900308251380920e-02 -7.000901103019714355e-01 -1.371979862451553345e-01
3.282206952571868896e-01 -1.813193857669830322e-01 -3.201820328831672668e-02
2.411095798015594482e-01 5.634342432022094727e-01 -1.689531505107879639e-01
2.418613284826278687e-01 -1.003473326563835144e-01 5.640236735343933105e-01
-1.195067912340164185e-01 -6.026199460029602051e-01 3.968181908130645752e-01
-8.479407429695129395e-02 1.230880897492170334e-02 -8.205607533454895020e-01
3.273877799510955811e-01 -1.846603304147720337e-01 3.303771093487739563e-02
8.242324739694595337e-02 4.289791882038116455e-01 6.289523243904113770e-01
1.895500123500823975e-01 -2.627840042114257812e-01 5.874205827713012695e-01
-3.357447385787963867e-01 -1.147250086069107056e-01 3.073122501373291016e-01
2.113323807716369629e-01 5.359237790107727051e-01 -3.694429993629455566e-01
-2.679779827594757080e-01 3.578466773033142090e-01 2.546478211879730225e-01
-2.739864289760589600e-01 1.477084457874298096e-01 4.714526534080505371e-01
-1.134367808699607849e-01 -2.224977314472198486e-01 7.445891499519348145e-01
-2.208279967308044434e-01 -3.631651699542999268e-01 5.432172417640686035e-01
-9.724371880292892456e-02 3.055215179920196533e-01 -7.234437465667724609e-01
-3.620418906211853027e-01 -4.766773059964179993e-02 -1.057300716638565063e-01
2.686002254486083984e-01 -1.300835162401199341e-01 4.779866337776184082e-01
-1.754855215549468994e-01 -2.045761197805404663e-01 6.917626857757568359e-01
1.993022561073303223e-01 4.166230559349060059e-03 -6.891027688980102539e-01
1.196096539497375488e-01 6.913618743419647217e-02 -7.878862023353576660e-01
2.924396395683288574e-01 4.263290166854858398e-01 2.048057466745376587e-01
2.752948403358459473e-01 -3.709598183631896973e-01 -3.551208227872848511e-02
5.664543434977531433e-02 6.148395538330078125e-01 -4.443774223327636719e-01
-3.516196608543395996e-01 6.313090771436691284e-02 -1.586110442876815796e-01
2.374910265207290649e-01 3.156292140483856201e-01 -5.505110025405883789e-01
-1.730883568525314331e-01 -6.283038854598999023e-01 2.406582087278366089e-01
-9.738858789205551147e-02 9.910015016794204712e-02 -8.037227988243103027e-01
2.452456504106521606e-01 -4.256531596183776855e-01 -1.593724340200424194e-01
-1.672173291444778442e-01 4.169498383998870850e-01 4.901113510131835938e-01
-1.529615521430969238e-01 3.830007314682006836e-01 5.535752773284912109e-01
3.124304711818695068e-01 1.102582737803459167e-01 -3.988443315029144287e-01
1.204069778323173523e-01 -6.489478796720504761e-02 -7.771380543708801270e-01
-3.556447923183441162e-01 6.030915305018424988e-02 5.491925776004791260e-02
-7.998550310730934143e-03 8.848273754119873047e-02 8.073976635932922363e-01
-2.484839707612991333e-01 -1.922479420900344849e-01 -6.008100509643554688e-01
-3.334770500659942627e-01 -1.903643906116485596e-01 2.968868017196655273e-01
-1.914703100919723511e-01 4.094969034194946289e-01 -4.923983812332153320e-01
2.004648447036743164e-01 -5.274339318275451660e-01 1.318990252912044525e-03
1.948522925376892090e-01 -9.651477634906768799e-02 6.584554910659790039e-01
2.377987802028656006e-01 -4.421766400337219238e-01 -1.573086231946945190e-01
2.640204429626464844e-01 3.283442854881286621e-01 -4.737137556076049805e-01
-7.260973751544952393e-02 2.774030528962612152e-02 -8.258259892463684082e-01
2.763406634330749512e-01 -2.530539631843566895e-01 3.452945053577423096e-01
-3.570683598518371582e-01 -3.799510374665260315e-02 1.432704180479049683e-01
3.040361106395721436e-01 -2.725261449813842773e-01 1.013122424483299255e-01
-3.369324207305908203e-01 -3.511018753051757812e-01 -2.169397473335266113e-02
-1.216262578964233398e-01 5.100705623626708984e-01 4.443832039833068848e-01
-3.453454375267028809e-01 -7.761378586292266846e-02 -2.833999991416931152e-01
3.397300541400909424e-01 2.808818817138671875e-01 -8.570963889360427856e-02
2.277253717184066772e-01 1.618083417415618896e-01 6.078560948371887207e-01
-2.618377804756164551e-01 -4.654179811477661133e-01 -3.407823443412780762e-01
-3.082360923290252686e-01 -4.172067046165466309e-01 1.777270287275314331e-01
1.569018363952636719e-01 3.458355963230133057e-01 -6.657130122184753418e-01
-2.813753187656402588e-01 -2.237855941057205200e-01 -5.084397792816162109e-01
3.072076439857482910e-01 3.604996800422668457e-01 2.327687144279479980e-01
-4.861210286617279053e-02 -3.360262215137481689e-01 7.199156284332275391e-01
3.190150260925292969e-01 -1.998030096292495728e-01 1.394009888172149658e-01
1.991032212972640991e-01 -5.140277743339538574e-01 1.569203734397888184e-01
4.365009441971778870e-02 5.656564831733703613e-01 -5.297616720199584961e-01
-3.230713307857513428e-01 -1.090344041585922241e-01 3.693791329860687256e-01
-2.939135134220123291e-01 -2.951501607894897461e-01 -4.265292882919311523e-01
-1.171305328607559204e-01 2.181807458400726318e-01 -7.517611980438232422e-01
-3.553086221218109131e-01 -1.228827461600303650e-01 -1.968082934617996216e-01
-3.359630703926086426e-01 -1.401598900556564331e-01 -3.304764032363891602e-01
3.342590630054473877e-01 9.109107404947280884e-02 -2.857080996036529541e-01
1.771451830863952637e-01 4.487177729606628418e-01 5.193631649017333984e-01
-1.495726555585861206e-01 5.473590493202209473e-01 -3.615778386592864990e-01
6.025812402367591858e-02 -2.659310698509216309e-01 7.364263534545898438e-01
1.163033768534660339e-01 -1.810319572687149048e-01 -7.458239793777465820e-01
-1.760855875909328461e-02 -7.065811157226562500e-01 3.693394735455513000e-02
2.916013896465301514e-01 -1.691085398197174072e-01 -3.763178586959838867e-01
-2.862829864025115967e-01 -1.784059703350067139e-01 4.858446121215820312e-01
-1.703021973371505737e-01 5.871378779411315918e-01 -9.658445417881011963e-02
3.119907081127166748e-01 -2.469317466020584106e-01 -8.401607722043991089e-02
3.161391913890838623e-01 3.993237316608428955e-01 2.243288233876228333e-02
-4.274545982480049133e-02 -6.671293377876281738e-01 -2.832526862621307373e-01
8.186376839876174927e-02 3.952049911022186279e-01 -6.949571371078491211e-01
-2.334769219160079956e-01 4.793149828910827637e-01 1.146950349211692810e-01
3.226720988750457764e-01 -2.090304046869277954e-01 -7.963657379150390625e-03
-3.057217225432395935e-02 6.456477642059326172e-01 2.975943982601165771e-01
2.601450383663177490e-01 -3.633443117141723633e-01 -2.437392771244049072e-01
1.949464678764343262e-01 6.122232675552368164e-01 1.876816749572753906e-01
-2.950922250747680664e-01 2.104334831237792969e-01 -3.848941326141357422e-01
1.749930530786514282e-01 2.053719758987426758e-01 6.786726713180541992e-01
-3.332073986530303955e-01 -1.726745814085006714e-01 -3.338028192520141602e-01
-3.546872437000274658e-01 -1.320317089557647705e-01 1.698386967182159424e-01
-1.810022443532943726e-01 -2.657205164432525635e-01 -6.821943521499633789e-01
1.717214584350585938e-01 -2.941071093082427979e-01 5.969154834747314453e-01
-3.066575825214385986e-01 -4.514773786067962646e-01 -8.190229535102844238e-02
2.073945552110671997e-01 4.362791478633880615e-01 -5.156145691871643066e-01
1.552556753158569336e-01 -2.436481416225433350e-01 6.560064554214477539e-01
2.802670598030090332e-01 -2.182491719722747803e-01 -3.767045140266418457e-01
