5.072417855262756348e-01 -3.323015868663787842e-01 -2.812044695019721985e-02
-5.932037830352783203e-01 -3.900306299328804016e-03 6.999295949935913086e-02
-1.939469575881958008e-02 1.540904194116592407e-01 7.807648777961730957e-01
-5.667160749435424805e-01 -2.167691588401794434e-01 -1.598873734474182129e-02
-5.461204648017883301e-01 -1.732700616121292114e-01 -2.344680577516555786e-01
5.863106250762939453e-01 5.279581248760223389e-02 -6.333477050065994263e-02
-5.168849825859069824e-01 -2.078321576118469238e-01 -3.023893833160400391e-01
4.732508659362792969e-01 3.115498125553131104e-01 3.266334831714630127e-01
-2.269833385944366455e-01 4.526262581348419189e-01 5.266345739364624023e-01
3.551872074604034424e-01 -4.672419130802154541e-01 -3.027118444442749023e-01
3.670841753482818604e-01 -2.410130798816680908e-01 5.487402677536010742e-01
6.498226523399353027e-02 -4.051807522773742676e-01 -6.215486526489257812e-01
-5.392738059163093567e-02 3.823013603687286377e-01 6.663250327110290527e-01
-5.799775123596191406e-01 1.430703252553939819e-01 1.374630536884069443e-02
4.318955242633819580e-01 -4.162796735763549805e-01 2.137187272310256958e-01
-1.893821358680725098e-01 2.909785807132720947e-01 6.834655404090881348e-01
1.394398659467697144e-01 -4.495838582515716553e-01 -5.546726584434509277e-01
-2.733089923858642578e-01 3.596756458282470703e-01 -5.593119263648986816e-01
-5.902802348136901855e-01 -2.019175142049789429e-02 -7.794702798128128052e-02
-4.135258793830871582e-01 4.899675846099853516e-01 -4.183493554592132568e-02
-1.594252586364746094e-01 -5.080271363258361816e-01 -4.813717603683471680e-01
3.655568063259124756e-01 5.540630221366882324e-01 2.464058995246887207e-02
-5.123969316482543945e-01 3.409323692321777344e-01 -3.510821610689163208e-02
-2.358376383781433105e-01 -6.215550899505615234e-01 -1.430486440658569336e-01
-6.447444856166839600e-02 1.228753924369812012e-01 7.843471765518188477e-01
4.574150741100311279e-01 4.195837080478668213e-01 -1.839363723993301392e-01
-9.852322190999984741e-02 5.706933140754699707e-01 4.393436908721923828e-01
1.759406924247741699e-01 -5.355717539787292480e-01 -4.177577197551727295e-01
3.421081602573394775e-02 5.184263586997985840e-01 -5.232875347137451172e-01
4.884155690670013428e-01 -2.936087362468242645e-02 4.395108520984649658e-01
-5.893502831459045410e-01 3.716282546520233154e-02 1.065789684653282166e-01
3.649419844150543213e-01 4.053955376148223877e-01 4.294781088829040527e-01
-1.809304356575012207e-01 -5.353057384490966797e-01 4.531250596046447754e-01
3.688457608222961426e-01 -4.965230822563171387e-01 1.995941400527954102e-01
7.636439800262451172e-02 -5.998544692993164062e-01 3.743603825569152832e-01
7.565722800791263580e-03 -6.783284544944763184e-01 -1.091006770730018616e-01
5.886790752410888672e-01 8.710695430636405945e-03 -1.706399396061897278e-02
-9.508650749921798706e-02 -7.674626260995864868e-02 -7.677100300788879395e-01
-5.436609387397766113e-01 -4.122765362262725830e-02 -3.033634126186370850e-01
-2.920608520507812500e-01 4.639991521835327148e-01 -4.276516437530517578e-01
-5.323109030723571777e-01 -3.051645755767822266e-01 -8.003411442041397095e-02
4.096703529357910156e-01 9.605574607849121094e-02 5.619710087776184082e-01
4.997888505458831787e-01 3.796638846397399902e-01 -4.354104027152061462e-02
-5.826552510261535645e-01 1.236180886626243591e-01 -2.567697688937187195e-02
-2.428495287895202637e-01 -2.641421854496002197e-01 6.710231900215148926e-01
-3.805351555347442627e-01 5.041202306747436523e-01 1.901745945215225220e-01
5.712758898735046387e-01 9.766226261854171753e-02 -1.696894913911819458e-01
1.977179348468780518e-01 -5.534947663545608521e-02 -7.363589406013488770e-01
-2.945058941841125488e-01 2.399803251028060913e-01 6.421254873275756836e-01
1.341911852359771729e-01 1.315097063779830933e-01 -7.521102428436279297e-01
2.153181284666061401e-01 -5.384936332702636719e-01 -3.767805993556976318e-01
4.850951731204986572e-01 2.976405918598175049e-01 3.112908303737640381e-01
4.836212694644927979e-01 -1.144633162766695023e-03 -4.496252834796905518e-01
2.617626786231994629e-01 -5.943517684936523438e-01 1.501259654760360718e-01
1.597304493188858032e-01 -1.148680299520492554e-01 7.546454071998596191e-01
4.720704853534698486e-01 -8.080115914344787598e-02 -4.578965604305267334e-01
5.653326511383056641e-01 1.670104116201400757e-01 -1.421177536249160767e-01
-2.006310969591140747e-01 -4.326428771018981934e-01 5.710362195968627930e-01
-2.102971309795975685e-03 -4.346255064010620117e-01 -6.020807623863220215e-01
-4.328330457210540771e-01 -2.972610294818878174e-01 -4.144370555877685547e-01
-2.965666949748992920e-01 5.000860691070556641e-01 -3.652904033660888672e-01
2.628686726093292236e-01 -5.642371773719787598e-01 -2.510675787925720215e-01
5.394248962402343750e-01 -9.871649742126464844e-02 2.881008684635162354e-01
-5.069432854652404785e-01 1.586073189973831177e-01 3.831982612609863281e-01
-9.466116875410079956e-02 3.121844828128814697e-01 7.056068778038024902e-01
-3.766937255859375000e-01 -4.473572373390197754e-01 -3.305825293064117432e-01
8.033683151006698608e-02 -5.251878499984741211e-01 5.025103092193603516e-01
-4.259107112884521484e-01 3.448194861412048340e-01 3.940784633159637451e-01
2.430208027362823486e-01 -5.856344103813171387e-01 -2.219211310148239136e-01
-5.753491520881652832e-01 -8.140648156404495239e-02 1.990943700075149536e-01
5.126151815056800842e-02 6.869962215423583984e-01 -1.093895360827445984e-01
3.450418710708618164e-01 -4.782092571258544922e-01 -3.011394441127777100e-01
5.609375238418579102e-01 -1.766882985830307007e-01 -8.829132467508316040e-02
-1.731157898902893066e-01 -4.255227446556091309e-01 -5.687199234962463379e-01
-3.195172846317291260e-01 2.245085984468460083e-01 6.280358433723449707e-01
3.145620524883270264e-01 3.915511071681976318e-02 6.712157130241394043e-01
6.614238768815994263e-02 4.699264764785766602e-01 -5.751022696495056152e-01
-3.331743925809860229e-02 -2.612155079841613770e-01 7.400341033935546875e-01
-4.677881598472595215e-01 -4.329443275928497314e-01 5.545962229371070862e-02
4.617721736431121826e-01 -3.682847917079925537e-01 -2.134979963302612305e-01
9.599569439888000488e-02 -2.394379824399948120e-01 7.357945442199707031e-01
-1.698292791843414307e-02 6.952459812164306641e-01 7.042879704385995865e-03
1.202741563320159912e-01 -5.971741080284118652e-01 3.549293577671051025e-01
-4.654309749603271484e-01 -4.310777187347412109e-01 1.027663648128509521e-01
2.767161726951599121e-01 -9.781914204359054565e-02 -6.826303601264953613e-01
1.790626645088195801e-01 -6.541085243225097656e-02 7.547061443328857422e-01
-2.477906346321105957e-01 5.610505938529968262e-01 -3.139386177062988281e-01
1.636642515659332275e-01 5.588884949684143066e-01 -4.210883080959320068e-01
4.894179701805114746e-01 3.035021722316741943e-01 -2.920539081096649170e-01
3.675260245800018311e-01 4.974046349525451660e-01 -2.718262970447540283e-01
2.698404788970947266e-01 -2.007103860378265381e-01 6.646771430969238281e-01
-3.870454849675297737e-03 2.307780534029006958e-01 7.557850480079650879e-01
4.122838079929351807e-01 -6.346821039915084839e-02 -5.551807880401611328e-01
-3.796246647834777832e-01 2.841967046260833740e-01 5.258007049560546875e-01
5.474198460578918457e-01 -2.355509549379348755e-01 2.068448066711425781e-02
-1.305674612522125244e-01 -3.784792423248291016e-01 6.506857872009277344e-01
-3.863324522972106934e-01 5.127085447311401367e-01 1.221903786063194275e-01
-3.947454094886779785e-01 5.076487660408020020e-01 -7.264439761638641357e-02
3.258167505264282227e-01 -1.980978995561599731e-02 -6.544568538665771484e-01
-1.867369562387466431e-02 -5.021475553512573242e-01 -5.287203192710876465e-01
-3.746043145656585693e-01 -3.025931417942047119e-01 5.275631546974182129e-01
1.639704406261444092e-01 -5.121932029724121094e-01 -4.629454016685485840e-01
3.698280155658721924e-01 5.042708516120910645e-01 -2.493333965539932251e-01
-3.205831050872802734e-01 -4.991918802261352539e-01 3.658828437328338623e-01
4.607810974121093750e-01 1.294404640793800354e-02 -4.910309612751007080e-01
6.812750361859798431e-03 -6.745536923408508301e-01 -1.348432749509811401e-01
-2.829041182994842529e-01 -4.042652845382690430e-01 5.377863049507141113e-01
4.600882530212402344e-01 -3.813412040472030640e-02 -4.881021082401275635e-01
-3.048132359981536865e-01 2.363849133253097534e-01 -6.123305559158325195e-01
5.300148129463195801e-01 -2.400193363428115845e-01 -1.761688292026519775e-01
-2.713268622756004333e-02 -4.846980869770050049e-01 -5.491300821304321289e-01
-3.131409585475921631e-01 4.089030325412750244e-01 -4.709799885749816895e-01
4.727933108806610107e-01 4.273655414581298828e-01 -1.290825195610523224e-03
2.481791079044342041e-01 -4.291186332702636719e-01 -5.044277310371398926e-01
3.994574248790740967e-01 -3.316668570041656494e-01 -4.210218787193298340e-01
2.443806678056716919e-01 -6.047112941741943359e-01 1.504683345556259155e-01
5.298367142677307129e-01 -6.165309995412826538e-02 3.333491384983062744e-01
4.620800614356994629e-01 -3.077255487442016602e-01 3.227131962776184082e-01
5.737050175666809082e-01 2.474595420062541962e-02 1.776821017265319824e-01
1.610084772109985352e-01 6.712933778762817383e-01 5.356843397021293640e-02
1.400671992450952530e-02 1.073794588446617126e-01 7.905730605125427246e-01
-3.738035261631011963e-01 -4.864720404148101807e-01 2.904852628707885742e-01
-1.247079968452453613e-01 3.522019386291503906e-01 -6.546325087547302246e-01
2.740598917007446289e-01 -3.661025166511535645e-01 -5.450977087020874023e-01
2.766766548156738281e-01 6.514959037303924561e-03 -6.943557858467102051e-01
-1.622323393821716309e-01 -5.619854927062988281e-01 -3.951776325702667236e-01
-4.961527287960052490e-01 -1.241986528038978577e-01 -4.009777903556823730e-01
4.287279844284057617e-01 2.932870686054229736e-01 -4.376980066299438477e-01
2.191343754529953003e-01 -4.361003637313842773e-01 -5.206815004348754883e-01
-5.107024908065795898e-01 -3.624162077903747559e-01 6.150462199002504349e-03
-2.704056799411773682e-01 5.039120912551879883e-01 -3.940333724021911621e-01
2.490656375885009766e-01 -5.854762792587280273e-01 2.231781631708145142e-01
1.227131038904190063e-01 -5.154610872268676758e-01 -4.816273450851440430e-01
-5.275942087173461914e-01 2.528363764286041260e-01 -1.964082717895507812e-01
3.461903333663940430e-01 -5.430600643157958984e-01 -4.868186637759208679e-02
4.468607902526855469e-01 1.936594583094120026e-02 5.163406133651733398e-01
-9.944316744804382324e-02 -1.945755183696746826e-01 -7.382555007934570312e-01
4.924932420253753662e-01 8.705191314220428467e-02 4.263372719287872314e-01
3.910126686096191406e-01 4.544031322002410889e-01 -3.076761662960052490e-01
-8.615878224372863770e-02 3.051880002021789551e-01 -6.955015063285827637e-01
2.691320329904556274e-02 1.618712544441223145e-01 7.776203155517578125e-01
-2.074661850929260254e-02 -6.866376996040344238e-01 -1.922558061778545380e-03
-5.590654015541076660e-01 -7.593119889497756958e-02 2.755359709262847900e-01
1.656184345483779907e-01 -6.385523676872253418e-01 1.705096811056137085e-01
-4.513494074344635010e-01 3.758063614368438721e-01 2.872720062732696533e-01
5.497045516967773438e-01 -6.541366130113601685e-02 -2.665507495403289795e-01
4.334740042686462402e-01 -2.576363682746887207e-01 -4.315641820430755615e-01
-4.198261350393295288e-02 5.164031982421875000e-01 -5.221202969551086426e-01
-4.739155471324920654e-01 -2.561936676502227783e-01 -3.692318797111511230e-01
-6.367007642984390259e-02 -6.610664725303649902e-01 2.151415050029754639e-01
-1.100912317633628845e-02 3.115459084510803223e-01 7.165994644165039062e-01
-3.820982873439788818e-01 4.866420626640319824e-01 -2.179986685514450073e-01
-2.877144217491149902e-01 5.537495613098144531e-01 -2.655352652072906494e-01
4.200864136219024658e-01 -3.627797216176986694e-02 5.530284047126770020e-01
-4.821191430091857910e-01 9.548248350620269775e-02 4.641050696372985840e-01
2.070977836847305298e-01 -2.575302720069885254e-01 -6.684735417366027832e-01
-4.359548911452293396e-04 -5.056765675544738770e-01 5.442729592323303223e-01
2.211150079965591431e-01 3.297395110130310059e-01 6.387271881103515625e-01
-4.695122838020324707e-01 3.836856186389923096e-01 2.055115848779678345e-01
-4.447854459285736084e-01 -6.529324501752853394e-02 -5.078482627868652344e-01
-1.954863220453262329e-01 -6.411248445510864258e-01 1.592542231082916260e-01
-3.481027483940124512e-01 4.603674411773681641e-01 -3.505910038948059082e-01
5.211830139160156250e-01 -2.143835872411727905e-01 2.558741271495819092e-01
2.189349830150604248e-01 5.829790234565734863e-01 3.314587175846099854e-01
-4.225072264671325684e-01 -4.873688220977783203e-01 1.001859903335571289e-01
-8.238240331411361694e-02 3.702883422374725342e-02 7.931224703788757324e-01
5.636025667190551758e-01 -7.818792760372161865e-02 2.006464153528213501e-01
3.660294115543365479e-01 -5.136719942092895508e-01 -1.313530802726745605e-01
-3.560066223144531250e-01 2.626827359199523926e-01 -5.452858805656433105e-01
2.986545264720916748e-01 6.007067561149597168e-01 -9.512765705585479736e-02
-3.028617799282073975e-01 -2.956829369068145752e-01 -5.811668634414672852e-01
-4.906935393810272217e-01 -1.612197011709213257e-01 4.279009103775024414e-01
1.374372243881225586e-01 -5.135741829872131348e-01 -4.767979681491851807e-01
-3.334262967109680176e-01 8.017292618751525879e-02 -6.376217603683471680e-01
2.662951350212097168e-01 -3.145674169063568115e-01 6.040413975715637207e-01
4.974462091922760010e-01 6.140565499663352966e-03 4.236522018909454346e-01
4.436977207660675049e-02 2.289121747016906738e-01 -7.407543659210205078e-01
5.718529224395751953e-03 1.645485162734985352e-01 7.779998183250427246e-01
-3.615666329860687256e-01 1.998268216848373413e-01 5.975269079208374023e-01
4.164778292179107666e-01 -1.044998094439506531e-01 -5.396667122840881348e-01
3.385397195816040039e-01 -3.146110475063323975e-02 6.483229398727416992e-01
-1.391824334859848022e-01 6.687615513801574707e-01 1.021970435976982117e-01
2.431552857160568237e-01 -6.085595488548278809e-02 -7.112234234809875488e-01
-2.246560603380203247e-01 -6.414489150047302246e-01 -3.445067442953586578e-03
3.095752000808715820e-01 -4.122808575630187988e-02 6.737083196640014648e-01
-5.771842598915100098e-01 -1.472782939672470093e-01 1.235608011484146118e-01
5.346363186836242676e-01 -2.677877545356750488e-01 5.329979211091995239e-02
-5.038152337074279785e-01 -1.370767354965209961e-01 4.104563891887664795e-01
1.970869451761245728e-01 -3.377697169780731201e-01 -6.241653561592102051e-01
-2.873653471469879150e-01 -5.872236490249633789e-01 1.964438557624816895e-01
-2.972219288349151611e-01 -5.179362297058105469e-01 3.655754029750823975e-01
-5.788552165031433105e-01 -4.052787274122238159e-02 -1.613942980766296387e-01
-1.738379746675491333e-01 -1.374623328447341919e-01 7.528479099273681641e-01
-5.768170356750488281e-01 -7.367986254394054413e-04 -1.760831922292709351e-01
-4.132127463817596436e-01 3.785120844841003418e-01 3.759844303131103516e-01
4.542707204818725586e-01 2.806503772735595703e-01 4.014392793178558350e-01
-3.836672306060791016e-01 -3.020280003547668457e-01 -4.869075417518615723e-01
5.469022318720817566e-02 8.905588090419769287e-02 -7.759429216384887695e-01
3.433873951435089111e-01 3.349196314811706543e-01 5.277068614959716797e-01
1.076816841959953308e-01 -2.619023919105529785e-01 7.219902873039245605e-01
-2.680003941059112549e-01 4.391587078571319580e-01 -4.859594106674194336e-01
4.850510880351066589e-02 -6.213248372077941895e-01 -3.162009418010711670e-01
-6.135595962405204773e-02 -1.661337763071060181e-01 7.736443877220153809e-01
1.555437445640563965e-01 -6.574424505233764648e-01 -3.311012871563434601e-03
2.033237665891647339e-01 -1.309882551431655884e-01 -7.194136381149291992e-01
2.917429208755493164e-01 -1.124066859483718872e-01 6.763981580734252930e-01
-5.061894655227661133e-01 -3.660788238048553467e-01 8.567432314157485962e-02
-6.347656250000000000e-02 6.851310133934020996e-01 1.060898154973983765e-01
5.355873703956604004e-02 -1.230495944619178772e-01 7.823583483695983887e-01
-3.992133140563964844e-01 4.253905117511749268e-01 -3.082204461097717285e-01
2.407264411449432373e-01 -4.821246564388275146e-01 -4.436074793338775635e-01
-5.408948659896850586e-01 -2.210369706153869629e-01 2.388752996921539307e-01
-1.394971311092376709e-01 -4.907119572162628174e-01 -5.137172937393188477e-01
-1.142415106296539307e-01 6.798791885375976562e-01 4.554736241698265076e-02
-5.941315293312072754e-01 -3.109048865735530853e-02 3.520586341619491577e-02
-1.828862577676773071e-01 -4.489404261112213135e-01 5.642154216766357422e-01
2.204246968030929565e-01 -4.578190445899963379e-01 5.072946548461914062e-01
7.629186660051345825e-02 -2.015078663825988770e-01 7.557269334793090820e-01
3.060982376337051392e-02 3.091082572937011719e-01 -7.039811015129089355e-01
-5.270706415176391602e-01 2.854442894458770752e-01 1.619677096605300903e-01
2.579193711280822754e-01 5.867614150047302246e-01 2.668906152248382568e-01
-5.672894120216369629e-01 -1.592179983854293823e-01 -1.474776715040206909e-01
-4.847142696380615234e-01 -4.074396789073944092e-01 -1.411276031285524368e-02
5.740928053855895996e-01 -1.185893937945365906e-01 -7.869911938905715942e-02
-6.193781271576881409e-02 -2.247333973646163940e-01 -7.340761423110961914e-01
-4.319977462291717529e-01 4.239915311336517334e-01 -2.214273214340209961e-01
-6.190737336874008179e-02 -2.764984965324401855e-01 7.301481366157531738e-01
-5.779126286506652832e-01 1.515593528747558594e-01 4.387841746211051941e-02
1.285191923379898071e-01 3.317936658859252930e-01 6.822161674499511719e-01
8.848170936107635498e-02 -6.703606247901916504e-01 1.105120480060577393e-01
2.824997305870056152e-01 -6.996280699968338013e-02 -6.836134791374206543e-01
-5.054383724927902222e-02 -2.164274305105209351e-01 7.579531073570251465e-01
2.988905906677246094e-01 3.737610280513763428e-01 5.430334806442260742e-01
-2.399276196956634521e-01 3.404231071472167969e-01 6.213604807853698730e-01
-5.874150395393371582e-01 8.403743058443069458e-02 7.576481252908706665e-02
-5.631883144378662109e-01 -9.313155710697174072e-02 2.521297633647918701e-01
-2.757483124732971191e-01 -5.932592153549194336e-01 -1.728259325027465820e-01
1.626450270414352417e-01 4.137205183506011963e-01 -5.984938144683837891e-01
4.535521268844604492e-01 2.657155273482203484e-03 -5.026407837867736816e-01
3.628433644771575928e-01 -1.544363647699356079e-01 -5.890610218048095703e-01
5.550079941749572754e-01 -1.887468062341213226e-02 -2.607302963733673096e-01
3.123091161251068115e-01 5.952304005622863770e-01 -5.498611927032470703e-02
-1.459890753030776978e-01 -6.182199120521545410e-01 -2.825675308704376221e-01
2.266227081418037415e-02 -2.536735497415065765e-03 7.991501688957214355e-01
-1.177876740694046021e-01 4.517135918140411377e-01 5.893490910530090332e-01
6.263597309589385986e-02 -6.768228411674499512e-01 9.389681369066238403e-02
3.301652371883392334e-01 -4.104526042938232422e-01 -4.352471232414245605e-01
-5.710309147834777832e-01 -6.460081785917282104e-03 -2.050035595893859863e-01
-4.867419302463531494e-01 -1.545909494161605835e-01 -4.079714715480804443e-01
5.479832291603088379e-01 2.281830608844757080e-01 1.595757156610488892e-01
-3.629070520401000977e-01 2.229825258255004883e-01 5.846141576766967773e-01
1.865297257900238037e-01 -2.856362462043762207e-01 6.765968799591064453e-01
-8.898240327835083008e-02 4.603809714317321777e-01 -5.747236013412475586e-01
3.700998425483703613e-01 -1.766809821128845215e-01 -5.718071460723876953e-01
-8.845848590135574341e-02 2.449861913919448853e-01 7.413224577903747559e-01
3.066827356815338135e-02 7.104671001434326172e-02 7.946783900260925293e-01
2.695945203304290771e-01 -1.031193137168884277e-01 6.954585909843444824e-01
-1.314081531018018723e-02 -4.870615899562835693e-01 -5.469797253608703613e-01
-1.052537038922309875e-01 1.477390900254249573e-02 7.896274924278259277e-01
9.304209612309932709e-03 -1.509337425231933594e-01 7.801360487937927246e-01
2.014319151639938354e-01 6.512691974639892578e-01 -1.064728796482086182e-01
-5.018890649080276489e-02 3.417263627052307129e-01 -6.806359887123107910e-01
-1.648548394441604614e-01 6.493818759918212891e-01 1.742364317178726196e-01
4.706681370735168457e-01 3.826725184917449951e-01 2.215673327445983887e-01
-2.123534977436065674e-01 4.937021434307098389e-01 -4.684840738773345947e-01
4.402218461036682129e-01 6.965576671063899994e-03 5.266305804252624512e-01
3.167419135570526123e-01 1.121042221784591675e-01 -6.539711952209472656e-01
4.216466844081878662e-01 4.470068514347076416e-01 -2.435699552297592163e-01
4.673150926828384399e-02 -4.948043227195739746e-01 -5.330650210380554199e-01
-3.861152753233909607e-02 6.744835972785949707e-01 1.910401731729507446e-01
3.857877850532531738e-01 -2.162605822086334229e-01 -5.327193737030029297e-01
-3.979731202125549316e-01 2.549891471862792969e-01 -4.961793124675750732e-01
-1.717744469642639160e-01 -3.155751228332519531e-01 -6.556712985038757324e-01
3.572500348091125488e-01 2.567328810691833496e-01 5.652262568473815918e-01
-4.543868005275726318e-01 -2.072213590145111084e-01 4.727378785610198975e-01
2.619014382362365723e-01 4.046543538570404053e-01 5.489743947982788086e-01
-5.903808474540710449e-01 4.908826202154159546e-02 8.199296891689300537e-02
-2.034434080123901367e-01 6.459977626800537109e-01 9.062680602073669434e-02
-3.111602663993835449e-01 -2.406018227338790894e-01 6.323313713073730469e-01
-2.676469981670379639e-01 -6.199746727943420410e-01 2.046716772019863129e-02
3.958727717399597168e-01 5.234956145286560059e-01 -4.521292075514793396e-02
-9.985353052616119385e-02 -5.148119926452636719e-01 5.209175944328308105e-01
-2.290836125612258911e-01 4.821396768093109131e-01 -4.695082008838653564e-01
3.064357116818428040e-02 5.770348310470581055e-01 -4.378671050071716309e-01
2.654911577701568604e-01 6.257841587066650391e-01 -4.575440287590026855e-02
2.826842665672302246e-01 -3.946410417556762695e-01 5.199579596519470215e-01
-1.814277470111846924e-01 1.225951239466667175e-01 7.523232102394104004e-01
1.426910329610109329e-02 -6.052476167678833008e-01 -3.612375855445861816e-01
1.536314040422439575e-01 -6.459397673606872559e-01 1.540026664733886719e-01
-2.200282961130142212e-01 -4.846180230379104614e-02 7.462905049324035645e-01
-3.644467592239379883e-01 -4.467403292655944824e-01 3.837797939777374268e-01
-5.475898459553718567e-02 -2.486577481031417847e-01 -7.247751355171203613e-01
1.984799802303314209e-01 -1.035914942622184753e-02 7.498089075088500977e-01
4.939462542533874512e-01 -3.184557557106018066e-01 1.960851699113845825e-01
-1.980905979871749878e-02 5.259945392608642578e-01 -5.128643512725830078e-01
-2.159391045570373535e-01 6.415767073631286621e-01 -5.819258838891983032e-02
-8.149041235446929932e-02 6.252144575119018555e-01 3.344762921333312988e-01
-1.704410463571548462e-01 -6.336888074874877930e-01 2.340578287839889526e-01
5.520234107971191406e-01 1.797694414854049683e-01 2.028141617774963379e-01
-3.615681827068328857e-01 3.913249075412750244e-02 6.411799192428588867e-01
-2.521984279155731201e-01 -4.615496098995208740e-01 5.014141798019409180e-01
2.343241870403289795e-01 1.149213463068008423e-01 -7.117731571197509766e-01
3.567309975624084473e-01 3.213245272636413574e-01 5.224419832229614258e-01
-2.411711066961288452e-01 -3.656826317310333252e-01 -5.799136161804199219e-01
2.723194658756256104e-01 -4.469687342643737793e-01 4.705527722835540771e-01
3.719972372055053711e-01 5.440146923065185547e-01 8.021499961614608765e-02
-5.030494928359985352e-01 8.857125043869018555e-02 4.235563576221466064e-01
-2.768991589546203613e-01 1.438160538673400879e-01 -6.705845594406127930e-01
-2.508192956447601318e-01 -1.400986164808273315e-01 -6.894713640213012695e-01
-4.478168785572052002e-01 2.915570735931396484e-01 4.085457921028137207e-01
-3.108841478824615479e-01 5.652998089790344238e-01 -1.724363565444946289e-01
-5.184738039970397949e-01 -3.431948721408843994e-01 7.547679543495178223e-02
-9.595181792974472046e-02 -6.777003407478332520e-01 -5.587221682071685791e-02
-1.746431142091751099e-01 -4.866314828395843506e-01 5.253550410270690918e-01
-1.242025475949048996e-02 5.837138295173645020e-01 4.377934634685516357e-01
2.401581704616546631e-01 6.204614043235778809e-01 1.838822811841964722e-01
-3.495330810546875000e-01 -5.573403239250183105e-01 1.139652058482170105e-01
-3.736522495746612549e-01 3.285194337368011475e-01 4.974229037761688232e-01
-4.406509995460510254e-01 3.881696760654449463e-01 2.954263389110565186e-01
-2.999492734670639038e-02 -2.391038984060287476e-01 7.501295208930969238e-01
4.243600964546203613e-01 -4.610059857368469238e-01 -4.927107691764831543e-02
-5.638465881347656250e-01 1.732533723115921021e-01 1.561825573444366455e-01
5.780326724052429199e-01 -7.116511464118957520e-02 1.101718321442604065e-01
-4.149680733680725098e-01 -3.981377482414245605e-01 3.628291189670562744e-01
5.797394514083862305e-01 6.749300286173820496e-03 -1.384187936782836914e-01
-2.849155962467193604e-01 -6.005916595458984375e-01 -1.070979535579681396e-01
-5.474247932434082031e-01 -2.639372646808624268e-01 1.191267743706703186e-01
-8.076141029596328735e-02 -6.809723973274230957e-01 -4.051362350583076477e-02
-3.419983685016632080e-01 -2.312672436237335205e-01 6.083235740661621094e-01
-3.666118681430816650e-01 5.405641794204711914e-01 3.235012665390968323e-02
-5.250080227851867676e-01 -1.452792435884475708e-02 3.882496356964111328e-01
-3.029800951480865479e-01 5.483382344245910645e-01 -2.490628510713577271e-01
1.921385228633880615e-01 6.609259843826293945e-01 -3.908628970384597778e-02
5.471116304397583008e-01 -8.845999091863632202e-02 -2.652763128280639648e-01
-5.018808245658874512e-01 -2.269199341535568237e-01 3.596768081188201904e-01
4.103160798549652100e-01 -2.905287146568298340e-01 -4.432693421840667725e-01
-5.732037425041198730e-01 -1.846377700567245483e-01 8.129855245351791382e-02
7.948031276464462280e-02 -2.319045960903167725e-01 7.431238889694213867e-01
4.605348110198974609e-01 1.209866777062416077e-01 4.786025583744049072e-01
-1.411989331245422363e-01 1.525226533412933350e-01 7.599662542343139648e-01
5.421368479728698730e-01 4.148300737142562866e-02 3.073990345001220703e-01
2.063126862049102783e-01 -4.590848982334136963e-01 -5.036935806274414062e-01
-2.758815884590148926e-01 3.104875981807708740e-01 6.154949665069580078e-01
3.433347046375274658e-01 5.732454061508178711e-01 -2.210693806409835815e-02
8.031940087676048279e-04 2.978240847587585449e-01 -7.106941938400268555e-01
1.760837733745574951e-01 -1.421806961297988892e-01 7.410274147987365723e-01
1.659025624394416809e-02 -6.498760581016540527e-01 2.621271014213562012e-01
-7.789863646030426025e-02 -2.021733112633228302e-02 7.946179509162902832e-01
1.175538077950477600e-01 6.837379336357116699e-01 3.429065272212028503e-02
-2.223217785358428955e-01 -6.386420726776123047e-01 9.585417807102203369e-02
4.495002627372741699e-01 2.942413091659545898e-01 -3.982792198657989502e-01
-3.622752130031585693e-01 2.218306958675384521e-01 -5.612537264823913574e-01
-1.625734120607376099e-01 4.089011251926422119e-01 6.112652420997619629e-01
3.895965516567230225e-01 4.836431443691253662e-01 -2.485616654157638550e-01
2.451545298099517822e-01 -6.169068217277526855e-01 1.085874531418085098e-02
3.690485358238220215e-01 5.423295497894287109e-01 1.125570535659790039e-01
1.299204528331756592e-01 6.562802195549011230e-01 2.124567329883575439e-01
5.546668767929077148e-01 2.496236711740493774e-01 -1.131885778158903122e-02
-8.004076778888702393e-02 3.065937161445617676e-01 7.119998335838317871e-01
-2.629573345184326172e-01 -1.732102781534194946e-01 -6.715389490127563477e-01
4.179676771163940430e-01 -1.561805009841918945e-01 5.238764286041259766e-01
-2.172160297632217407e-01 -4.283954203128814697e-01 5.649600625038146973e-01
-5.131130814552307129e-01 3.288611173629760742e-01 -9.527537226676940918e-02
2.393173873424530029e-01 -5.426355004310607910e-01 -3.406541645526885986e-01
1.981125622987747192e-01 -5.900282859802246094e-01 -2.808361053466796875e-01
-5.745518803596496582e-01 -1.703155338764190674e-01 1.047949865460395813e-01
-5.108943581581115723e-01 -2.468677312135696411e-01 -2.835363745689392090e-01
1.321394592523574829e-01 2.845785915851593018e-01 7.081366777420043945e-01
4.646594822406768799e-01 -8.765029162168502808e-02 -4.693336784839630127e-01
2.936879098415374756e-01 5.343675613403320312e-01 -3.319871723651885986e-01
5.854872465133666992e-01 8.906681835651397705e-02 2.567713707685470581e-02
-5.413038134574890137e-01 1.328366994857788086e-01 3.010455071926116943e-01
4.474781081080436707e-02 -2.489679306745529175e-01 -7.254933118820190430e-01
1.419583708047866821e-01 6.217798590660095215e-01 3.122976720333099365e-01
4.104466736316680908e-01 -4.682115614414215088e-01 1.267699450254440308e-01
6.017467379570007324e-02 -6.533855795860290527e-01 2.312219887971878052e-01
1.308805774897336960e-02 2.636032998561859131e-01 7.411859035491943359e-01
3.512622714042663574e-01 -5.000722408294677734e-01 -2.333545237779617310e-01
1.235657334327697754e-01 6.434122323989868164e-01 -2.571657896041870117e-01
5.254514217376708984e-01 3.287812471389770508e-01 3.966424614191055298e-03
6.280630826950073242e-02 -3.783097863197326660e-01 -6.439793705940246582e-01
1.768332868814468384e-01 5.275214314460754395e-01 4.687162935733795166e-01
-1.020745709538459778e-01 6.521173715591430664e-01 -2.276865988969802856e-01
-5.492534041404724121e-01 1.571731865406036377e-01 -2.219959497451782227e-01
6.460068374872207642e-02 6.041123867034912109e-01 -3.824847340583801270e-01
5.739833712577819824e-01 1.711516678333282471e-01 -2.636319771409034729e-02
4.260861575603485107e-01 -1.615530848503112793e-01 5.092762112617492676e-01
-2.836616337299346924e-01 4.495116770267486572e-01 4.774274826049804688e-01
-3.548516333103179932e-01 3.222917020320892334e-01 5.273060202598571777e-01
4.536574482917785645e-01 -1.310042291879653931e-01 4.771170616149902344e-01
-2.558766603469848633e-01 -3.600726723670959473e-01 5.996418595314025879e-01
-3.132275938987731934e-01 3.217175304889678955e-01 -5.513346791267395020e-01
-1.199653148651123047e-01 -3.192674219608306885e-01 6.948508024215698242e-01
4.653305411338806152e-01 -1.032488420605659485e-03 4.853659272193908691e-01
-2.420361489057540894e-01 2.688253521919250488e-01 6.656491756439208984e-01
-4.457407593727111816e-01 -2.654154896736145020e-01 4.487740993499755859e-01
-3.367253243923187256e-01 5.666808485984802246e-01 -1.452378276735544205e-02
-4.470503330230712891e-01 -4.583090543746948242e-01 9.017445892095565796e-02
-3.823973238468170166e-01 3.727772235870361328e-01 -4.148907661437988281e-01
6.030807644128799438e-02 4.969045221805572510e-01 -5.462930798530578613e-01
-2.887084782123565674e-01 -2.763777077198028564e-01 6.317384839057922363e-01
-5.593460202217102051e-01 -2.716781385242938995e-02 -2.523375451564788818e-01
-5.500105023384094238e-01 -2.708349525928497314e-01 4.427203163504600525e-02
-3.034705817699432373e-01 -5.753601789474487305e-01 -1.722277849912643433e-01
5.267757177352905273e-01 1.990852355957031250e-01 -2.859381437301635742e-01
-5.622546747326850891e-02 -2.414271607995033264e-02 -7.795708179473876953e-01
-3.108277916908264160e-01 -3.892938196659088135e-01 5.253626108169555664e-01
2.285558134317398071e-01 -4.425306618213653564e-02 7.313458323478698730e-01
5.581800937652587891e-01 2.379972189664840698e-01 8.279732428491115570e-04
4.274400472640991211e-01 -2.134684920310974121e-01 4.792159199714660645e-01
5.879080891609191895e-01 3.825061488896608353e-03 -4.229429736733436584e-02
4.115766584873199463e-01 -4.729378819465637207e-01 -8.202140778303146362e-02
-3.902412652969360352e-01 -3.959141075611114502e-01 4.123091101646423340e-01
8.213114738464355469e-02 6.618942618370056152e-01 2.293503135442733765e-01
3.577693402767181396e-01 1.560817062854766846e-01 -6.042984127998352051e-01
8.452381938695907593e-02 6.658864021301269531e-01 -2.035630643367767334e-01
4.115130305290222168e-01 2.211429327726364136e-01 5.148867964744567871e-01
-5.259289145469665527e-01 -2.093106210231781006e-01 3.062621355056762695e-01
3.437865376472473145e-01 1.038450971245765686e-01 6.362168788909912109e-01
-4.320326447486877441e-01 -2.654415965080261230e-01 -4.419144988059997559e-01
-3.337826728820800781e-01 -5.651131272315979004e-01 1.451372802257537842e-01
3.590639233589172363e-01 2.047336474061012268e-02 6.294627189636230469e-01
-1.189251467585563660e-01 5.125909447669982910e-01 -5.028972029685974121e-01
-4.780260026454925537e-01 -4.013471305370330811e-01 1.528181582689285278e-01
4.505217373371124268e-01 4.471009075641632080e-01 -1.212859228253364563e-01
-3.193294703960418701e-01 4.924757778644561768e-02 6.791345477104187012e-01
5.349011421203613281e-01 2.307914197444915771e-01 2.221327573060989380e-01
5.622451305389404297e-01 1.825701743364334106e-01 1.398633271455764771e-01
-1.049383804202079773e-01 -2.256872951984405518e-01 7.457867860794067383e-01
5.334571003913879395e-01 -1.448294967412948608e-01 2.789719104766845703e-01
-3.415859937667846680e-01 -5.225710272789001465e-01 -2.463221698999404907e-01
5.513654351234436035e-01 8.112188428640365601e-03 -2.773909270763397217e-01
5.307407379150390625e-01 3.045625686645507812e-01 -9.623646736145019531e-02
-3.657152876257896423e-02 6.938401460647583008e-01 8.105547167360782623e-03
-1.738218367099761963e-01 2.013363987207412720e-01 -7.129974961280822754e-01
-2.426599338650703430e-02 -6.754652261734008789e-01 1.530023962259292603e-01
-4.664646685123443604e-01 -4.307276308536529541e-01 -6.218601763248443604e-02
-5.385934114456176758e-01 -1.184659227728843689e-01 3.280654847621917725e-01
3.107862770557403564e-01 -5.034340023994445801e-01 3.247477412223815918e-01
8.436991274356842041e-02 -6.689397692680358887e-01 1.287817806005477905e-01
-4.649845957756042480e-01 -7.707143574953079224e-02 -4.732177257537841797e-01
7.212871313095092773e-02 2.118401080369949341e-01 7.559049725532531738e-01
-5.942161008715629578e-02 2.981845140457153320e-01 -7.048411369323730469e-01
-5.195723772048950195e-01 -3.291082978248596191e-01 -9.980793297290802002e-02
4.492083191871643066e-01 -3.835220336914062500e-01 2.310492396354675293e-01
-5.143287777900695801e-01 1.804585903882980347e-01 3.495046496391296387e-01
-5.575384497642517090e-01 -2.137924134731292725e-01 1.616968214511871338e-01
1.380175203084945679e-01 -5.468160510063171387e-01 -4.251202344894409180e-01
2.141930162906646729e-01 -6.325631141662597656e-01 -2.377066016197204590e-02
-7.784463465213775635e-02 4.690756648778915405e-02 -7.753697633743286133e-01
-3.008148074150085449e-01 2.941338419914245605e-01 6.051425337791442871e-01
-2.578784227371215820e-01 -2.316386997699737549e-01 -6.519615650177001953e-01
-4.942072331905364990e-01 -2.580069005489349365e-01 -3.191181421279907227e-01
2.979321479797363281e-01 1.482340395450592041e-01 -6.610860824584960938e-01
-3.081903606653213501e-02 -6.853402256965637207e-01 5.725909024477005005e-02
-3.092023134231567383e-01 -5.815523266792297363e-01 -1.249686405062675476e-01
-1.684997975826263428e-01 -5.918167829513549805e-01 -3.300836384296417236e-01
-5.074460059404373169e-02 -5.654915571212768555e-01 -4.344893395900726318e-01
5.729138255119323730e-01 -1.367060095071792603e-01 4.139196872711181641e-02
-2.849284112453460693e-01 -3.774787485599517822e-01 5.613723397254943848e-01
-4.186380207538604736e-01 3.592764586210250854e-02 -5.478492975234985352e-01
5.383604764938354492e-01 2.811061739921569824e-01 1.063511446118354797e-01
2.530434727668762207e-01 3.433029726147651672e-02 7.180410027503967285e-01
-5.238367319107055664e-01 2.219557017087936401e-01 -2.528325915336608887e-01
5.360376834869384766e-01 -2.067959308624267578e-01 2.031366080045700073e-01
-1.096103638410568237e-01 -3.700837194919586182e-01 6.632029414176940918e-01
-2.567928135395050049e-01 -5.336048603057861328e-01 3.882303833961486816e-01
3.017416298389434814e-01 -4.087639153003692627e-01 4.834639430046081543e-01
2.654305696487426758e-01 -5.984197854995727539e-01 -9.600372612476348877e-02
4.595540463924407959e-01 -4.025657773017883301e-01 -1.168619319796562195e-01
-3.806734979152679443e-01 3.872014880180358887e-01 4.243680238723754883e-01
-3.362773656845092773e-01 5.412198901176452637e-01 -1.854500323534011841e-01
-1.885731816291809082e-01 3.499255478382110596e-01 -6.271083354949951172e-01
1.834981441497802734e-01 6.092397570610046387e-01 -3.008584082126617432e-01
-3.094839751720428467e-01 9.445026516914367676e-02 6.804307103157043457e-01
3.123428523540496826e-01 -5.625900030136108398e-01 -1.184718832373619080e-01
5.164565443992614746e-01 -1.519977450370788574e-01 3.275867104530334473e-01
-3.720733225345611572e-01 -1.688262522220611572e-01 -5.757651925086975098e-01
1.853289306163787842e-01 4.189361333847045898e-01 5.898736715316772461e-01
-5.612645149230957031e-01 2.006636410951614380e-01 -8.913003653287887573e-02
2.346912771463394165e-01 -4.356482028961181641e-01 5.211979746818542480e-01
4.988283812999725342e-01 -2.515915930271148682e-01 -2.843523621559143066e-01
2.914898395538330078e-01 5.942969322204589844e-01 1.644036173820495605e-01
1.022967025637626648e-01 -1.752186268568038940e-01 -7.439767122268676758e-01
-3.090679049491882324e-01 -3.057225048542022705e-01 5.959429740905761719e-01
-1.941950991749763489e-02 6.949728727340698242e-01 2.155761234462261200e-02
-3.043400645256042480e-01 -5.913277864456176758e-01 -8.346344530582427979e-02
-5.040363073348999023e-01 2.669861018657684326e-01 2.940354943275451660e-01
-5.268338322639465332e-01 -2.317690700292587280e-01 2.807024419307708740e-01
-3.326233029365539551e-01 2.682613730430603027e-01 -5.677127838134765625e-01
7.578277587890625000e-02 5.787971019744873047e-01 4.362786710262298584e-01
3.554999232292175293e-01 2.787798643112182617e-01 -5.504525899887084961e-01
4.338896572589874268e-01 4.808985292911529541e-01 -2.965195849537849426e-02
-5.004827380180358887e-01 -2.098235636949539185e-01 -3.445597589015960693e-01
-3.413302004337310791e-01 5.503569245338439941e-01 -1.271833181381225586e-01
-3.377460539340972900e-01 -5.186230540275573730e-01 2.943380177021026611e-01
-5.136848092079162598e-01 -2.083129435777664185e-01 3.434532582759857178e-01
-5.473724603652954102e-01 -2.491644471883773804e-01 1.588717103004455566e-01
-5.323795080184936523e-01 -2.771325707435607910e-01 -1.567341238260269165e-01
5.198806524276733398e-01 -2.403523325920104980e-01 -2.235466539859771729e-01
2.968505620956420898e-01 -4.581666290760040283e-01 -4.145174622535705566e-01
3.715360164642333984e-02 -6.539857983589172363e-01 -2.209071218967437744e-01
-5.554170608520507812e-01 1.853716820478439331e-01 -1.600705534219741821e-01
-3.878611028194427490e-01 -1.032884865999221802e-01 6.049197316169738770e-01
3.267853055149316788e-03 -6.407855749130249023e-01 -2.727194726467132568e-01
-3.569649159908294678e-01 1.040606126189231873e-01 -6.098266839981079102e-01
-5.573930740356445312e-01 8.410833775997161865e-02 2.706988155841827393e-01
-4.434160590171813965e-01 -4.187587201595306396e-01 2.527754008769989014e-01
-4.945385456085205078e-01 3.672281503677368164e-01 1.131464987993240356e-01
3.844153583049774170e-01 -3.998242020606994629e-01 3.697386980056762695e-01
-2.105077803134918213e-01 -6.299262046813964844e-01 -1.593056321144104004e-01
-5.781018733978271484e-01 1.232471540570259094e-01 1.222593337297439575e-01
1.505712121725082397e-01 4.741827249526977539e-01 5.520340204238891602e-01
-4.201744794845581055e-01 3.737054020166397095e-02 5.734106898307800293e-01
-2.751774489879608154e-01 -6.129456162452697754e-01 -5.229054763913154602e-02
-4.581405967473983765e-02 2.320618182420730591e-01 -7.377976179122924805e-01
2.683036625385284424e-01 4.726502299308776855e-01 4.671715199947357178e-01
3.565007150173187256e-01 1.784011572599411011e-01 6.024791002273559570e-01
4.905186593532562256e-01 -2.186299115419387817e-01 -3.426834344863891602e-01
-3.743933141231536865e-02 6.320641636848449707e-01 -3.208557665348052979e-01
3.481354117393493652e-01 4.213959574699401855e-01 4.347719550132751465e-01
5.380368232727050781e-01 -2.430336475372314453e-01 -1.165235266089439392e-01
-1.598947793245315552e-01 1.229718402028083801e-01 7.607201337814331055e-01
2.880825698375701904e-01 4.901676774024963379e-01 -4.166322350502014160e-01
7.262423634529113770e-02 4.557798206806182861e-01 5.986326932907104492e-01
-7.639118283987045288e-02 6.743442416191101074e-01 -1.531925052404403687e-01
4.236800074577331543e-01 4.867306053638458252e-01 9.577783197164535522e-02
-4.255382120609283447e-01 4.746442139148712158e-01 -5.272856727242469788e-02
-5.010987520217895508e-01 -3.360996842384338379e-01 2.186012715101242065e-01
4.279753565788269043e-01 3.682174086570739746e-01 3.624802231788635254e-01
6.585522741079330444e-02 -4.717696607112884521e-01 -5.559793114662170410e-01
5.878695845603942871e-01 1.542254909873008728e-02 4.534935206174850464e-02
4.272322058677673340e-01 4.600228369235992432e-01 1.897424757480621338e-01
5.282629728317260742e-01 -5.750826746225357056e-02 -3.379854559898376465e-01
-3.661172688007354736e-01 3.885601162910461426e-01 -4.222824275493621826e-01
-4.314923882484436035e-01 3.268004059791564941e-01 4.039788246154785156e-01
-5.981327220797538757e-02 -4.297173023223876953e-01 -6.024272441864013672e-01
-3.295817971229553223e-01 5.011686682701110840e-01 3.299320638179779053e-01
8.232197910547256470e-02 6.523142457008361816e-01 2.631129324436187744e-01
-5.238108336925506592e-02 -1.848181188106536865e-01 7.689000964164733887e-01
4.084175825119018555e-01 -4.816489517688751221e-01 3.370897471904754639e-02
9.401411563158035278e-02 -4.003642797470092773e-01 6.349811553955078125e-01
5.030025243759155273e-01 -3.389856219291687012e-01 -4.825185611844062805e-02
-2.759836614131927490e-01 -4.353033006191253662e-01 5.109993815422058105e-01
-4.061501622200012207e-01 4.450216591358184814e-01 -2.519681155681610107e-01
-1.139515116810798645e-01 -6.712999939918518066e-01 -8.866211771965026855e-02
-5.024026036262512207e-01 3.432105183601379395e-01 -1.225894615054130554e-01
-5.553636550903320312e-01 7.199806720018386841e-02 2.837304174900054932e-01
-2.952848374843597412e-01 -6.369009613990783691e-03 -6.765106320381164551e-01
-8.156718686223030090e-03 -4.049746394157409668e-01 -6.286495327949523926e-01
4.086935818195343018e-01 -2.577540464699268341e-02 5.695526003837585449e-01
-1.213703006505966187e-01 -5.501552820205688477e-01 4.617314636707305908e-01
5.083153843879699707e-01 3.558042943477630615e-01 9.155094623565673828e-02
4.709340035915374756e-01 -1.193387433886528015e-02 -4.723537564277648926e-01
-2.427239120006561279e-01 5.187419056892395020e-02 -7.104410529136657715e-01
2.525573223829269409e-02 -6.240423321723937988e-01 -3.154897987842559814e-01
1.453202068805694580e-01 6.689668893814086914e-01 1.245582550764083862e-01
-4.515084922313690186e-01 -3.349767029285430908e-01 -3.377153277397155762e-01
-4.091771245002746582e-01 3.495711833238601685e-02 5.878449082374572754e-01
-3.655238747596740723e-01 -2.600262463092803955e-01 -5.388959646224975586e-01
5.391910076141357422e-01 1.711979955434799194e-01 2.642279863357543945e-01
-4.647194743156433105e-01 -4.340921342372894287e-01 8.883512020111083984e-02
-5.440006405115127563e-02 6.138067841529846191e-01 3.714750111103057861e-01
-3.803566992282867432e-01 -5.173663496971130371e-01 1.791498661041259766e-01
2.040326744318008423e-01 3.775563836097717285e-01 6.144075393676757812e-01
-5.758900642395019531e-01 4.966890811920166016e-02 -1.694691181182861328e-01
5.608683228492736816e-01 1.564279794692993164e-01 1.808044612407684326e-01
-4.591585993766784668e-01 2.089089304208755493e-01 -4.260343611240386963e-01
-5.823083519935607910e-01 -2.262381091713905334e-02 -1.433171927928924561e-01
5.834546089172363281e-01 -3.178294003009796143e-02 8.948247134685516357e-02
5.712309479713439941e-01 -1.395957469940185547e-01 6.342566758394241333e-02
-4.531863033771514893e-01 1.030886322259902954e-01 5.124974846839904785e-01
2.123051881790161133e-01 6.510639786720275879e-01 6.945702433586120605e-02
5.149251818656921387e-01 -3.173158466815948486e-01 8.119991049170494080e-03
1.909575909376144409e-01 -5.553400516510009766e-01 -3.687625527381896973e-01
-4.679440557956695557e-01 -4.222706556320190430e-01 1.306971609592437744e-01
3.598741814494132996e-02 -6.445101499557495117e-01 2.741530835628509521e-01
-2.174230515956878662e-01 -1.719870716333389282e-01 -7.000008225440979004e-01
3.632533252239227295e-01 2.309077233076095581e-01 5.722126364707946777e-01
9.758879244327545166e-02 4.595210850238800049e-01 -5.788642764091491699e-01
-2.492224276065826416e-01 5.926998704671859741e-02 7.283163070678710938e-01
1.873413473367691040e-02 6.707921028137207031e-01 2.164497673511505127e-01
5.596259832382202148e-01 -1.923805773258209229e-01 4.742781817913055420e-02
3.114946782588958740e-01 5.950214266777038574e-01 6.719429790973663330e-02
-4.786465167999267578e-01 3.909414112567901611e-01 1.307492852210998535e-01
4.752551317214965820e-01 -3.877546489238739014e-01 6.136757507920265198e-02
9.977772831916809082e-02 -8.950715512037277222e-02 7.792542576789855957e-01
-1.152740344405174255e-01 -3.517413139343261719e-01 6.749105453491210938e-01
6.342849880456924438e-02 -1.180378943681716919e-01 -7.668189406394958496e-01
-3.856750130653381348e-01 -4.702386558055877686e-01 2.986985743045806885e-01
5.845342874526977539e-01 7.782227545976638794e-02 -6.871122866868972778e-02
-2.074879407882690430e-01 3.838514089584350586e-01 6.083497405052185059e-01
1.839298009872436523e-01 4.510461091995239258e-01 5.590897798538208008e-01
3.218794167041778564e-01 -5.098346620798110962e-02 -6.548080444335937500e-01
-1.251785904169082642e-01 -6.957160681486129761e-02 -7.608348727226257324e-01
4.359027445316314697e-01 -3.888835012912750244e-01 -2.575269937515258789e-01
-3.339335322380065918e-01 5.389658808708190918e-01 2.218410372734069824e-01
-1.510106027126312256e-01 5.132575631141662598e-01 -4.853582084178924561e-01
5.338781476020812988e-01 -6.760826706886291504e-02 3.194161653518676758e-01
1.436805725097656250e-01 6.461510658264160156e-01 2.367149740457534790e-01
-1.745353043079376221e-01 6.163214147090911865e-02 -7.447121739387512207e-01
-3.652444481849670410e-01 -1.966577768325805664e-01 -5.722112059593200684e-01
-3.808966279029846191e-01 8.695282787084579468e-02 6.135269403457641602e-01
-2.028017789125442505e-01 1.434317082166671753e-01 7.375991940498352051e-01
-2.881164848804473877e-01 6.019793748855590820e-01 -3.428525105118751526e-02
-3.054508864879608154e-01 4.300603270530700684e-01 4.769605696201324463e-01
-5.005588531494140625e-01 1.505506485700607300e-01 4.029135406017303467e-01
-5.263842344284057617e-01 3.125115931034088135e-01 -2.041924372315406799e-02
-2.449036538600921631e-01 8.231237530708312988e-02 -7.054082751274108887e-01
-9.777448326349258423e-02 -4.460250139236450195e-01 -5.784079432487487793e-01
3.183580636978149414e-01 5.887771844863891602e-01 8.049013465642929077e-02
4.385262727737426758e-03 -2.332128770649433136e-02 7.995672821998596191e-01
5.398822426795959473e-01 2.916370034217834473e-01 -3.473192453384399414e-02
3.059641718864440918e-01 2.469333112239837646e-01 -6.173431277275085449e-01
1.931481510400772095e-01 6.357896327972412109e-01 -2.053292691707611084e-01
1.282113790512084961e-01 -1.897970288991928101e-01 -7.318314313888549805e-01
3.167580068111419678e-01 -5.684304833412170410e-01 4.221760109066963196e-02
-1.822862029075622559e-01 -8.475894480943679810e-02 -7.377568483352661133e-01
-5.327345728874206543e-01 2.989870309829711914e-01 3.026249259710311890e-02
4.623034894466400146e-01 -1.223698779940605164e-01 4.650983214378356934e-01
-1.740751564502716064e-01 3.603903651237487793e-01 -6.272383928298950195e-01
3.963159322738647461e-01 2.949788272380828857e-01 -4.873563647270202637e-01
-5.905374288558959961e-01 -4.911682754755020142e-02 -6.392914056777954102e-02
8.933097869157791138e-02 -6.354898214340209961e-01 -2.561866044998168945e-01
1.977606117725372314e-01 -5.193440318107604980e-01 4.408466219902038574e-01
3.570570647716522217e-01 4.283992052078247070e-01 -4.101712107658386230e-01
-3.830827772617340088e-02 6.926861405372619629e-01 -3.663735836744308472e-02
