3.758867681026458740e-01 1.887298189103603363e-02 1.575777083635330200e-01
3.402895331382751465e-01 -4.444020390510559082e-01 4.670000076293945312e-02
1.803204566240310669e-01 -4.808512032032012939e-01 -2.809212505817413330e-01
-2.074033170938491821e-01 -7.627777457237243652e-01 -2.143708989024162292e-02
3.665225207805633545e-02 3.616608679294586182e-01 3.611661195755004883e-01
8.505930751562118530e-02 -5.659275054931640625e-01 2.917254865169525146e-01
1.008820086717605591e-01 -3.607477247714996338e-01 3.508005142211914062e-01
3.368539214134216309e-01 1.126604527235031128e-01 2.271710485219955444e-01
6.730777025222778320e-02 3.079368770122528076e-01 -3.747800588607788086e-01
-6.105862092226743698e-03 8.627061247825622559e-01 -5.617030709981918335e-02
-2.499090582132339478e-01 -6.152859330177307129e-01 -1.705510616302490234e-01
1.117139533162117004e-01 -1.156543195247650146e-01 -3.854889571666717529e-01
3.383287489414215088e-01 -2.519068419933319092e-01 1.899756044149398804e-01
3.571929931640625000e-01 4.107705056667327881e-01 6.315982341766357422e-02
9.586418420076370239e-02 2.944374978542327881e-01 3.667390644550323486e-01
-3.761464357376098633e-01 2.654201984405517578e-01 -3.501452738419175148e-03
-3.245224654674530029e-01 -9.284730255603790283e-02 2.124609947204589844e-01
-1.523147076368331909e-01 -7.968397140502929688e-01 7.505562901496887207e-02
8.934941142797470093e-02 -7.677434682846069336e-01 1.657632738351821899e-01
-2.717054188251495361e-01 -3.610017597675323486e-01 2.316667437553405762e-01
3.732150197029113770e-01 -2.075171619653701782e-01 1.219757869839668274e-01
-8.304833620786666870e-02 -2.477596402168273926e-01 3.683467805385589600e-01
6.110440194606781006e-02 -1.230681315064430237e-01 -3.985567688941955566e-01
-1.192172393202781677e-01 6.209233403205871582e-01 2.397791296243667603e-01
3.848929107189178467e-01 -2.398063391447067261e-01 -3.013203619047999382e-03
2.910238504409790039e-01 6.058934330940246582e-01 -5.655149370431900024e-02
-2.118983566761016846e-01 -3.062772750854492188e-02 -3.572316467761993408e-01
1.455953866243362427e-01 3.049136400222778320e-01 3.511013984680175781e-01
-3.077174723148345947e-01 -3.842372000217437744e-01 -2.163541018962860107e-01
3.847106993198394775e-01 2.169880270957946777e-01 9.340524673461914062e-02
1.302166581153869629e-01 -3.869075775146484375e-01 3.357531130313873291e-01
9.665141254663467407e-02 8.785306662321090698e-02 3.882013261318206787e-01
-3.584559857845306396e-01 -4.044668376445770264e-01 1.592809706926345825e-02
3.318624198436737061e-01 -4.375373572111129761e-02 -2.197591215372085571e-01
2.050419300794601440e-01 -5.196521878242492676e-01 2.497951090335845947e-01
-8.309876918792724609e-02 -7.549819946289062500e-01 1.809378564357757568e-01
-7.554125040769577026e-02 5.750578641891479492e-01 2.811756730079650879e-01
3.794003725051879883e-01 2.852188348770141602e-01 7.522586733102798462e-02
-3.151352107524871826e-01 2.116173654794692993e-01 2.028133869171142578e-01
-2.302375733852386475e-01 -4.740796387195587158e-01 -2.704104781150817871e-01
-1.472491174936294556e-01 4.274457693099975586e-01 3.023501336574554443e-01
-1.904686242341995239e-01 1.061797738075256348e-01 -3.642608225345611572e-01
2.426768243312835693e-01 5.268079042434692383e-01 -2.134891152381896973e-01
-5.272955447435379028e-02 6.596724987030029297e-01 2.472085356712341309e-01
1.357025504112243652e-01 -1.037646643817424774e-02 -3.804940283298492432e-01
-2.409365177154541016e-01 -5.731767416000366211e-01 1.770446300506591797e-01
-5.838190391659736633e-02 -6.637966632843017578e-01 -2.688353657722473145e-01
-1.762956976890563965e-01 -6.805580258369445801e-01 -2.054257541894912720e-01
-3.837082087993621826e-01 6.395157426595687866e-02 -1.284459382295608521e-01
-1.119421720504760742e-01 6.997170448303222656e-01 1.947739422321319580e-01
-3.971382975578308105e-01 4.428753256797790527e-02 9.711601771414279938e-03
9.319657832384109497e-02 -5.086004734039306641e-01 -3.167067468166351318e-01
-1.218706518411636353e-01 2.865661978721618652e-01 3.470259606838226318e-01
3.139853477478027344e-03 2.922932803630828857e-01 -3.853607475757598877e-01
-1.045173183083534241e-01 2.720975279808044434e-01 3.559930324554443359e-01
-8.819234371185302734e-02 6.384894251823425293e-01 -2.645713388919830322e-01
1.381698399782180786e-01 -3.412448465824127197e-01 3.434895277023315430e-01
5.713204666972160339e-02 -7.501469850540161133e-01 1.943311095237731934e-01
-1.161248609423637390e-01 8.199110031127929688e-01 -4.916834458708763123e-02
6.520392745733261108e-02 -5.165223479270935059e-01 3.148101568222045898e-01
-2.880054116249084473e-01 -6.272273063659667969e-01 -1.441969815641641617e-02
2.325364500284194946e-01 5.519586205482482910e-01 -2.116505205631256104e-01
-2.136669754981994629e-01 -1.553032696247100830e-01 3.185766637325286865e-01
-3.409691154956817627e-01 2.413845807313919067e-01 1.494389474391937256e-01
-3.540472984313964844e-01 -1.184471249580383301e-01 1.603162288665771484e-01
-1.767806708812713623e-01 -5.494071245193481445e-01 -2.787474393844604492e-01
8.870051242411136627e-03 4.519620239734649658e-01 -3.496423661708831787e-01
8.886557072401046753e-02 1.010863631963729858e-01 -3.933385610580444336e-01
-6.489457190036773682e-02 -6.357077956199645996e-01 2.624325156211853027e-01
2.041139602661132812e-01 6.835572123527526855e-01 -1.535152792930603027e-01
-3.283864259719848633e-01 3.838021308183670044e-02 2.072045356035232544e-01
-3.576232790946960449e-01 -3.778464794158935547e-01 5.629116669297218323e-02
-8.689758926630020142e-02 2.939528524875640869e-01 3.580001294612884521e-01
3.558179438114166260e-01 -1.999104581773281097e-02 1.993673741817474365e-01
-2.681530714035034180e-01 4.752218723297119141e-01 1.742172688245773315e-01
-2.717775404453277588e-01 2.061144821345806122e-02 -3.130728900432586670e-01
-3.638287782669067383e-01 -3.860542476177215576e-01 -4.525060206651687622e-02
3.753016889095306396e-01 -2.495308518409729004e-01 -7.030737400054931641e-02
-3.035915195941925049e-01 -4.498767554759979248e-01 1.526786834001541138e-01
-3.671920299530029297e-01 -3.114753961563110352e-01 6.799183785915374756e-02
-2.694427669048309326e-01 4.133950769901275635e-01 -2.375092357397079468e-01
3.242261707782745361e-01 -4.954466521739959717e-01 4.961019754409790039e-02
-1.367683857679367065e-01 7.273423671722412109e-01 -1.748571842908859253e-01
2.292619645595550537e-01 -6.880921721458435059e-01 -7.569433003664016724e-02
-2.137421816587448120e-02 -5.718203783035278320e-01 2.981528043746948242e-01
8.438517153263092041e-02 1.367587745189666748e-01 -3.921833038330078125e-01
-2.324284017086029053e-01 -6.796959042549133301e-01 -1.367522925138473511e-01
8.259854465723037720e-02 -4.869759380817413330e-01 -3.274890482425689697e-01
-2.336651384830474854e-01 -7.726408541202545166e-02 -3.424445092678070068e-01
9.447968751192092896e-02 -6.901915073394775391e-01 -2.302742004394531250e-01
-9.683512151241302490e-02 -1.287773549556732178e-01 3.764969110488891602e-01
-3.729881346225738525e-01 2.238768339157104492e-02 -1.662272512912750244e-01
-8.601708337664604187e-03 -8.214624524116516113e-01 -1.495823562145233154e-01
-3.165639042854309082e-01 -3.488077819347381592e-01 -2.158383578062057495e-01
-1.154372990131378174e-01 -7.452996969223022461e-01 -1.964258700609207153e-01
3.978194892406463623e-01 -1.172097921371459961e-01 -9.836201556026935577e-03
2.806701958179473877e-01 -2.509362101554870605e-01 -2.572547197341918945e-01
2.234745323657989502e-01 -2.397615462541580200e-01 -3.124684393405914307e-01
1.858906596899032593e-01 7.170474529266357422e-01 -1.440256536006927490e-01
-1.627910584211349487e-01 -5.590908527374267578e-01 2.543616592884063721e-01
3.397696912288665771e-01 -2.910885512828826904e-01 -1.561335772275924683e-01
2.696430087089538574e-01 1.205634474754333496e-01 -2.907493412494659424e-01
-1.526886969804763794e-01 -4.519818723201751709e-01 -3.260830342769622803e-01
1.275263428688049316e-01 -7.510284781455993652e-01 -1.595063954591751099e-01
1.112038269639015198e-01 1.917454749345779419e-01 3.772783577442169189e-01
3.505344986915588379e-01 1.594331264495849609e-01 -1.800533384084701538e-01
-2.015538960695266724e-01 2.493970096111297607e-01 -3.403903841972351074e-01
8.179516345262527466e-02 -7.629267573356628418e-01 1.741291284561157227e-01
3.523969054222106934e-01 4.223637878894805908e-01 -5.497045069932937622e-02
3.732221126556396484e-01 1.876092106103897095e-01 1.436799615621566772e-01
-4.739955440163612366e-02 1.426800787448883057e-01 3.862403035163879395e-01
-3.221235275268554688e-01 -1.036774143576622009e-01 -2.564851045608520508e-01
-3.307186067104339600e-01 -3.792384862899780273e-01 -1.779489219188690186e-01
-1.348581314086914062e-01 7.524424791336059570e-01 -1.499804705381393433e-01
3.938281238079071045e-01 1.957554519176483154e-01 4.843486100435256958e-02
-1.409644633531570435e-02 -5.908985733985900879e-01 -3.061361610889434814e-01
-1.028259322047233582e-01 5.743644833564758301e-01 -2.909048199653625488e-01
6.490267068147659302e-02 9.835884720087051392e-02 -3.990776836872100830e-01
3.812631964683532715e-01 -2.327122539281845093e-01 -5.108385160565376282e-02
1.703756488859653473e-02 -8.599661588668823242e-01 -8.188169449567794800e-02
-2.884623706340789795e-01 1.987386345863342285e-01 2.407856285572052002e-01
-3.766060769557952881e-01 -1.369295567274093628e-01 1.027590185403823853e-01
-5.089719966053962708e-02 -5.432611107826232910e-01 -3.231189548969268799e-01
3.875818848609924316e-01 2.616562247276306152e-01 -9.223803877830505371e-03
-3.881272375583648682e-01 -9.257705509662628174e-02 -1.162022724747657776e-01
2.758103236556053162e-02 -8.690289258956909180e-01 -4.675681889057159424e-02
2.479893900454044342e-02 -6.770657896995544434e-01 2.489713430404663086e-01
-3.342278599739074707e-01 5.153246968984603882e-02 -2.392707169055938721e-01
3.039616346359252930e-01 -2.034038156270980835e-01 -2.387116998434066772e-01
-1.390331983566284180e-01 4.599374234676361084e-01 2.966250479221343994e-01
1.724312268197536469e-02 7.270611822605133057e-02 -4.069982171058654785e-01
3.368384540081024170e-01 8.482949435710906982e-02 -2.116827219724655151e-01
-5.001450330018997192e-02 1.083706915378570557e-01 3.881779313087463379e-01
1.274337768554687500e-01 3.570705354213714600e-01 3.468166589736938477e-01
1.984905749559402466e-01 2.318932861089706421e-01 3.392965197563171387e-01
3.042887449264526367e-01 -1.220999807119369507e-01 2.647876143455505371e-01
2.491697818040847778e-01 6.982877254486083984e-01 3.503375500440597534e-02
-2.873373627662658691e-01 1.257332861423492432e-01 2.528056502342224121e-01
-8.300822973251342773e-02 -1.379241347312927246e-01 3.797065019607543945e-01
-6.735514383763074875e-03 3.745881021022796631e-01 -3.695627450942993164e-01
-2.944820225238800049e-01 5.516034364700317383e-01 -8.122705668210983276e-02
3.816566467285156250e-01 -2.191044092178344727e-01 8.052910864353179932e-02
-3.296598792076110840e-01 1.046693846583366394e-01 -2.407103478908538818e-01
3.993738591670989990e-01 1.373947709798812866e-01 3.530012071132659912e-02
-2.225420773029327393e-01 5.514960885047912598e-01 -2.224423438310623169e-01
1.421923488378524780e-01 -4.360612630844116211e-01 3.177097737789154053e-01
1.672842204570770264e-01 4.433418810367584229e-01 3.093433082103729248e-01
1.751202344894409180e-01 -6.658087372779846191e-01 1.895322352647781372e-01
3.239693585783243179e-03 -1.358267106115818024e-02 3.972744941711425781e-01
-2.052148431539535522e-01 4.176779389381408691e-01 2.667319774627685547e-01
2.020988017320632935e-01 -4.800438880920410156e-01 2.688627243041992188e-01
2.184827923774719238e-01 -4.957150518894195557e-01 2.492131292819976807e-01
7.697679102420806885e-02 3.191232979297637939e-01 -3.705847561359405518e-01
5.590356886386871338e-02 -1.960922330617904663e-01 3.853312730789184570e-01
-3.588562309741973877e-01 -8.266918361186981201e-03 -1.997229009866714478e-01
-2.251760810613632202e-01 1.120155751705169678e-01 3.113050162792205811e-01
2.184194773435592651e-01 -7.077010869979858398e-01 7.572840899229049683e-02
-2.762468457221984863e-01 1.012771278619766235e-01 2.672568559646606445e-01
-1.748670339584350586e-01 2.580589056015014648e-01 3.260160684585571289e-01
-3.068976998329162598e-01 -3.818076103925704956e-02 2.382028400897979736e-01
6.495963037014007568e-02 2.234548777341842651e-01 -3.879733681678771973e-01
3.440208137035369873e-01 -8.347791433334350586e-02 2.148829549551010132e-01
-1.291945427656173706e-01 -1.020222604274749756e-01 3.669967949390411377e-01
-2.315960079431533813e-01 6.571137309074401855e-01 8.665142208337783813e-02
1.110869124531745911e-01 5.470748543739318848e-01 2.956285178661346436e-01
1.853971928358078003e-01 4.484036266803741455e-01 -2.932954430580139160e-01
3.606943786144256592e-02 5.921019911766052246e-01 -2.980665862560272217e-01
2.125524729490280151e-01 -5.844867229461669922e-01 -2.036442905664443970e-01
-1.481883674860000610e-01 -8.126224279403686523e-01 -7.522929459810256958e-02
2.966691851615905762e-01 -5.343064069747924805e-01 -9.627360105514526367e-02
-6.722346693277359009e-02 -2.806784808635711670e-01 -3.864744901657104492e-01
-2.699369192123413086e-01 -2.643599510192871094e-01 2.565507888793945312e-01
-2.893974445760250092e-02 6.805586218833923340e-01 -2.546365559101104736e-01
-3.480001389980316162e-01 -3.543777763843536377e-01 1.059802994132041931e-01
-1.607173234224319458e-01 1.796934902667999268e-01 -3.710810542106628418e-01
-1.825771927833557129e-01 -4.869123995304107666e-01 2.697736918926239014e-01
-2.324526906013488770e-01 -4.300548732280731201e-01 -2.841430008411407471e-01
3.047897517681121826e-01 3.987308442592620850e-01 -1.897487193346023560e-01
3.505236506462097168e-01 -8.607635647058486938e-02 2.035146206617355347e-01
3.232161402702331543e-01 2.972220443189144135e-02 2.501106262207031250e-01
1.709319949150085449e-01 -7.324055433273315430e-01 1.312237679958343506e-01
-2.576543688774108887e-01 -6.583056449890136719e-01 7.138311862945556641e-02
6.340683251619338989e-02 -5.289933830499649048e-02 -4.013516902923583984e-01
-3.929176926612854004e-01 -3.070885688066482544e-02 5.150503292679786682e-02
3.965677917003631592e-01 -1.276129782199859619e-01 3.960689529776573181e-02
-6.071638781577348709e-03 -8.735492825508117676e-01 -4.503062367439270020e-02
-1.201485693454742432e-01 7.705217599868774414e-01 1.213796809315681458e-01
-2.288063317537307739e-01 1.348941177129745483e-01 3.064465522766113281e-01
1.145986765623092651e-01 4.856670200824737549e-01 -3.174920082092285156e-01
2.189252525568008423e-01 -5.380086302757263184e-01 2.285990715026855469e-01
-5.627697333693504333e-02 -2.896625101566314697e-01 -3.863365650177001953e-01
3.624833226203918457e-01 -2.852516770362854004e-01 -9.853262454271316528e-02
3.017031848430633545e-01 3.255389928817749023e-01 2.348426133394241333e-01
2.107122838497161865e-01 -5.059181451797485352e-01 2.513197958469390869e-01
-2.963756620883941650e-01 5.423295497894287109e-01 5.203612893819808960e-02
2.432674542069435120e-02 9.427282959222793579e-02 3.952853679656982422e-01
3.265759348869323730e-01 -4.866691231727600098e-01 -3.823470324277877808e-02
2.988970279693603516e-02 1.274546384811401367e-01 -4.027426838874816895e-01
-3.472888469696044922e-01 1.214365437626838684e-01 -2.092039734125137329e-01
3.447987139225006104e-01 -3.119089901447296143e-01 1.527702361345291138e-01
-3.826782405376434326e-01 1.755458265542984009e-01 4.649808630347251892e-02
-2.286553531885147095e-01 -6.141178607940673828e-01 1.659614592790603638e-01
1.239516884088516235e-01 6.065926551818847656e-01 2.654183804988861084e-01
-3.561610579490661621e-01 -1.886620372533798218e-01 1.449372321367263794e-01
-2.622614502906799316e-01 -4.830011725425720215e-01 1.979742199182510376e-01
3.712684810161590576e-01 -3.184244632720947266e-01 -1.393982954323291779e-02
-1.548052281141281128e-01 -6.443127393722534180e-01 -2.445131540298461914e-01
2.607427537441253662e-02 7.232871651649475098e-01 2.195665389299392700e-01
-1.165025904774665833e-01 6.143648028373718262e-01 -2.660561800003051758e-01
-1.592684239149093628e-01 -1.315156668424606323e-01 -3.790206313133239746e-01
-7.841726392507553101e-02 7.187811285257339478e-02 3.839147984981536865e-01
3.523893952369689941e-01 -4.051302969455718994e-01 2.764049544930458069e-02
-2.589657902717590332e-01 -5.876168608665466309e-01 -1.783677786588668823e-01
-3.311790227890014648e-01 -2.713283300399780273e-01 1.737356483936309814e-01
-2.608735859394073486e-01 -9.194571524858474731e-03 2.873815894126892090e-01
2.501190006732940674e-01 5.312784910202026367e-01 -2.024940401315689087e-01
-3.710716962814331055e-01 -3.512300848960876465e-01 -7.502748630940914154e-03
-1.750331670045852661e-01 2.351773977279663086e-01 -3.570533394813537598e-01
-2.440703213214874268e-01 5.115533471107482910e-01 1.877380609512329102e-01
2.769657671451568604e-01 -3.239669203758239746e-01 -2.432307302951812744e-01
7.361955940723419189e-02 5.611260235309600830e-02 3.932096362113952637e-01
3.682095110416412354e-01 5.651083774864673615e-03 1.754194200038909912e-01
2.951243817806243896e-01 -1.804562658071517944e-01 -2.536850571632385254e-01
-3.102001920342445374e-02 4.765484631061553955e-01 3.278121054172515869e-01
1.477727293968200684e-01 -4.814590811729431152e-01 3.006482422351837158e-01
1.054064333438873291e-01 5.484362244606018066e-01 -2.985168397426605225e-01
1.748903840780258179e-01 6.154655814170837402e-01 -2.297621369361877441e-01
2.654850780963897705e-01 -2.531865984201431274e-02 3.093389272689819336e-01
-3.443751931190490723e-01 7.647693157196044922e-02 1.777803748846054077e-01
-1.167699694633483887e-01 -6.509840488433837891e-01 -2.597151696681976318e-01
-2.630241513252258301e-01 3.358199298381805420e-01 -2.723357975482940674e-01
-1.934418529272079468e-01 -1.085270196199417114e-01 -3.649316132068634033e-01
-1.107578277587890625e-01 -5.930976867675781250e-01 -2.905187904834747314e-01
-1.191377788782119751e-01 8.040094971656799316e-01 -8.985051512718200684e-02
-1.949642971158027649e-02 -3.800664246082305908e-01 -3.712164163589477539e-01
-3.418658375740051270e-01 3.602509498596191406e-01 -1.300150752067565918e-01
1.917888671159744263e-01 6.982142329216003418e-01 -1.552561819553375244e-01
3.327542841434478760e-01 4.478156566619873047e-01 -1.047792285680770874e-01
-5.453386530280113220e-02 5.675843954086303711e-01 2.906188368797302246e-01
3.106605708599090576e-01 -1.582882180809974670e-02 -2.500022053718566895e-01
3.881656527519226074e-01 5.579083412885665894e-02 -9.839116036891937256e-02
1.122679039835929871e-01 -6.134577989578247070e-01 2.610102593898773193e-01
1.972387433052062988e-01 5.663872361183166504e-01 2.442334294319152832e-01
-1.581004261970520020e-01 5.528038144111633301e-01 -2.743349671363830566e-01
2.418965846300125122e-01 6.092621088027954102e-01 1.745073944330215454e-01
5.110661685466766357e-02 2.644439041614532471e-01 3.776294589042663574e-01
1.329584270715713501e-01 -3.276844620704650879e-01 -3.496751785278320312e-01
3.646638616919517517e-02 8.667380213737487793e-01 -3.455280140042304993e-02
2.083844542503356934e-01 -5.774630904197692871e-01 -2.123601585626602173e-01
1.165132746100425720e-01 -9.976086020469665527e-02 3.824418783187866211e-01
-2.627715468406677246e-01 -6.181774735450744629e-01 -1.452655643224716187e-01
-1.650379896163940430e-01 -6.083794832229614258e-01 2.294343858957290649e-01
2.281897813081741333e-01 -8.877761662006378174e-03 3.370128870010375977e-01
-3.948654830455780029e-01 -1.677029877901077271e-01 -2.001736685633659363e-02
-4.228086397051811218e-02 -7.882854342460632324e-01 -1.833406686782836914e-01
3.836006224155426025e-01 -2.291584759950637817e-01 5.902165919542312622e-02
-3.543090522289276123e-01 1.977769657969474792e-03 1.643524318933486938e-01
-2.594070434570312500e-01 3.178728818893432617e-01 -2.810901701450347900e-01
2.329074889421463013e-01 4.259585589170455933e-02 -3.255133032798767090e-01
-1.578332036733627319e-01 -1.435474902391433716e-01 -3.787312507629394531e-01
-7.709299027919769287e-02 -8.421887159347534180e-01 -1.016027554869651794e-01
1.125357523560523987e-01 3.349614795297384262e-03 -3.890149295330047607e-01
-1.258634179830551147e-01 7.808638215065002441e-01 -1.221676543354988098e-01
1.251221746206283569e-01 -9.233733266592025757e-02 3.805163204669952393e-01
-8.609016239643096924e-02 4.260308574885129929e-03 -4.036401212215423584e-01
3.543022871017456055e-01 4.366024732589721680e-01 -9.825121611356735229e-03
2.794258296489715576e-01 -4.807762801647186279e-01 -1.751351207494735718e-01
6.151477992534637451e-02 -8.448305130004882812e-01 -8.674007654190063477e-02
-1.112420037388801575e-01 -1.667319685220718384e-01 3.689772486686706543e-01
-3.897646442055702209e-02 2.343685030937194824e-01 3.780014812946319580e-01
6.547365337610244751e-02 7.821118235588073730e-01 1.664698570966720581e-01
2.960084676742553711e-01 -2.096755802631378174e-01 2.608451545238494873e-01
-3.681816458702087402e-01 -3.108446002006530762e-01 -1.101924777030944824e-01
2.721135690808296204e-02 8.631938695907592773e-01 4.710067063570022583e-02
1.060999110341072083e-01 5.021427273750305176e-01 3.133426308631896973e-01
-3.881113231182098389e-01 -8.043763041496276855e-02 7.073679566383361816e-02
2.470217943191528320e-01 -1.853000223636627197e-01 -3.016794025897979736e-01
2.071371227502822876e-01 5.322927236557006836e-01 -2.455495744943618774e-01
-3.964498043060302734e-01 8.368286490440368652e-02 -3.423482924699783325e-02
1.354125589132308960e-01 -8.070734143257141113e-01 6.197512894868850708e-02
7.034368813037872314e-02 -2.622795701026916504e-01 -3.818566799163818359e-01
-5.154781043529510498e-02 -2.795158922672271729e-01 -3.883552849292755127e-01
2.558746039867401123e-01 4.505527019500732422e-01 -2.328182309865951538e-01
-3.737373352050781250e-01 1.328130215406417847e-01 -1.453336775302886963e-01
-3.585866689682006836e-01 1.217813342809677124e-01 -1.865701377391815186e-01
2.029205709695816040e-01 -6.205271482467651367e-01 1.949874162673950195e-01
-2.527601420879364014e-01 6.557798981666564941e-01 -9.502708911895751953e-03
-5.105319619178771973e-02 -3.123557269573211670e-01 -3.830660879611968994e-01
-1.614324450492858887e-01 -6.814374327659606934e-01 1.879861056804656982e-01
1.605255454778671265e-01 4.824228584766387939e-01 -2.970998585224151611e-01
-1.482959240674972534e-01 -8.199307918548583984e-01 2.138957753777503967e-02
3.486101031303405762e-01 -3.085571229457855225e-01 -1.273135989904403687e-01
-2.023904472589492798e-01 7.355835437774658203e-01 -2.154701016843318939e-02
-1.286750584840774536e-01 8.065282702445983887e-01 -6.367381662130355835e-02
3.802117407321929932e-01 -2.479128837585449219e-01 6.415022164583206177e-02
-6.449564546346664429e-02 -6.682682782411575317e-02 3.877651691436767578e-01
4.343264177441596985e-02 -1.316854357719421387e-01 3.921808004379272461e-01
-2.639487087726593018e-01 -3.941872417926788330e-01 -2.670145630836486816e-01
1.834366470575332642e-01 -3.083636164665222168e-01 3.302587568759918213e-01
5.870796740055084229e-02 8.640226125717163086e-01 1.855136826634407043e-02
-2.400382608175277710e-01 -4.736819118261337280e-02 3.049323260784149170e-01
-2.560985274612903595e-03 4.585694968700408936e-01 3.365260660648345947e-01
-1.225191578269004822e-01 5.561598539352416992e-01 2.691295444965362549e-01
2.444289326667785645e-01 2.331480979919433594e-01 -3.000627756118774414e-01
-3.115420937538146973e-01 -1.350103616714477539e-01 -2.674370408058166504e-01
3.704107105731964111e-01 3.666625320911407471e-01 -4.461208358407020569e-03
2.633109875023365021e-02 6.093478202819824219e-01 -2.915738821029663086e-01
-1.179796457290649414e-02 -1.035025045275688171e-01 -4.074468016624450684e-01
-2.838931977748870850e-01 3.929440975189208984e-01 1.907926946878433228e-01
-1.370684057474136353e-01 7.980100512504577637e-01 4.582742974162101746e-02
3.055236041545867920e-01 -5.432175993919372559e-01 6.077111512422561646e-02
3.378284573554992676e-01 3.607751429080963135e-01 -1.454836726188659668e-01
-3.554048538208007812e-01 -2.445202469825744629e-01 1.325369328260421753e-01
-1.460572779178619385e-01 2.235994040966033936e-01 3.463985919952392578e-01
2.575334012508392334e-01 -5.337309241294860840e-01 1.861395239830017090e-01
-2.780900895595550537e-01 5.723211765289306641e-01 7.457791268825531006e-02
2.273198068141937256e-01 -3.692303895950317383e-01 -2.804385125637054443e-01
3.044119179248809814e-01 2.376587986946105957e-01 -2.373221367597579956e-01
3.610680997371673584e-01 -1.073877364397048950e-01 1.803371310234069824e-01
3.839636743068695068e-01 -2.477926909923553467e-01 1.249336358159780502e-02
6.677904725074768066e-02 -6.622153520584106445e-01 2.503246963024139404e-01
2.803415358066558838e-01 7.261023670434951782e-02 -2.831824421882629395e-01
-2.000024765729904175e-01 -2.513874173164367676e-01 3.161234855651855469e-01
-3.362829238176345825e-02 6.343189477920532227e-01 2.653640806674957275e-01
-2.827574033290147781e-03 7.536826133728027344e-01 -2.065201550722122192e-01
-1.682355105876922607e-01 5.299409031867980957e-01 2.522937357425689697e-01
-1.540332436561584473e-01 6.355881690979003906e-01 2.077689468860626221e-01
-3.186830878257751465e-02 1.282404512166976929e-01 -4.047076404094696045e-01
3.679290711879730225e-01 -2.505677342414855957e-01 1.188905611634254456e-01
-2.430332005023956299e-01 -6.674658656120300293e-01 -1.306847035884857178e-01
4.834175575524568558e-03 -3.377590328454971313e-02 -4.092093110084533691e-01
3.509968817234039307e-01 1.221176981925964355e-01 -1.842692792415618896e-01
4.657552018761634827e-02 -7.519237399101257324e-01 -2.058281451463699341e-01
8.634383976459503174e-02 1.839300692081451416e-01 -3.875185847282409668e-01
4.005349874496459961e-01 1.288226991891860962e-01 1.750774681568145752e-02
-3.078929707407951355e-02 -6.850100755691528320e-01 2.429732978343963623e-01
3.617646098136901855e-01 -3.077436387538909912e-01 -8.627881109714508057e-02
1.713993772864341736e-02 8.580837249755859375e-01 6.384140253067016602e-02
-3.626140952110290527e-01 -1.100682765245437622e-01 1.430216729640960693e-01
-2.012300491333007812e-01 -1.220859512686729431e-01 -3.599991798400878906e-01
3.165518343448638916e-01 -7.865926623344421387e-02 -2.390361279249191284e-01
1.004324182868003845e-01 2.355169206857681274e-01 -3.775365650653839111e-01
-1.576177626848220825e-01 -4.916337784379720688e-04 3.570155799388885498e-01
-1.148984059691429138e-01 3.831729590892791748e-01 -3.512909710407257080e-01
1.659177839756011963e-01 8.036469817161560059e-01 -1.785738766193389893e-02
-1.787326335906982422e-01 -7.895877361297607422e-01 -5.978987365961074829e-02
-3.028622865676879883e-01 -4.794701039791107178e-01 1.371425092220306396e-01
3.294232189655303955e-01 5.204986333847045898e-01 3.532607853412628174e-02
1.028877310454845428e-02 -5.732727646827697754e-01 2.989261746406555176e-01
3.182374238967895508e-01 -2.549741864204406738e-01 -2.068165540695190430e-01
-1.128131449222564697e-01 -8.366897702217102051e-01 -7.605018466711044312e-02
-3.592703342437744141e-01 -4.064840376377105713e-01 -4.671960324048995972e-02
2.917030751705169678e-01 -5.513603091239929199e-01 -9.122520685195922852e-02
-2.628554999828338623e-01 -3.502384722232818604e-01 -2.809241712093353271e-01
-1.751591861248016357e-01 -7.404347658157348633e-01 1.226646229624748230e-01
-1.081324443221092224e-01 8.208477497100830078e-01 -6.653628498315811157e-02
1.603393107652664185e-01 -3.924399912357330322e-01 3.219189941883087158e-01
-3.272391855716705322e-01 -3.169501721858978271e-01 -2.092629522085189819e-01
-1.631862074136734009e-01 -6.511069536209106445e-01 -2.351347208023071289e-01
-3.983263075351715088e-01 -3.817166388034820557e-02 1.219693105667829514e-02
-2.427889704704284668e-01 -4.527410119771957397e-02 -3.368796408176422119e-01
3.233618736267089844e-01 2.825442552566528320e-01 -2.001548111438751221e-01
-1.320586353540420532e-01 -5.835025757551193237e-02 3.675965070724487305e-01
-2.756613492965698242e-01 5.795997381210327148e-01 -1.077466383576393127e-01
-3.017829358577728271e-01 4.697450399398803711e-01 -1.532921344041824341e-01
2.330247163772583008e-01 -6.927877664566040039e-01 5.793398618698120117e-02
-1.247376427054405212e-01 -1.044719591736793518e-01 -3.923678100109100342e-01
2.115646153688430786e-01 7.461650967597961426e-01 -5.016454309225082397e-02
2.386634796857833862e-01 -5.176314711570739746e-01 2.189671695232391357e-01
6.655199080705642700e-02 8.264997601509094238e-01 1.125513315200805664e-01
1.710142195224761963e-01 -7.733163833618164062e-01 6.206499040126800537e-02
3.891295194625854492e-01 -1.034010425209999084e-01 -7.920992374420166016e-02
-3.382090851664543152e-02 1.170413196086883545e-01 3.902183771133422852e-01
3.037782907485961914e-01 1.844659447669982910e-01 2.619782686233520508e-01
1.101400181651115417e-01 -8.269662857055664062e-01 5.901705473661422729e-02
-3.239050209522247314e-01 -3.839456737041473389e-01 1.470064520835876465e-01
3.891177177429199219e-01 4.350784420967102051e-02 -9.560274332761764526e-02
2.140236347913742065e-01 7.157199382781982422e-01 -1.021500751376152039e-01
-1.745880767703056335e-02 4.399263560771942139e-01 -3.532202839851379395e-01
1.016866862773895264e-01 4.879357665777206421e-02 3.885152339935302734e-01
3.543664515018463135e-01 -2.008655518293380737e-01 1.736719012260437012e-01
1.161506250500679016e-01 -5.885340571403503418e-01 2.714408934116363525e-01
-3.480699062347412109e-01 5.261811614036560059e-02 -2.165580540895462036e-01
1.547578573226928711e-01 8.043397665023803711e-01 -5.739999935030937195e-02
1.230805516242980957e-01 8.184456229209899902e-01 -8.152855187654495239e-02
-5.287305265665054321e-02 6.960828602313995361e-02 -4.065875411033630371e-01
-1.501645594835281372e-01 7.718862295150756836e-01 7.762556523084640503e-02
-1.745926439762115479e-01 9.821849316358566284e-02 -3.725329935550689697e-01
2.881311774253845215e-01 -5.867860913276672363e-01 5.840300023555755615e-02
-3.503346145153045654e-01 -3.870972990989685059e-02 -2.159691005945205688e-01
3.105673789978027344e-01 -2.868910729885101318e-01 -2.094613015651702881e-01
-1.080899089574813843e-01 6.148601174354553223e-01 2.489190399646759033e-01
3.984800875186920166e-01 -1.157728284597396851e-01 1.051737647503614426e-02
3.625707328319549561e-01 -3.635030388832092285e-01 1.985640078783035278e-02
-2.659062445163726807e-01 -2.097990959882736206e-01 2.695801556110382080e-01
3.119700551033020020e-01 2.472068965435028076e-01 -2.253868430852890015e-01
3.977257311344146729e-01 -6.505568325519561768e-02 6.656115502119064331e-02
-6.146586313843727112e-02 -3.031237125396728516e-01 -3.835860788822174072e-01
-2.918455302715301514e-01 1.910595893859863281e-01 -2.760121822357177734e-01
3.785039782524108887e-01 2.344157695770263672e-01 1.107216775417327881e-01
7.230382412672042847e-02 3.366927206516265869e-01 3.630949258804321289e-01
2.197378426790237427e-01 6.903148889541625977e-01 -1.238136291503906250e-01
3.420438170433044434e-01 4.074602127075195312e-01 1.270237565040588379e-01
-6.672437489032745361e-02 7.283112406730651855e-01 1.977903395891189575e-01
1.019256711006164551e-01 -4.259851574897766113e-01 3.344509601593017578e-01
-1.952344626188278198e-01 -5.973237752914428711e-02 3.360210955142974854e-01
-2.796842157840728760e-01 -4.799463450908660889e-01 1.759214997291564941e-01
-2.686249315738677979e-01 6.329320371150970459e-02 2.777194380760192871e-01
-2.275404185056686401e-01 -6.434410810470581055e-01 -1.795665770769119263e-01
2.640490233898162842e-01 3.461180925369262695e-01 2.702017724514007568e-01
5.514913424849510193e-02 -3.429248332977294922e-01 3.629097640514373779e-01
3.325296640396118164e-01 -2.075101882219314575e-01 2.121900171041488647e-01
3.432148098945617676e-01 7.081068307161331177e-02 -2.021866291761398315e-01
-6.976327300071716309e-02 1.560272425413131714e-01 -3.988047838211059570e-01
2.623612582683563232e-01 8.776649832725524902e-02 -2.996261417865753174e-01
3.338738977909088135e-01 2.361183911561965942e-01 2.124529033899307251e-01
1.959558874368667603e-01 -6.504408121109008789e-01 1.803050339221954346e-01
6.580930203199386597e-02 -2.310307919979095459e-01 3.799984753131866455e-01
-8.917877078056335449e-02 -4.386360645294189453e-01 3.285182714462280273e-01
-2.902263104915618896e-01 4.198231697082519531e-01 -2.058546692132949829e-01
3.041412532329559326e-01 5.133163183927536011e-02 -2.578338086605072021e-01
9.749344736337661743e-02 7.787420749664306641e-01 1.577119380235671997e-01
-3.597185313701629639e-01 7.818327099084854126e-02 -1.912617236375808716e-01
2.464938163757324219e-01 -3.479749262332916260e-01 2.774824798107147217e-01
-5.559891462326049805e-02 6.533076167106628418e-01 -2.656488418579101562e-01
-3.214694559574127197e-01 -5.185035467147827148e-01 -9.416754543781280518e-02
-1.018173433840274811e-02 7.621251344680786133e-01 1.876776516437530518e-01
1.897325366735458374e-02 7.841395735740661621e-01 -1.793690919876098633e-01
1.671176254749298096e-01 -4.268154203891754150e-01 3.088329732418060303e-01
1.270524561405181885e-01 -8.013302683830261230e-01 8.977665752172470093e-02
2.879446446895599365e-01 4.311578869819641113e-01 -2.010592520236968994e-01
-9.493222460150718689e-03 -4.218716025352478027e-01 -3.612776696681976318e-01
5.268840864300727844e-02 -6.898677349090576172e-01 2.374515235424041748e-01
-4.132079891860485077e-03 3.824696540832519531e-01 3.558630943298339844e-01
-3.612348735332489014e-01 3.322562873363494873e-01 -7.022097706794738770e-02
9.342900663614273071e-02 -7.419319748878479004e-01 -1.928998082876205444e-01
2.856312096118927002e-01 6.011645793914794922e-01 9.832502156496047974e-02
-2.633482217788696289e-01 -6.170387864112854004e-01 1.079013198614120483e-01
1.232268512248992920e-01 4.487268924713134766e-01 -3.255077302455902100e-01
-2.719715535640716553e-01 -3.930623829364776611e-01 -2.589768171310424805e-01
-2.320486158132553101e-01 -1.488197594881057739e-01 -3.391907513141632080e-01
-3.654044568538665771e-01 -8.492492884397506714e-02 -1.840653419494628906e-01
3.290061354637145996e-01 -4.734788239002227783e-01 -4.945432022213935852e-02
-3.054062724113464355e-01 1.630550473928451538e-01 2.257238328456878662e-01
2.047873884439468384e-01 5.589311122894287109e-01 -2.350592613220214844e-01
-8.825027197599411011e-02 3.361814618110656738e-01 3.496095538139343262e-01
2.615033388137817383e-01 6.649295687675476074e-01 -5.932946503162384033e-02
1.175722703337669373e-01 -8.295572996139526367e-01 -3.358130156993865967e-02
1.506942659616470337e-01 -5.948420614004135132e-02 -3.730598688125610352e-01
1.558366119861602783e-01 -5.528059005737304688e-01 -2.684333324432373047e-01
-5.159847065806388855e-02 8.364946246147155762e-01 8.324572443962097168e-02
3.915572762489318848e-01 -1.805649995803833008e-01 -1.755754277110099792e-02
3.725740611553192139e-01 -1.936242282390594482e-01 1.297197490930557251e-01
6.710353493690490723e-02 5.417416095733642578e-01 -3.125592470169067383e-01
8.157519996166229248e-02 -5.122768282890319824e-01 -3.193979561328887939e-01
1.919885277748107910e-01 -4.478836357593536377e-01 -2.841644287109375000e-01
5.502215772867202759e-02 4.647634625434875488e-01 3.342079222202301025e-01
-2.010039538145065308e-01 -5.831061005592346191e-01 2.140013277530670166e-01
2.818396128714084625e-02 6.566765308380126953e-01 -2.680800259113311768e-01
-1.264260858297348022e-01 -8.056363463401794434e-01 9.564754366874694824e-02
1.511413455009460449e-01 3.716311752796173096e-01 3.353183567523956299e-01
-7.495462149381637573e-02 4.316798746585845947e-01 3.308511972427368164e-01
-5.339597538113594055e-02 7.456908226013183594e-01 1.895320415496826172e-01
-1.472885161638259888e-01 -6.582509279251098633e-01 2.135289311408996582e-01
2.002474367618560791e-01 -1.922232955694198608e-01 -3.357262909412384033e-01
2.898363471031188965e-01 3.825427889823913574e-01 -2.173106223344802856e-01
-3.220277130603790283e-01 -5.360696911811828613e-01 -5.597594007849693298e-02
-3.838336765766143799e-01 -3.644374432042241096e-03 -1.358481049537658691e-01
3.162015974521636963e-01 -1.328955590724945068e-01 -2.337482124567031860e-01
-1.463419198989868164e-01 -1.745673418045043945e-01 -3.804318308830261230e-01
-1.254835575819015503e-01 -8.198393583297729492e-01 -9.729150682687759399e-02
-3.586076200008392334e-01 1.581663042306900024e-01 -1.784152388572692871e-01
1.853498667478561401e-01 -4.242424666881561279e-01 -2.965371906757354736e-01
-1.861605495214462280e-01 -1.173945292830467224e-01 3.387906253337860107e-01
3.113240003585815430e-01 -1.234529241919517517e-01 -2.414447665214538574e-01
9.182395786046981812e-02 4.557901620864868164e-01 -3.344166874885559082e-01
1.930654495954513550e-01 -3.033293485641479492e-01 -3.221208751201629639e-01
3.896980583667755127e-01 2.223033010959625244e-01 6.109356880187988281e-02
3.245286941528320312e-01 2.260304391384124756e-01 2.286177128553390503e-01
-1.840599924325942993e-01 4.078643918037414551e-01 -3.134075999259948730e-01
7.508382201194763184e-02 -3.093477189540863037e-01 -3.730449080467224121e-01
2.018108516931533813e-01 5.242516994476318359e-01 2.601951360702514648e-01
1.995177567005157471e-02 -4.887605607509613037e-01 -3.404875099658966064e-01
2.132208347320556641e-01 -4.568599462509155273e-01 -2.639768719673156738e-01
-2.591736912727355957e-01 -6.823453307151794434e-01 6.755599752068519592e-03
2.528112009167671204e-02 4.739578366279602051e-01 -3.420570194721221924e-01
-3.994589149951934814e-01 -5.167300812900066376e-03 -7.183713838458061218e-03
-1.453829705715179443e-01 7.427945137023925781e-01 1.265235543251037598e-01
-2.304442077875137329e-01 6.823015809059143066e-01 4.477164149284362793e-02
3.726661801338195801e-01 3.049573600292205811e-01 9.347764402627944946e-02
3.592910468578338623e-01 3.706536591053009033e-01 9.774136543273925781e-02
3.586097806692123413e-02 1.000194028019905090e-01 3.947185277938842773e-01
-1.301689893007278442e-01 -4.890513122081756592e-01 -3.234918415546417236e-01
3.121396899223327637e-01 -3.906670212745666504e-01 1.809426248073577881e-01
1.773646473884582520e-01 3.503195345401763916e-01 -3.245738446712493896e-01
-2.944120764732360840e-01 5.369539260864257812e-01 6.798046827316284180e-02
3.214448988437652588e-01 5.256080627441406250e-01 7.712937146425247192e-02
3.827496469020843506e-01 -1.234776303172111511e-01 1.198332384228706360e-01
-2.876066863536834717e-01 3.307943642139434814e-01 2.088381648063659668e-01
-3.275898098945617676e-01 -5.240694880485534668e-01 -6.854522041976451874e-03
-1.386023908853530884e-01 -3.289533257484436035e-01 3.358010053634643555e-01
2.677579820156097412e-01 -5.177850127220153809e-01 1.814072430133819580e-01
-1.159000024199485779e-01 -3.256572782993316650e-01 3.455273509025573730e-01
-1.099743396043777466e-01 -7.639249414205551147e-02 -3.975003957748413086e-01
-4.198378324508666992e-02 7.304852604866027832e-01 -2.195667475461959839e-01
-1.443480104207992554e-01 -7.900954484939575195e-01 9.778468310832977295e-02
-1.781477332115173340e-01 -3.306183218955993652e-01 3.154025971889495850e-01
-2.345322221517562866e-01 -6.546202898025512695e-01 1.247638985514640808e-01
-3.295904099941253662e-01 4.676155745983123779e-01 -3.714451566338539124e-02
-1.674136519432067871e-01 4.376978576183319092e-01 2.873688936233520508e-01
3.182463347911834717e-01 -4.869245588779449463e-01 9.421230107545852661e-02
1.748930215835571289e-01 -3.996554613113403320e-01 3.126500546932220459e-01
-6.848634034395217896e-02 -4.768106341361999512e-01 3.231332898139953613e-01
-2.664747238159179688e-01 -6.010918617248535156e-01 1.168228536844253540e-01
-2.723509371280670166e-01 5.505290627479553223e-01 -1.490333080291748047e-01
-2.506288886070251465e-01 5.188879370689392090e-01 -2.080908566713333130e-01
2.338384687900543213e-01 1.168514192104339600e-01 -3.214386701583862305e-01
-5.211808532476425171e-02 -8.716638684272766113e-01 8.949144743382930756e-03
-1.680710464715957642e-01 5.486245267093181610e-03 -3.791486024856567383e-01
1.154763028025627136e-01 8.408642411231994629e-01 2.046605199575424194e-02
2.546561956405639648e-01 5.027267336845397949e-01 2.228903621435165405e-01
-5.051499232649803162e-03 1.775391250848770142e-01 3.883287012577056885e-01
9.346048533916473389e-02 3.819629549980163574e-01 -3.531730175018310547e-01
1.360014677047729492e-01 -2.342315763235092163e-02 3.797784745693206787e-01
2.011657953262329102e-01 7.647951245307922363e-01 3.670101985335350037e-02
1.468744724988937378e-01 4.728516191244125366e-02 3.760539591312408447e-01
-2.241731286048889160e-01 3.403657376766204834e-01 2.738250195980072021e-01
-1.286720037460327148e-01 -8.365463018417358398e-01 -3.673728182911872864e-02
-3.158080875873565674e-01 -1.113686859607696533e-01 2.233598679304122925e-01
2.933808974921703339e-02 -8.690567016601562500e-01 3.283739462494850159e-02
1.131227985024452209e-01 8.372250199317932129e-01 -4.705686122179031372e-02
-9.933731704950332642e-02 3.720144629478454590e-01 -3.585008680820465088e-01
8.856927603483200073e-02 -2.764606475830078125e-01 3.696162700653076172e-01
3.797257840633392334e-01 3.109474182128906250e-01 4.013839364051818848e-02
2.912461757659912109e-01 2.457484900951385498e-01 2.657833695411682129e-01
3.699929416179656982e-01 -3.054334819316864014e-01 6.786659359931945801e-02
1.773522198200225830e-01 7.920259237289428711e-01 -2.287882938981056213e-02
-2.903287671506404877e-02 6.976356506347656250e-01 -2.441875934600830078e-01
-2.423963397741317749e-01 1.772359609603881836e-01 2.904485762119293213e-01
3.765187859535217285e-01 -8.953920006752014160e-02 -1.258305460214614868e-01
-2.882686257362365723e-01 -1.740682721138000488e-01 2.509386837482452393e-01
-1.659056097269058228e-01 -3.290026485919952393e-01 3.225505650043487549e-01
3.257857859134674072e-01 4.699775278568267822e-01 -1.065881326794624329e-01
-3.133595883846282959e-01 5.105727314949035645e-01 2.159041538834571838e-02
3.470026254653930664e-01 1.236143410205841064e-01 2.099814265966415405e-01
-3.627677857875823975e-01 -2.543388307094573975e-01 -1.558087915182113647e-01
-1.061245203018188477e-01 8.074449896812438965e-01 -1.015684381127357483e-01
3.563898205757141113e-01 -3.757244646549224854e-01 -4.189861938357353210e-02
3.766801953315734863e-01 -1.232779920101165771e-01 1.391497254371643066e-01
1.905719786882400513e-01 -2.744636237621307373e-01 -3.292835354804992676e-01
3.053139150142669678e-01 -3.743717968463897705e-01 1.999432593584060669e-01
-3.298200368881225586e-01 -4.522512853145599365e-01 9.233532100915908813e-02
3.104309737682342529e-01 1.290545016527175903e-01 -2.453013360500335693e-01
-9.080304205417633057e-02 -8.582549095153808594e-01 9.965975768864154816e-03
1.136052049696445465e-02 -7.646222114562988281e-01 1.904935985803604126e-01
-3.262957334518432617e-01 4.272761940956115723e-01 -1.233550757169723511e-01
-9.828167036175727844e-03 -6.417663097381591797e-01 -2.829593420028686523e-01
-2.621011734008789062e-01 5.789207220077514648e-01 1.089387759566307068e-01
1.287178397178649902e-01 7.744639515876770020e-01 -1.418600380420684814e-01
1.119383722543716431e-01 -3.252737820148468018e-01 -3.586069047451019287e-01
2.113070338964462280e-01 6.212546825408935547e-01 2.011689841747283936e-01
-2.224103808403015137e-01 -2.992779314517974854e-01 -3.249919116497039795e-01
-3.587436676025390625e-01 -2.323113381862640381e-01 1.281654536724090576e-01
2.187954187393188477e-01 -3.998357057571411133e-01 -2.786147296428680420e-01
6.346224248409271240e-02 -5.983188152313232422e-01 -2.912001609802246094e-01
-3.802924156188964844e-01 -1.174417361617088318e-01 -1.409463733434677124e-01
2.703269720077514648e-01 1.501626372337341309e-01 -2.874677181243896484e-01
3.699629902839660645e-01 3.321429491043090820e-01 -6.285540014505386353e-02
-3.531585037708282471e-01 1.515715569257736206e-01 -1.918627917766571045e-01
-3.905576467514038086e-01 1.198302730917930603e-01 2.959707379341125488e-02
5.854234844446182251e-02 6.310133337974548340e-01 -2.761695086956024170e-01
-2.348029166460037231e-01 3.383826613426208496e-01 2.650107145309448242e-01
3.296968340873718262e-01 -4.320442080497741699e-01 -9.763031452894210815e-02
1.065060049295425415e-01 6.914649009704589844e-01 2.246764302253723145e-01
3.408496379852294922e-01 4.282929301261901855e-01 -9.585663676261901855e-02
2.159592211246490479e-01 6.591585278511047363e-01 -1.596309840679168701e-01
-1.331477910280227661e-01 -8.272135853767395020e-01 -6.542793661355972290e-02
3.251863718032836914e-01 5.109580755233764648e-01 -6.492213904857635498e-02
-1.249132081866264343e-01 -5.739170908927917480e-01 2.688290178775787354e-01
-3.903677165508270264e-01 -2.187394350767135620e-01 -2.414568886160850525e-02
-1.571119129657745361e-01 7.519560456275939941e-01 -1.231281161308288574e-01
9.877648949623107910e-02 8.023998737335205078e-01 -1.312748789787292480e-01
-3.770144283771514893e-01 2.437806576490402222e-01 2.533129975199699402e-02
3.817467093467712402e-01 3.044954538345336914e-01 6.748633459210395813e-04
-1.146752685308456421e-01 -9.114952385425567627e-02 -3.957396745681762695e-01
-3.421465158462524414e-01 -4.733589291572570801e-01 -4.954465478658676147e-02
-6.602592021226882935e-02 -5.551431775093078613e-01 -3.167898058891296387e-01
-1.263006776571273804e-01 -2.245568335056304932e-01 3.573935925960540771e-01
-3.918277323246002197e-01 6.146933883428573608e-03 -1.027379930019378662e-01
-2.469033747911453247e-01 -2.807503938674926758e-01 2.754408419132232666e-01
-3.020048439502716064e-01 3.558213412761688232e-01 1.784361600875854492e-01
-2.341274917125701904e-01 2.523218840360641479e-02 -3.424917161464691162e-01
3.755367696285247803e-01 -5.838520079851150513e-02 -1.330139189958572388e-01
1.331779956817626953e-01 -4.995356500148773193e-01 3.007383644580841064e-01
-6.681258976459503174e-02 -8.425732851028442383e-01 -1.072814911603927612e-01
-1.482300311326980591e-01 1.190060675144195557e-01 -3.818872869014739990e-01
-2.436983585357666016e-01 -1.915162801742553711e-01 2.920014560222625732e-01
-7.428920269012451172e-02 3.321580290794372559e-01 -3.727019727230072021e-01
-3.156541883945465088e-01 -2.162612788379192352e-02 -2.675227820873260498e-01
-3.102173209190368652e-01 -2.459171414375305176e-01 -2.528065443038940430e-01
1.825256198644638062e-01 7.133718729019165039e-01 1.572291404008865356e-01
2.120789885520935059e-01 -4.617310166358947754e-01 2.683716416358947754e-01
-1.743742376565933228e-01 -7.849889397621154785e-01 5.565252155065536499e-02
3.999853730201721191e-01 -2.782133407890796661e-02 -3.680206462740898132e-02
5.469117686152458191e-02 5.793959498405456543e-01 -3.003728687763214111e-01
2.441955357789993286e-01 6.973648667335510254e-01 6.455894559621810913e-02
1.916746348142623901e-01 4.737771302461624146e-02 -3.527366816997528076e-01
4.001555740833282471e-01 2.720640040934085846e-02 -4.073128104209899902e-02
-2.513961791992187500e-01 -6.745460033416748047e-01 -1.001943051815032959e-01
3.576867282390594482e-01 -3.478069305419921875e-01 8.798415958881378174e-02
4.020073413848876953e-01 4.293616861104965210e-02 -2.241986617445945740e-02
2.068855464458465576e-01 7.471990585327148438e-01 7.078580558300018311e-02
-2.819225490093231201e-01 5.794613361358642578e-01 4.894344881176948547e-02
2.552650272846221924e-01 -1.208923980593681335e-01 -3.018510341644287109e-01
1.957557946443557739e-01 -7.459344863891601562e-01 -5.486188083887100220e-02
3.138410449028015137e-01 4.931712150573730469e-01 1.357019841670989990e-01
6.064993888139724731e-02 -4.860157966613769531e-01 -3.339479565620422363e-01
-2.906706333160400391e-01 5.750289559364318848e-01 -3.820173814892768860e-02
-1.482551842927932739e-01 7.844429612159729004e-01 5.455758050084114075e-02
2.570977210998535156e-01 -1.469566076993942261e-01 -2.975613772869110107e-01
-1.232096180319786072e-01 6.637417674064636230e-01 -2.339846044778823853e-01
-2.146202176809310913e-01 5.401042699813842773e-01 -2.369850724935531616e-01
-3.451575934886932373e-01 -3.164876699447631836e-01 1.309603303670883179e-01
2.406226098537445068e-01 4.280307888984680176e-01 -2.565135657787322998e-01
-2.632078230381011963e-01 -6.770965456962585449e-01 -2.593379840254783630e-02
-3.579425811767578125e-01 -3.913628756999969482e-01 4.007684811949729919e-02
3.715762495994567871e-01 3.612303137779235840e-01 2.362368628382682800e-02
