-4.642008244991302490e-01 7.180003076791763306e-02 -5.836571380496025085e-02
-3.847828134894371033e-02 -1.857701390981674194e-01 -2.777151763439178467e-02
-3.882277011871337891e-01 -9.312888979911804199e-02 8.848705142736434937e-02
1.896488070487976074e-01 9.080544859170913696e-02 1.475429981946945190e-01
-4.523444175720214844e-01 -1.031862869858741760e-01 3.392913611605763435e-03
-4.451664090156555176e-01 -5.185202881693840027e-02 -9.240172058343887329e-02
1.301788911223411560e-02 -4.559584707021713257e-02 -1.788260191679000854e-01
1.860587149858474731e-01 -1.469826102256774902e-01 9.429710358381271362e-02
-2.728176712989807129e-01 -1.154531762003898621e-01 -1.136796399950981140e-01
-2.200241573154926300e-02 -1.417475193738937378e-01 -1.246626600623130798e-01
2.692120075225830078e-01 -1.603171080350875854e-01 3.671618178486824036e-02
1.516908705234527588e-01 9.515436738729476929e-02 -1.414388269186019897e-01
3.044737875461578369e-01 -3.786075860261917114e-02 1.483657658100128174e-01
-2.519980967044830322e-01 1.430069208145141602e-01 8.096335828304290771e-02
-2.078992687165737152e-02 -1.139616891741752625e-01 1.435179263353347778e-01
3.669416010379791260e-01 -1.007147878408432007e-01 9.526193886995315552e-02
-6.103868782520294189e-02 -3.068816103041172028e-02 1.800296753644943237e-01
-4.752946794033050537e-01 -8.190246671438217163e-02 -3.922529146075248718e-02
-2.833427190780639648e-01 -1.275133490562438965e-01 9.097131341695785522e-02
4.041652977466583252e-01 1.273715868592262268e-02 -1.215149760246276855e-01
8.394062519073486328e-02 -1.379953175783157349e-01 1.189077273011207581e-01
4.219877123832702637e-01 1.045423895120620728e-01 4.455121979117393494e-02
3.326233625411987305e-01 1.002222001552581787e-01 1.052274033427238464e-01
1.254204362630844116e-01 -2.004684135317802429e-02 1.779698431491851807e-01
4.235684275627136230e-01 -1.230866312980651855e-01 1.388087752275168896e-03
6.724716722965240479e-02 -1.118606701493263245e-01 1.439437419176101685e-01
2.637244015932083130e-02 -1.203273162245750427e-01 1.384457200765609741e-01
-1.015101596713066101e-01 -5.376448854804039001e-02 1.720128506422042847e-01
-2.377083152532577515e-02 -7.347855716943740845e-02 1.677711009979248047e-01
-1.225193738937377930e-01 1.676384657621383667e-01 6.316488981246948242e-02
-2.780252695083618164e-01 -1.484585702419281006e-01 -6.321734189987182617e-02
-3.841510117053985596e-01 1.290081888437271118e-01 1.317233312875032425e-02
-3.487259149551391602e-01 1.187648922204971313e-01 -6.805850565433502197e-02
-3.084769546985626221e-01 1.126125603914260864e-01 -9.353537857532501221e-02
-1.610738039016723633e-01 -1.755097694694995880e-02 1.749597638845443726e-01
3.724728226661682129e-01 -1.214207559823989868e-01 6.623177230358123779e-02
-1.235019415616989136e-02 -1.420750170946121216e-01 1.167899891734123230e-01
3.924110829830169678e-01 9.696511179208755493e-02 8.116761595010757446e-02
2.352122366428375244e-01 1.553150415420532227e-01 5.179260298609733582e-02
-3.953266143798828125e-01 -8.410947769880294800e-02 -9.631598740816116333e-02
-1.291715055704116821e-01 -1.626516133546829224e-01 -8.436015248298645020e-02
-3.376305699348449707e-01 -1.454978585243225098e-01 -1.530354563146829605e-02
-3.347790837287902832e-01 -9.029103070497512817e-02 -1.157765015959739685e-01
-8.426824957132339478e-02 -1.634453684091567993e-01 8.100432157516479492e-02
-1.604203432798385620e-01 4.473902657628059387e-02 1.714237630367279053e-01
1.819227784872055054e-01 -1.682738959789276123e-01 5.372760072350502014e-02
3.681854009628295898e-01 5.628312006592750549e-02 -1.185155287384986877e-01
-1.821929812431335449e-01 -1.696247160434722900e-01 -5.105074867606163025e-02
2.711131274700164795e-01 -1.652958691120147705e-01 3.492696676403284073e-03
-1.686770319938659668e-01 1.684795320034027100e-01 -3.014104813337326050e-02
-3.230718150734901428e-02 1.033271327614784241e-01 -1.441100984811782837e-01
-1.600690484046936035e-01 -1.135395467281341553e-01 -1.384983062744140625e-01
-4.405810236930847168e-01 -3.228833898901939392e-02 -1.022190377116203308e-01
-3.244561143219470978e-03 1.758190542459487915e-01 -3.497060760855674744e-02
5.216346383094787598e-01 3.807933628559112549e-02 -3.288400173187255859e-02
3.512584567070007324e-01 1.285590231418609619e-01 5.038436129689216614e-02
-1.337733864784240723e-01 -2.895441092550754547e-02 1.758282780647277832e-01
-2.623165249824523926e-01 -1.439628005027770996e-01 -7.979238778352737427e-02
1.669322401285171509e-01 -1.694856286048889160e-01 5.505121126770973206e-02
9.481386840343475342e-02 1.610146909952163696e-01 8.192444592714309692e-02
3.834529817104339600e-01 1.125301197171211243e-01 -5.331064015626907349e-02
-5.060032010078430176e-01 -5.828527361154556274e-02 3.545457869768142700e-02
-4.316692352294921875e-01 -6.949938833713531494e-02 8.759080618619918823e-02
-7.203693967312574387e-04 -1.718409508466720581e-01 6.977417320013046265e-02
2.672937810420989990e-01 1.026461198925971985e-01 -1.146244630217552185e-01
-2.088608741760253906e-01 1.587690711021423340e-01 6.133548170328140259e-02
3.410007059574127197e-01 -1.038559004664421082e-01 -1.082971170544624329e-01
3.887007236480712891e-01 1.219120770692825317e-01 -1.976203918457031250e-02
-2.937032282352447510e-01 5.989126861095428467e-02 1.450275778770446777e-01
5.277010053396224976e-02 1.832433789968490601e-02 1.827410608530044556e-01
-2.051506191492080688e-01 -1.390393078327178955e-01 -1.048989593982696533e-01
-3.020439743995666504e-01 1.563383080065250397e-02 1.533768773078918457e-01
-5.857815966010093689e-02 1.124120876193046570e-01 -1.360338479280471802e-01
-4.960811138153076172e-01 -4.743283987045288086e-02 5.950281769037246704e-02
-3.259290754795074463e-01 1.437601149082183838e-01 -1.800310611724853516e-02
-5.035689473152160645e-01 -4.822095483541488647e-02 -5.078380927443504333e-02
3.482377529144287109e-01 1.143993362784385681e-01 8.108329027891159058e-02
-1.111508458852767944e-01 7.040741294622421265e-02 1.675409227609634399e-01
1.665619574487209320e-02 8.677248656749725342e-02 -1.553723216056823730e-01
-5.147588253021240234e-02 1.790952831506729126e-01 -1.264409441500902176e-02
6.810317188501358032e-02 -1.601976007223129272e-01 8.997391909360885620e-02
-1.120989322662353516e-01 1.580752134323120117e-01 8.760956674814224243e-02
-7.617814093828201294e-02 1.088405698537826538e-01 -1.380753666162490845e-01
3.532999753952026367e-01 -1.446313112974166870e-01 -2.869968488812446594e-02
-1.588990837335586548e-01 1.709916591644287109e-01 -2.249382063746452332e-02
-5.230550095438957214e-02 -7.379671186208724976e-02 1.668442934751510620e-01
1.263813674449920654e-01 -5.073600448668003082e-03 1.791104674339294434e-01
1.439575850963592529e-01 -1.105582639575004578e-01 -1.449559926986694336e-01
3.183894753456115723e-01 -1.019061878323554993e-01 -1.173738464713096619e-01
3.529369235038757324e-01 -1.323338299989700317e-01 -6.603950262069702148e-02
1.300083994865417480e-01 -7.788849622011184692e-02 1.605374068021774292e-01
2.078137248754501343e-01 -1.754727512598037720e-01 -8.589514531195163727e-03
-1.284945011138916016e-01 -7.444220781326293945e-02 -1.643306016921997070e-01
1.603685319423675537e-01 -5.102799460291862488e-02 -1.699921488761901855e-01
4.629086256027221680e-01 8.544714748859405518e-02 4.006304591894149780e-02
-2.950825989246368408e-01 -1.422495543956756592e-01 6.107272580265998840e-02
3.148313164710998535e-01 3.198622912168502808e-02 1.472456157207489014e-01
7.711449265480041504e-02 1.246987581253051758e-01 1.341217458248138428e-01
5.134476423263549805e-01 -8.191394153982400894e-04 6.427123397588729858e-02
-3.471037447452545166e-01 1.400214880704879761e-01 1.630590483546257019e-02
4.124283194541931152e-01 1.029072031378746033e-01 -4.956772178411483765e-02
4.345859587192535400e-01 -9.276942908763885498e-02 6.847316771745681763e-02
3.045155704021453857e-01 1.045634075999259949e-01 -1.020234972238540649e-01
-6.791440397500991821e-02 -1.859665215015411377e-01 -7.161041721701622009e-03
-3.864416778087615967e-01 -1.215121373534202576e-01 4.564400389790534973e-02
4.654591083526611328e-01 -8.825299888849258423e-02 4.975828900933265686e-02
-8.520524948835372925e-02 -1.120859086513519287e-01 1.420669108629226685e-01
4.024562239646911621e-01 -1.184076890349388123e-01 5.122164636850357056e-02
-1.517472565174102783e-01 1.135948076844215393e-01 -1.271405369043350220e-01
-1.616432964801788330e-01 -5.499976128339767456e-02 1.662681102752685547e-01
1.213534474372863770e-01 -8.905986696481704712e-02 1.554236114025115967e-01
1.180518418550491333e-01 -1.809599064290523529e-02 1.787643730640411377e-01
-2.263206690549850464e-01 1.563919633626937866e-01 6.055006757378578186e-02
3.574479371309280396e-02 5.157502740621566772e-02 1.772625148296356201e-01
2.265241742134094238e-01 1.608599126338958740e-01 -2.090261876583099365e-02
-4.388093352317810059e-01 2.333988435566425323e-02 1.081729754805564880e-01
-1.928989291191101074e-01 -1.881045661866664886e-02 -1.696178764104843140e-01
-1.397069245576858521e-01 -1.176267266273498535e-01 1.323174238204956055e-01
-4.642347097396850586e-01 -9.694598615169525146e-02 9.348007151857018471e-04
3.918638527393341064e-01 -9.861268103122711182e-02 -9.211535006761550903e-02
-2.618400566279888153e-02 -9.961675852537155151e-02 1.535974293947219849e-01
8.939250558614730835e-02 -1.749027520418167114e-01 -6.744728982448577881e-02
-3.432303667068481445e-01 1.037706136703491211e-01 -9.072973579168319702e-02
1.976436376571655273e-02 1.750470250844955444e-01 -3.723469749093055725e-02
1.979484409093856812e-01 1.636776030063629150e-01 -2.842120826244354248e-02
4.194431900978088379e-01 -5.657397955656051636e-02 -1.083515435457229614e-01
1.303709596395492554e-01 1.341494917869567871e-01 -1.072890684008598328e-01
-1.489238440990447998e-01 4.671339318156242371e-02 1.720971912145614624e-01
1.553663313388824463e-01 -7.148937135934829712e-02 -1.643128097057342529e-01
-9.240248054265975952e-02 1.779186129570007324e-01 -7.862707599997520447e-03
-1.545654237270355225e-01 1.821760646998882294e-02 1.762899309396743774e-01
3.321720957756042480e-01 1.387168318033218384e-01 -2.169844135642051697e-02
1.710113734006881714e-01 -3.442824631929397583e-02 1.712762862443923950e-01
-1.309812963008880615e-01 1.896692812442779541e-02 1.783614158630371094e-01
-2.957379221916198730e-01 -1.453490257263183594e-01 -6.060042604804039001e-02
-4.749196469783782959e-01 -4.575868137180805206e-03 -8.770128339529037476e-02
5.326241627335548401e-02 -1.820960491895675659e-01 3.804775327444076538e-02
1.434828788042068481e-01 -1.283471882343292236e-01 1.233580857515335083e-01
-6.864175666123628616e-03 -1.839390099048614502e-01 -4.276203364133834839e-02
5.281327962875366211e-01 -8.957553654909133911e-03 -4.896596446633338928e-02
-1.205867528915405273e-01 8.673881739377975464e-02 -1.503699570894241333e-01
3.193981945514678955e-01 3.941735997796058655e-02 -1.401630491018295288e-01
-1.165695339441299438e-01 -9.884310513734817505e-02 1.490653455257415771e-01
2.507058382034301758e-01 1.221561133861541748e-01 -9.794712066650390625e-02
-5.011160857975482941e-03 -1.320149302482604980e-01 -1.348508298397064209e-01
-3.795494437217712402e-01 1.280570924282073975e-01 -1.987742260098457336e-02
-2.602569758892059326e-01 -1.608284711837768555e-01 2.623378485441207886e-02
3.510102927684783936e-01 1.323768198490142822e-01 -2.693185210227966309e-02
-4.811865836381912231e-02 1.414764970541000366e-01 1.184128522872924805e-01
-2.252808958292007446e-01 8.871894329786300659e-02 -1.353650838136672974e-01
3.609287142753601074e-01 1.004951447248458862e-01 -8.484569936990737915e-02
-2.939193844795227051e-01 1.292883604764938354e-01 -7.603177428245544434e-02
5.296257324516773224e-03 1.803757548332214355e-01 1.937749236822128296e-02
2.196617871522903442e-01 1.425618827342987061e-01 8.808670192956924438e-02
1.512382775545120239e-01 -5.291425809264183044e-02 -1.704416871070861816e-01
3.531099557876586914e-01 1.353508532047271729e-01 -1.725652487948536873e-03
1.987761110067367554e-01 1.662631928920745850e-01 -1.128170732408761978e-02
-2.766678631305694580e-01 -3.151016682386398315e-02 -1.543961912393569946e-01
4.889280498027801514e-01 5.976557731628417969e-02 -4.793163016438484192e-02
7.195495069026947021e-02 6.115809828042984009e-02 -1.665496826171875000e-01
1.239723041653633118e-01 -2.182990312576293945e-02 -1.775065362453460693e-01
-3.482898175716400146e-01 -1.262456327676773071e-01 6.353831291198730469e-02
3.807895183563232422e-01 1.048068888485431671e-02 -1.299895495176315308e-01
-3.034594357013702393e-01 -1.544326394796371460e-01 3.721394343301653862e-03
5.011587142944335938e-01 -5.495615676045417786e-02 5.500404164195060730e-02
-2.201379984617233276e-01 -1.400936394929885864e-01 9.268125891685485840e-02
5.247864723205566406e-01 3.876598924398422241e-02 -2.591812238097190857e-02
-3.470170497894287109e-01 -1.419681608676910400e-01 -2.308488264679908752e-02
-1.113085150718688965e-01 2.257851324975490570e-02 1.795063465833663940e-01
-1.094478219747543335e-01 -1.737747043371200562e-01 5.284900218248367310e-02
3.622750043869018555e-01 6.406096369028091431e-02 -1.160469725728034973e-01
-2.950246818363666534e-02 -1.873430460691452026e-01 -6.327285664156079292e-04
-2.447280734777450562e-01 7.516282796859741211e-02 -1.401598155498504639e-01
3.195613920688629150e-01 -1.110822036862373352e-01 -1.090089827775955200e-01
1.042038276791572571e-01 -1.815134733915328979e-01 3.083200007677078247e-02
-3.939232602715492249e-02 1.038098260760307312e-01 1.532986015081405640e-01
-1.436680704355239868e-01 1.749806702136993408e-01 5.447298288345336914e-03
4.448083043098449707e-02 -1.294879466295242310e-01 1.297153681516647339e-01
1.862400919198989868e-01 8.473552763462066650e-02 -1.439277380704879761e-01
-1.376139223575592041e-01 7.440245896577835083e-02 1.636372953653335571e-01
2.855459153652191162e-01 -1.620560735464096069e-01 -1.977697759866714478e-02
2.920024693012237549e-01 1.467689275741577148e-01 4.138352349400520325e-02
6.328129768371582031e-02 -1.352914124727249146e-01 1.230800673365592957e-01
5.286390781402587891e-01 3.713423013687133789e-02 2.290572598576545715e-02
-9.777856618165969849e-02 -1.815179884433746338e-01 2.581836283206939697e-02
-1.696694046258926392e-01 -1.303438991308212280e-01 1.155926063656806946e-01
4.504710733890533447e-01 8.559817820787429810e-02 5.445732921361923218e-02
1.512787044048309326e-01 -1.403554379940032959e-01 1.090758442878723145e-01
2.071036845445632935e-01 1.502065807580947876e-01 -6.526723504066467285e-02
8.482182025909423828e-02 -1.279419064521789551e-01 -1.362700164318084717e-01
-9.161165356636047363e-02 1.314820200204849243e-01 1.272262334823608398e-01
4.814226031303405762e-01 8.185247331857681274e-02 3.065086668357253075e-03
1.377834379673004150e-01 -7.110549509525299072e-02 1.629539579153060913e-01
-1.584905534982681274e-01 -7.234204560518264771e-02 1.596229225397109985e-01
1.827845126390457153e-01 -1.385236084461212158e-01 -1.143507510423660278e-01
-3.965185880661010742e-01 -1.273407191038131714e-01 -4.722895566374063492e-03
-4.578062891960144043e-02 -1.868913471698760986e-01 -8.232230320572853088e-03
-2.078103572130203247e-01 -3.312730416655540466e-02 -1.660951226949691772e-01
1.659369617700576782e-01 -1.395389884710311890e-01 -1.159712523221969604e-01
-2.366066426038742065e-01 5.799220502376556396e-02 -1.500631868839263916e-01
2.148560732603073120e-01 -9.064348787069320679e-02 1.431216895580291748e-01
2.300743162631988525e-01 -1.147016659379005432e-01 1.223904341459274292e-01
-9.276848286390304565e-02 1.522389054298400879e-01 -8.690547198057174683e-02
1.829107105731964111e-01 1.650452166795730591e-01 4.465062916278839111e-02
-2.546001784503459930e-02 -1.861865967512130737e-01 -2.727276459336280823e-02
-1.849783062934875488e-01 7.695382088422775269e-02 1.571194827556610107e-01
2.066208720207214355e-01 1.656003594398498535e-01 2.001477777957916260e-02
-4.025465846061706543e-01 1.040027104318141937e-02 -1.205399259924888611e-01
-3.909589350223541260e-01 1.165835335850715637e-01 5.588880553841590881e-02
-1.276557296514511108e-01 9.438153356313705444e-02 -1.448245048522949219e-01
-1.022776812314987183e-01 8.816774934530258179e-02 1.597744226455688477e-01
5.265408158302307129e-01 -5.785783380270004272e-02 -4.120634868741035461e-03
1.179886981844902039e-01 1.704560667276382446e-01 5.059132352471351624e-02
1.824029088020324707e-01 1.579932123422622681e-01 6.789885461330413818e-02
-8.238922059535980225e-02 1.216348409652709961e-01 1.374870389699935913e-01
-3.116850256919860840e-01 -1.526672244071960449e-01 -4.453594796359539032e-03
-2.827296853065490723e-01 1.468703597784042358e-01 -4.430503770709037781e-02
-2.612792849540710449e-01 -3.193181380629539490e-02 -1.573692262172698975e-01
1.998196840286254883e-01 1.422394216060638428e-01 9.429070353507995605e-02
9.664858132600784302e-02 5.613785237073898315e-02 1.731430590152740479e-01
1.485252194106578827e-02 1.661634817719459534e-02 -1.803166270256042480e-01
-1.008327119052410126e-03 -3.205991908907890320e-02 -1.809692829847335815e-01
-4.123583436012268066e-01 -1.213129013776779175e-01 -3.070142585784196854e-03
-4.619448781013488770e-01 -3.871939331293106079e-02 -8.874721080064773560e-02
6.679161638021469116e-02 3.080528043210506439e-02 1.806901544332504272e-01
-1.210325211286544800e-01 1.458932608366012573e-01 1.065672636032104492e-01
3.087776601314544678e-01 1.269907057285308838e-01 8.039809018373489380e-02
-2.266938835382461548e-01 -1.572418063879013062e-01 5.874051526188850403e-02
1.466980129480361938e-01 -1.483120173215866089e-01 -1.080015748739242554e-01
3.189085721969604492e-01 1.297654807567596436e-01 7.005675882101058960e-02
-2.596030831336975098e-01 -1.487890779972076416e-01 6.405156850814819336e-02
-5.911727994680404663e-02 6.032662093639373779e-02 1.740945130586624146e-01
2.862614393234252930e-01 -1.300560981035232544e-01 -9.914389997720718384e-02
1.285777986049652100e-01 1.609373390674591064e-01 7.581706345081329346e-02
-3.655374348163604736e-01 4.408051818609237671e-02 -1.246016547083854675e-01
1.911329627037048340e-01 -1.340256333351135254e-01 1.101278960704803467e-01
1.019543483853340149e-01 8.469177037477493286e-02 -1.529683321714401245e-01
2.278999537229537964e-01 -9.602941572666168213e-02 1.374073028564453125e-01
-1.958331614732742310e-01 1.084973886609077454e-01 1.357321739196777344e-01
-2.096219062805175781e-01 -5.193536356091499329e-02 -1.619381755590438843e-01
-3.411379456520080566e-01 8.117852360010147095e-02 1.210325062274932861e-01
-5.416103005409240723e-01 2.671218011528253555e-03 -1.652689278125762939e-02
2.689442634582519531e-01 1.384599320590496063e-02 1.598839610815048218e-01
2.054110467433929443e-01 -1.280432343482971191e-01 1.141250953078269958e-01
-1.368794143199920654e-01 -1.591992080211639404e-01 8.065614104270935059e-02
-9.436567127704620361e-02 7.619936019182205200e-02 1.662109196186065674e-01
-3.494555503129959106e-02 -9.622279554605484009e-02 1.555167585611343384e-01
1.839133203029632568e-01 -1.712502688169479370e-01 -5.432205647230148315e-02
-2.945899069309234619e-01 -1.456671059131622314e-01 5.332934111356735229e-02
4.645482301712036133e-01 -2.533892169594764709e-02 -9.594586491584777832e-02
-5.352628827095031738e-01 -3.282841295003890991e-02 -8.424173109233379364e-03
3.096547126770019531e-01 1.322237029671669006e-02 -1.490442454814910889e-01
-2.328519076108932495e-01 -7.333167642354965210e-02 -1.506597548723220825e-01
-1.585458368062973022e-01 -1.788240373134613037e-01 -5.999633111059665680e-03
-3.706837296485900879e-01 -3.661735728383064270e-02 -1.289462000131607056e-01
-6.034761294722557068e-02 9.528273344039916992e-02 -1.488498002290725708e-01
-3.740724921226501465e-01 5.485375598073005676e-02 1.242608204483985901e-01
-1.620930433273315430e-01 9.907629340887069702e-03 1.760182082653045654e-01
1.014675870537757874e-01 4.325887188315391541e-02 1.763443648815155029e-01
4.154882431030273438e-01 9.282934665679931641e-02 7.211714237928390503e-02
-1.403671354055404663e-01 1.751872450113296509e-01 1.317608822137117386e-02
3.595370650291442871e-01 -1.375630795955657959e-01 -4.885991290211677551e-02
-1.824417859315872192e-01 -4.651756957173347473e-02 -1.670407652854919434e-01
5.131103470921516418e-02 -1.860703825950622559e-01 1.662161573767662048e-02
3.819977939128875732e-01 -6.327801197767257690e-02 -1.201614961028099060e-01
3.975555002689361572e-01 -1.215180829167366028e-01 4.861777648329734802e-02
-2.755211889743804932e-01 1.176619529724121094e-01 1.095751002430915833e-01
1.764490008354187012e-01 -9.589285403490066528e-02 1.454335898160934448e-01
-4.900870621204376221e-01 6.752234697341918945e-02 4.623110219836235046e-02
-4.466593861579895020e-01 -6.834291666746139526e-02 7.968807220458984375e-02
-1.297583580017089844e-01 -1.616562157869338989e-01 7.734597474336624146e-02
-2.820638418197631836e-01 1.086131557822227478e-01 -1.061418876051902771e-01
-4.644414782524108887e-01 5.406699609011411667e-03 9.727368503808975220e-02
4.968865513801574707e-01 7.062289863824844360e-02 -8.232103660702705383e-03
-1.722809113562107086e-02 1.466931998729705811e-01 -9.974507987499237061e-02
-4.248695075511932373e-01 -3.615998104214668274e-02 1.094159781932830811e-01
-4.094463959336280823e-02 -1.586324125528335571e-01 9.316644817590713501e-02
3.552628681063652039e-02 1.050245761871337891e-01 -1.426534801721572876e-01
2.155877500772476196e-01 -1.647960767149925232e-02 1.683945804834365845e-01
5.060592889785766602e-01 -7.602726668119430542e-02 -1.630479097366333008e-02
-1.226425319910049438e-01 -8.480101823806762695e-02 -1.603582650423049927e-01
2.601667046546936035e-01 1.791074685752391815e-02 1.611473113298416138e-01
2.393500059843063354e-01 -1.414930969476699829e-01 8.958584070205688477e-02
9.549359977245330811e-02 -1.830242276191711426e-01 -3.645702078938484192e-02
-1.313609182834625244e-01 -1.684533506631851196e-01 -7.137395441532135010e-02
1.360075324773788452e-01 -8.502110838890075684e-02 -1.605163961648941040e-01
3.807420730590820312e-01 -1.296792179346084595e-01 4.345646873116493225e-02
-3.577170073986053467e-01 -1.342723220586776733e-01 -4.304273799061775208e-02
-1.806379407644271851e-01 5.663510411977767944e-02 1.657657623291015625e-01
-1.004450023174285889e-01 -1.605673134326934814e-01 8.418081700801849365e-02
-1.197079010307788849e-02 1.671418398618698120e-01 7.627546787261962891e-02
4.372534751892089844e-01 3.930071368813514709e-02 1.028471663594245911e-01
-7.755608856678009033e-02 -8.877485990524291992e-02 -1.618815958499908447e-01
-4.614394903182983398e-01 -1.820265781134366989e-03 -9.533666819334030151e-02
4.868841469287872314e-01 1.581011340022087097e-02 8.226240426301956177e-02
2.855142951011657715e-01 1.444190144538879395e-01 -4.306024685502052307e-02
4.756625890731811523e-01 -1.724633015692234039e-02 9.031157940626144409e-02
1.390018314123153687e-02 -1.329941302537918091e-01 1.268292516469955444e-01
1.167719438672065735e-01 8.578779548406600952e-02 1.591249853372573853e-01
-2.112989276647567749e-01 3.588322550058364868e-02 1.670577377080917358e-01
4.071772992610931396e-01 1.070199385285377502e-01 5.406459793448448181e-02
-1.491452008485794067e-01 -1.777140796184539795e-01 -3.203966468572616577e-02
-2.305322587490081787e-01 -1.224329024553298950e-01 -1.177795752882957458e-01
-3.717679381370544434e-01 -1.026617363095283508e-01 8.595151454210281372e-02
2.259050607681274414e-01 -1.385424286127090454e-01 -1.054299771785736084e-01
-7.343539502471685410e-03 5.586060136556625366e-02 1.765111684799194336e-01
-3.163597285747528076e-01 1.217225044965744019e-01 9.040004014968872070e-02
2.321297079324722290e-01 1.175702884793281555e-01 -1.080726087093353271e-01
-3.955779373645782471e-01 1.173725798726081848e-01 -3.790999576449394226e-02
-1.911498457193374634e-01 -1.716015338897705078e-01 2.855610102415084839e-02
-3.307875394821166992e-01 -8.302596211433410645e-02 1.193789839744567871e-01
2.541153728961944580e-01 1.536983698606491089e-01 4.509198665618896484e-02
2.662134543061256409e-02 3.843987733125686646e-02 -1.756773591041564941e-01
1.490215659141540527e-01 -1.598231196403503418e-01 -9.002563357353210449e-02
6.120770052075386047e-02 3.713125735521316528e-02 1.798192411661148071e-01
7.818443328142166138e-02 -1.874260045588016510e-02 1.811349242925643921e-01
5.950293689966201782e-02 -1.278657317161560059e-01 1.306937932968139648e-01
-3.312485218048095703e-01 1.437109261751174927e-01 2.215120568871498108e-02
1.729368567466735840e-01 -1.779461503028869629e-01 -2.948309481143951416e-02
-6.620983034372329712e-02 -2.219486609101295471e-02 -1.803191900253295898e-01
-3.560466170310974121e-01 3.497513011097908020e-03 -1.365367472171783447e-01
7.575696706771850586e-02 -1.364644318819046021e-01 1.211280971765518188e-01
2.803393900394439697e-01 -1.438453942537307739e-01 -8.086547255516052246e-02
-2.398636788129806519e-01 -1.669259965419769287e-01 8.612325415015220642e-03
2.014621943235397339e-01 -1.756526678800582886e-01 9.665370918810367584e-03
9.266757220029830933e-02 -1.585898920893669128e-02 -1.798117309808731079e-01
2.661508917808532715e-01 -1.541223227977752686e-01 -6.615139544010162354e-02
-1.767132990062236786e-02 1.319686323404312134e-01 1.299537420272827148e-01
8.884925395250320435e-02 -1.368001103401184082e-01 -1.275608092546463013e-01
-2.297038584947586060e-01 1.223440766334533691e-01 -1.047231107950210571e-01
1.967975050210952759e-01 7.786589860916137695e-02 1.537479758262634277e-01
-2.807984948158264160e-01 5.905743688344955444e-02 1.482330858707427979e-01
-3.943644464015960693e-03 1.278483569622039795e-01 1.341532021760940552e-01
-4.655152857303619385e-01 -3.775788098573684692e-02 8.795259147882461548e-02
3.555850312113761902e-02 -1.302331686019897461e-01 -1.363096833229064941e-01
3.559907078742980957e-01 -1.450813114643096924e-01 1.134595926851034164e-02
-4.327977001667022705e-01 -7.687222957611083984e-02 8.048283308744430542e-02
4.135515391826629639e-01 6.742580980062484741e-02 9.866134077310562134e-02
-1.885746270418167114e-01 1.432648152112960815e-01 -8.582105487585067749e-02
-3.021813631057739258e-01 1.498520672321319580e-01 2.855285257101058960e-02
3.959408029913902283e-02 -2.225010097026824951e-02 -1.815271675586700439e-01
-1.754410266876220703e-01 -1.232062578201293945e-01 1.220732182264328003e-01
2.602503001689910889e-01 -1.650030165910720825e-01 -3.322252258658409119e-02
-5.169184207916259766e-01 -1.512166671454906464e-02 5.695109441876411438e-02
1.244575250893831253e-03 -1.832799613475799561e-01 -4.607747122645378113e-02
-4.422478675842285156e-01 8.541334420442581177e-02 6.824583560228347778e-02
-3.359293639659881592e-01 1.214663535356521606e-01 8.199553191661834717e-02
8.265729248523712158e-02 -3.193128854036331177e-02 -1.791454404592514038e-01
-1.865663081407546997e-01 1.514761596918106079e-01 8.533922582864761353e-02
3.499726653099060059e-01 -1.048939600586891174e-01 -1.040525436401367188e-01
-2.566066682338714600e-01 1.246058344841003418e-01 -9.513551741838455200e-02
4.533227384090423584e-01 -9.579080343246459961e-02 -5.499112606048583984e-02
-5.136659741401672363e-01 -5.337373167276382446e-02 3.033230081200599670e-02
5.649266764521598816e-02 1.787951439619064331e-01 2.375914156436920166e-02
-2.763578593730926514e-01 1.486254334449768066e-01 -4.299642890691757202e-02
-5.245432853698730469e-01 -3.520017117261886597e-02 3.548669070005416870e-02
1.417118161916732788e-01 -1.699384599924087524e-01 6.039266288280487061e-02
2.873731851577758789e-01 1.459424346685409546e-01 -3.672614321112632751e-02
3.540823757648468018e-01 -1.460584253072738647e-01 -1.599370688199996948e-02
-2.625865638256072998e-01 1.564578413963317871e-01 3.715360164642333984e-02
3.330421075224876404e-02 1.591588705778121948e-01 -7.837090641260147095e-02
1.096883416175842285e-01 2.381313592195510864e-02 -1.755855530500411987e-01
1.391131877899169922e-01 1.722751706838607788e-01 3.201230242848396301e-02
-3.651736378669738770e-01 1.566702499985694885e-02 -1.324039101600646973e-01
-2.385835349559783936e-01 1.294008344411849976e-01 -9.380417317152023315e-02
3.942277133464813232e-01 2.178240008652210236e-02 -1.231114342808723450e-01
1.155974715948104858e-01 1.191137135028839111e-01 -1.254969388246536255e-01
-1.491445004940032959e-01 1.611860990524291992e-01 7.402595132589340210e-02
-5.225691795349121094e-01 -5.192823335528373718e-02 4.818292334675788879e-03
-1.451306194067001343e-01 -1.756729930639266968e-01 -4.460338130593299866e-02
-2.199462503194808960e-01 -1.191658824682235718e-01 -1.232869103550910950e-01
3.907033242285251617e-03 1.797254532575607300e-01 2.699553221464157104e-02
1.801070272922515869e-01 -1.777104288339614868e-01 -2.523213252425193787e-02
1.022221669554710388e-01 5.093003809452056885e-02 1.743168681859970093e-01
3.829069435596466064e-01 1.102346628904342651e-01 6.712882965803146362e-02
-6.833719462156295776e-02 1.443113088607788086e-01 1.137332916259765625e-01
-3.624882400035858154e-01 -6.252573430538177490e-02 1.216981410980224609e-01
-2.109740227460861206e-01 8.026206493377685547e-02 -1.431376785039901733e-01
-3.702707216143608093e-02 -1.235383749008178711e-01 -1.414435356855392456e-01
3.405374586582183838e-01 1.095887571573257446e-01 -8.244245499372482300e-02
-2.306646406650543213e-01 6.566181778907775879e-02 -1.476399600505828857e-01
-4.117742478847503662e-01 -1.201840043067932129e-01 -2.046388387680053711e-02
-5.895423516631126404e-02 1.782015860080718994e-01 3.299918025732040405e-02
5.793580412864685059e-02 -1.245021075010299683e-01 -1.406003087759017944e-01
2.069380581378936768e-01 1.641408354043960571e-01 -1.888282597064971924e-02
-5.072876214981079102e-01 6.691870745271444321e-03 6.817269325256347656e-02
-9.453207999467849731e-02 1.556743830442428589e-01 -8.070925623178482056e-02
-3.463540673255920410e-01 1.330427080392837524e-01 5.167445912957191467e-02
4.428212344646453857e-01 4.345612227916717529e-02 9.820961207151412964e-02
5.256225466728210449e-01 -3.430908918380737305e-02 -4.498904570937156677e-02
-1.657637953758239746e-01 1.239243298768997192e-01 1.265928447246551514e-01
-4.517092108726501465e-01 1.016143187880516052e-01 1.309156231582164764e-02
4.756507873535156250e-01 2.608868293464183807e-02 -8.390321582555770874e-02
-2.104000151157379150e-01 -4.447861015796661377e-02 1.633727103471755981e-01
2.416037023067474365e-01 -1.535456627607345581e-01 -7.740948349237442017e-02
2.386379539966583252e-01 -8.187069743871688843e-02 -1.484255790710449219e-01
-3.071083426475524902e-01 -1.305554062128067017e-01 7.719354331493377686e-02
3.467836976051330566e-01 1.112313047051429749e-01 8.638187497854232788e-02
-3.800169527530670166e-01 -1.227039247751235962e-01 4.842093586921691895e-02
2.868874967098236084e-01 1.485489159822463989e-01 -2.661985158920288086e-02
4.121932685375213623e-01 -3.911133855581283569e-02 -1.171951517462730408e-01
2.184740155935287476e-01 -1.444370299577713013e-01 9.072926640510559082e-02
-9.308633953332901001e-02 -1.784425675868988037e-01 -5.137908458709716797e-02
2.176486402750015259e-01 -1.150900349020957947e-01 1.244478076696395874e-01
-8.078605681657791138e-02 -1.771151125431060791e-01 4.859856888651847839e-02
5.952722579240798950e-02 -1.097308844327926636e-01 1.458803564310073853e-01
1.482072323560714722e-01 -1.697251349687576294e-01 -6.961138546466827393e-02
-1.389425396919250488e-01 -1.116004213690757751e-01 1.374598294496536255e-01
-1.734237074851989746e-01 -7.946819067001342773e-02 1.543122977018356323e-01
4.040423035621643066e-01 -1.242293342947959900e-01 -4.316152259707450867e-02
-2.860339283943176270e-01 -1.477912515401840210e-01 -6.032264977693557739e-02
3.120093941688537598e-01 1.235110759735107422e-01 -7.450361549854278564e-02
1.300814151763916016e-01 -1.760361641645431519e-01 -5.614650622010231018e-02
-4.116891324520111084e-01 -1.535937748849391937e-02 1.200671941041946411e-01
-3.759885132312774658e-01 -1.339223831892013550e-01 -1.508234161883592606e-02
3.893983960151672363e-01 1.254650391638278961e-02 1.287785470485687256e-01
-1.239209920167922974e-01 -1.821987628936767578e-01 -3.841768018901348114e-03
4.504203796386718750e-01 -4.873949661850929260e-02 9.433387964963912964e-02
-4.340228810906410217e-02 1.461510658264160156e-01 1.125476211309432983e-01
4.649952054023742676e-01 3.242496773600578308e-02 9.075367450714111328e-02
-4.203744828701019287e-01 5.042712762951850891e-02 -1.008529737591743469e-01
-3.083938173949718475e-02 1.745345741510391235e-01 5.410970747470855713e-02
3.546586930751800537e-01 -1.261155158281326294e-01 6.841151416301727295e-02
-4.817943274974822998e-01 -6.093861535191535950e-02 -6.094396859407424927e-02
-4.712144732475280762e-01 9.824493899941444397e-03 9.321164339780807495e-02
-5.867175012826919556e-02 1.425408422946929932e-01 -1.040556132793426514e-01
4.554657936096191406e-01 -3.563412651419639587e-02 9.696766734123229980e-02
-4.237437546253204346e-01 -5.832035467028617859e-02 9.946027398109436035e-02
4.271808564662933350e-01 -1.101985722780227661e-01 4.662144556641578674e-02
-1.035604812204837799e-02 2.684515342116355896e-02 -1.785362064838409424e-01
2.296869009733200073e-01 6.314167380332946777e-02 -1.490992903709411621e-01
8.579310029745101929e-02 -1.680905967950820923e-01 7.372996956110000610e-02
-3.794986605644226074e-01 7.114566862583160400e-02 1.138729304075241089e-01
3.134002685546875000e-01 1.320284307003021240e-01 6.849604845046997070e-02
-4.097412228584289551e-01 -9.031575173139572144e-02 8.012153953313827515e-02
6.285084784030914307e-02 1.241772621870040894e-01 1.355630010366439819e-01
2.261892408132553101e-01 -1.569077372550964355e-01 6.645453721284866333e-02
-6.911913305521011353e-02 -1.591923087835311890e-01 9.015193581581115723e-02
2.481589466333389282e-01 -6.521566212177276611e-02 -1.536976546049118042e-01
9.664752334356307983e-02 1.460238993167877197e-01 1.075694486498832703e-01
2.520880103111267090e-02 8.874681591987609863e-02 -1.540490090847015381e-01
-2.172829359769821167e-01 -6.342850625514984131e-02 -1.571971178054809570e-01
-1.772868782281875610e-01 -3.951039537787437439e-02 -1.691043525934219360e-01
3.488414585590362549e-01 8.017522841691970825e-02 -1.094436049461364746e-01
-2.458063662052154541e-01 -9.526477754116058350e-02 1.326133459806442261e-01
1.496748030185699463e-01 4.141122847795486450e-02 -1.679754406213760376e-01
4.393528997898101807e-01 -9.684632718563079834e-02 -6.543073803186416626e-02
1.277194619178771973e-01 6.778213661164045334e-03 -1.767199635505676270e-01
2.400797232985496521e-02 -1.222048327326774597e-01 -1.433313488960266113e-01
-3.844886422157287598e-01 5.117037892341613770e-02 1.220936775207519531e-01
4.969219490885734558e-02 8.380336314439773560e-02 1.643719971179962158e-01
4.312322437763214111e-01 1.046758964657783508e-01 -2.232139185070991516e-02
1.860906253568828106e-03 1.773904263973236084e-02 -1.801924407482147217e-01
-2.611006200313568115e-01 1.549729704856872559e-01 -3.111843019723892212e-02
-4.243631660938262939e-02 -1.678833067417144775e-01 7.639447599649429321e-02
7.038234919309616089e-02 1.658536046743392944e-01 7.436350733041763306e-02
2.590843737125396729e-01 9.905233234167098999e-02 -1.198591515421867371e-01
1.696177572011947632e-02 -1.848460137844085693e-01 2.783318236470222473e-02
2.692935466766357422e-01 -1.321693956851959229e-01 9.390056878328323364e-02
-1.757844239473342896e-01 2.467806078493595123e-02 1.733738034963607788e-01
-4.659318029880523682e-01 -6.126907467842102051e-02 7.275754958391189575e-02
1.845529377460479736e-01 1.660325676202774048e-01 -2.547571435570716858e-02
2.611339688301086426e-01 1.569544225931167603e-01 -1.732219243422150612e-03
-4.896110296249389648e-01 -4.410432279109954834e-02 6.766092032194137573e-02
2.295992970466613770e-01 5.891532823443412781e-02 1.568162292242050171e-01
1.439844071865081787e-01 1.476606875658035278e-01 9.807360172271728516e-02
-2.754149138927459717e-01 1.346404552459716797e-01 8.693871647119522095e-02
-2.620998620986938477e-01 -2.143064141273498535e-02 -1.584571450948715210e-01
6.724006682634353638e-02 1.088974103331565857e-01 -1.382892578840255737e-01
2.514322102069854736e-02 1.438554823398590088e-01 -1.033391430974006653e-01
-2.724839746952056885e-01 1.559206843376159668e-01 -1.513128075748682022e-02
-3.743004202842712402e-01 1.278191655874252319e-01 4.058121517300605774e-02
-3.181838691234588623e-01 -1.339092105627059937e-01 6.594303995370864868e-02
3.395965397357940674e-01 5.299371853470802307e-02 1.341825127601623535e-01
-3.155337572097778320e-01 -5.084842070937156677e-02 -1.410711258649826050e-01
1.294647157192230225e-01 -1.625879108905792236e-01 7.875502854585647583e-02
5.008884668350219727e-01 -7.641600817441940308e-02 -2.917599305510520935e-02
5.197771191596984863e-01 4.903508722782135010e-02 2.022732421755790710e-02
2.043801546096801758e-02 1.762160807847976685e-01 4.690399020910263062e-02
-5.027958750724792480e-01 6.736143678426742554e-02 -1.498753670603036880e-02
8.520793914794921875e-02 1.583098173141479492e-01 8.872904628515243530e-02
-8.213564008474349976e-02 -1.813094466924667358e-01 3.208798915147781372e-02
4.394518733024597168e-01 -3.464270010590553284e-02 1.051573753356933594e-01
-2.176585495471954346e-01 1.449501365423202515e-01 -7.552588731050491333e-02
1.489440202713012695e-01 -1.702808439731597900e-01 5.778834596276283264e-02
5.340717434883117676e-01 -1.125454716384410858e-02 -4.102938622236251831e-02
4.571853578090667725e-01 2.307580411434173584e-02 9.816221892833709717e-02
2.193091064691543579e-01 -1.248879954218864441e-01 -1.219552308320999146e-01
4.312412738800048828e-01 3.937567025423049927e-02 1.056964471936225891e-01
2.975621521472930908e-01 -1.429217457771301270e-01 6.646806001663208008e-02
-3.616569638252258301e-01 -7.635171711444854736e-02 -1.157308593392372131e-01
-2.617641389369964600e-01 -8.845530450344085693e-03 1.615078598260879517e-01
-4.067748039960861206e-02 1.755077391862869263e-01 4.960191994905471802e-02
1.995795071125030518e-01 -1.057777106761932373e-01 -1.410111486911773682e-01
3.690835535526275635e-01 1.009619906544685364e-01 8.869884163141250610e-02
-2.826714515686035156e-01 -1.033393964171409607e-01 -1.216456592082977295e-01
3.881241381168365479e-01 1.156873628497123718e-01 -4.214414954185485840e-02
3.887144327163696289e-01 6.002423167228698730e-02 1.142043024301528931e-01
-5.280992388725280762e-02 -1.784165501594543457e-01 4.888114333152770996e-02
-1.749539673328399658e-01 1.785722561180591583e-03 -1.718166470527648926e-01
-4.449911713600158691e-01 4.490319266915321350e-02 9.844516962766647339e-02
-1.416836678981781006e-01 -9.770653396844863892e-02 -1.515412777662277222e-01
-4.919577836990356445e-01 5.259536672383546829e-03 8.020523935556411743e-02
5.928649380803108215e-02 1.502920687198638916e-02 -1.796092242002487183e-01
4.830193817615509033e-01 -6.615210324525833130e-02 -6.510426849126815796e-02
-1.424092948436737061e-01 1.271997243165969849e-01 1.264856308698654175e-01
-1.763155311346054077e-01 -1.764617860317230225e-01 -1.511793676763772964e-02
1.876567155122756958e-01 -6.861645728349685669e-02 -1.616688072681427002e-01
-5.153777003288269043e-01 5.870927497744560242e-02 8.506189100444316864e-03
-5.042442083358764648e-01 -6.962651759386062622e-02 -7.792479358613491058e-03
2.288899570703506470e-01 -1.234761252999305725e-01 1.141963750123977661e-01
-1.114099696278572083e-01 5.387198925018310547e-02 -1.668893992900848389e-01
4.727040231227874756e-01 -9.663747251033782959e-02 2.088604122400283813e-02
-1.166565790772438049e-01 -1.415633857250213623e-01 -1.176283955574035645e-01
-1.567787826061248779e-01 -1.064130067825317383e-01 1.393268555402755737e-01
1.406665146350860596e-01 3.834797441959381104e-02 1.742764413356781006e-01
-3.875924348831176758e-01 -1.297580599784851074e-01 1.124255545437335968e-02
-1.421282440423965454e-01 -1.675503402948379517e-01 6.168084964156150818e-02
4.121018052101135254e-01 1.155696883797645569e-01 1.065772864967584610e-02
-3.802489340305328369e-01 -4.471876844763755798e-02 1.237262040376663208e-01
-3.252397850155830383e-02 -6.084341555833816528e-02 -1.746327579021453857e-01
4.324960112571716309e-01 -2.955511771142482758e-02 -1.107989400625228882e-01
7.668361812829971313e-02 9.862055629491806030e-02 1.545930057764053345e-01
-2.332263737916946411e-01 1.632887423038482666e-01 -1.046082377433776855e-02
2.148451209068298340e-01 -6.394682824611663818e-02 1.566538959741592407e-01
3.385767042636871338e-01 8.890323340892791748e-02 1.132883131504058838e-01
2.477670460939407349e-01 -1.295857280492782593e-01 -1.107226237654685974e-01
1.106049343943595886e-01 1.466759294271469116e-01 -9.256171435117721558e-02
-2.303499579429626465e-01 1.274592727422714233e-01 -9.841603040695190430e-02
-2.191281318664550781e-01 -1.138771921396255493e-01 1.229675039649009705e-01
-2.548572421073913574e-01 5.560817569494247437e-02 1.546938419342041016e-01
3.947208523750305176e-01 1.149944961071014404e-01 -3.743490949273109436e-02
-1.965113878250122070e-01 -1.704440116882324219e-01 -3.986235707998275757e-02
2.126017361879348755e-01 -1.183191239833831787e-01 1.224557384848594666e-01
3.717370033264160156e-01 -6.252156104892492294e-03 1.351396739482879639e-01
-3.883229792118072510e-01 -5.224470421671867371e-02 -1.179306358098983765e-01
-3.095798790454864502e-01 -1.451029926538467407e-01 -5.202996358275413513e-02
-5.060512423515319824e-01 6.232386082410812378e-02 -2.146748080849647522e-02
-4.743866324424743652e-01 -7.209922373294830322e-02 5.433320626616477966e-02
7.202668488025665283e-02 1.141997650265693665e-01 1.436709165573120117e-01
-4.036206603050231934e-01 1.223459094762802124e-01 2.364512532949447632e-03
1.138099804520606995e-01 1.429050564765930176e-01 1.098041906952857971e-01
5.004932284355163574e-01 6.849209964275360107e-02 -3.321661613881587982e-03
-3.483147323131561279e-01 -1.424771249294281006e-01 -1.534126978367567062e-02
3.416091501712799072e-01 6.574172526597976685e-02 -1.217451617121696472e-01
-1.965384781360626221e-01 -1.725693643093109131e-01 -2.774060145020484924e-02
3.284614160656929016e-02 -1.748511642217636108e-01 -7.244512438774108887e-02
-3.105558454990386963e-01 1.333454400300979614e-01 7.395356148481369019e-02
-1.364240795373916626e-01 1.559141427278518677e-01 8.780355751514434814e-02
1.498279720544815063e-01 -2.258313819766044617e-02 1.755060255527496338e-01
3.117520213127136230e-01 1.366459727287292480e-01 -4.770975559949874878e-02
1.964039355516433716e-01 -7.072310149669647217e-02 1.564235240221023560e-01
-3.417020197957754135e-03 -9.164606779813766479e-02 1.587708145380020142e-01
4.776516258716583252e-01 6.941603869199752808e-02 5.210592597723007202e-02
-6.479093432426452637e-02 3.047378920018672943e-02 -1.764049977064132690e-01
-2.398782521486282349e-01 -1.671854257583618164e-01 -1.363383885473012924e-02
-6.852035224437713623e-02 1.749857515096664429e-01 -3.343022614717483521e-02
2.050829380750656128e-01 -2.690547704696655273e-02 -1.687146127223968506e-01
-1.513473838567733765e-01 -8.584435284137725830e-02 1.534987986087799072e-01
1.249323934316635132e-01 1.725648492574691772e-01 3.816603869199752808e-02
-5.331112742424011230e-01 -3.638721629977226257e-02 1.083031576126813889e-02
-8.330141752958297729e-02 1.387365013360977173e-01 1.196970343589782715e-01
-8.933106809854507446e-02 1.787121593952178955e-01 1.097554992884397507e-02
3.324891999363899231e-02 -4.499355796724557877e-03 1.837921440601348877e-01
-3.060623705387115479e-01 -5.265291407704353333e-02 1.423277109861373901e-01
-1.058119237422943115e-01 3.787651658058166504e-03 -1.780407428741455078e-01
-3.097446560859680176e-01 8.085282146930694580e-02 -1.216828078031539917e-01
4.811863899230957031e-01 3.036036156117916107e-02 8.137379586696624756e-02
4.926376342773437500e-01 2.998477406799793243e-02 7.325426489114761353e-02
1.887532919645309448e-01 -1.455635279417037964e-01 -1.044023036956787109e-01
4.813182950019836426e-01 4.566142708063125610e-02 -6.885109096765518188e-02
2.434355914592742920e-01 -4.180750995874404907e-02 -1.608637422323226929e-01
1.470665782690048218e-01 -1.732651293277740479e-01 -6.025945767760276794e-02
4.904523026198148727e-03 -2.138948999345302582e-02 1.826808750629425049e-01
1.029129251837730408e-01 1.272004544734954834e-01 -1.184832230210304260e-01
-1.137408986687660217e-01 1.043479293584823608e-01 1.488749831914901733e-01
3.827275633811950684e-01 -7.424903661012649536e-02 -1.143727973103523254e-01
-4.786937236785888672e-01 -8.647941052913665771e-02 1.701172813773155212e-02
1.851398497819900513e-01 1.595939099788665771e-01 6.255695223808288574e-02
-4.985159337520599365e-01 -6.778174638748168945e-02 -3.139829263091087341e-02
2.461783029139041901e-02 -1.762268841266632080e-01 5.889095366001129150e-02
-4.867031872272491455e-01 -7.108878344297409058e-03 8.334620296955108643e-02
1.544330269098281860e-02 3.420855477452278137e-02 -1.768957078456878662e-01
-3.425351679325103760e-01 5.816720798611640930e-02 1.329484283924102783e-01
3.623564541339874268e-01 -8.252138644456863403e-02 -1.168154478073120117e-01
-1.280027031898498535e-01 1.118575781583786011e-01 1.419622302055358887e-01
3.075562119483947754e-01 1.273673921823501587e-01 -6.995819509029388428e-02
1.278368532657623291e-01 -1.793743669986724854e-01 3.335158154368400574e-02
2.051645964384078979e-01 1.559381633996963501e-01 6.470710784196853638e-02
-3.610373139381408691e-01 1.359382718801498413e-01 -4.751519765704870224e-03
-1.010649800300598145e-01 -1.766363978385925293e-01 4.577453434467315674e-02
-3.765540719032287598e-01 6.011878699064254761e-02 1.210021898150444031e-01
2.217869646847248077e-02 -1.833540350198745728e-01 -4.575337842106819153e-02
3.873007893562316895e-01 -4.412946105003356934e-02 1.230761930346488953e-01
1.127100884914398193e-01 1.748660206794738770e-01 -1.534133683890104294e-02
-2.661020457744598389e-01 -9.033539146184921265e-02 -1.349919289350509644e-01
-2.531519904732704163e-02 -1.080469414591789246e-02 -1.820150613784790039e-01
-8.110811561346054077e-02 -3.800231590867042542e-02 1.775991469621658325e-01
-3.754894435405731201e-01 4.434302449226379395e-02 1.277172118425369263e-01
3.610249757766723633e-01 1.330863535404205322e-01 -2.614393597468733788e-04
-3.676269948482513428e-01 1.061661690473556519e-01 -7.697654515504837036e-02
2.944835424423217773e-01 -5.462385714054107666e-02 1.454507559537887573e-01
-1.250873059034347534e-01 -1.190074682235717773e-01 -1.385806649923324585e-01
5.394996404647827148e-01 3.291267901659011841e-03 3.121949359774589539e-02
3.231555223464965820e-01 -1.278760433197021484e-01 -8.839924633502960205e-02
-1.970861479640007019e-02 -1.012722253799438477e-01 1.526487171649932861e-01
-1.537282764911651611e-01 1.369275450706481934e-01 1.139203011989593506e-01
-3.640860617160797119e-01 -1.584355346858501434e-02 -1.341522932052612305e-01
-9.217818826436996460e-02 -1.740157753229141235e-01 5.578463152050971985e-02
2.638633847236633301e-01 -7.254033535718917847e-02 -1.479141712188720703e-01
1.567656844854354858e-01 -1.070291996002197266e-01 -1.459553092718124390e-01
3.182282149791717529e-01 -6.729903072118759155e-02 -1.377943903207778931e-01
-4.714217483997344971e-01 -7.062889635562896729e-02 -6.029377877712249756e-02
-5.106338858604431152e-01 -4.309199750423431396e-02 -4.697772487998008728e-02
-3.694478571414947510e-01 1.317043900489807129e-01 3.033538907766342163e-02
3.822531104087829590e-01 1.252352148294448853e-01 -1.299238391220569611e-02
4.018650650978088379e-01 -6.492839753627777100e-02 -1.118530482053756714e-01
-6.344958394765853882e-02 -1.737907975912094116e-01 6.086971983313560486e-02
1.754689216613769531e-02 -1.865262687206268311e-01 -2.791045978665351868e-02
-2.353905141353607178e-01 -1.260437816381454468e-01 -1.128561645746231079e-01
-3.535956144332885742e-01 -1.252099126577377319e-01 -6.781357526779174805e-02
8.478523045778274536e-02 -2.620504796504974365e-02 -1.796272695064544678e-01
-1.301956027746200562e-01 -1.271295547485351562e-01 1.245907545089721680e-01
9.907638281583786011e-02 1.731843352317810059e-01 -3.090203553438186646e-02
-3.584628403186798096e-01 8.583755046129226685e-02 1.116730049252510071e-01
1.014961525797843933e-01 -1.454480290412902832e-01 -1.169545277953147888e-01
-4.797730743885040283e-01 -8.746927976608276367e-02 5.527338013052940369e-03
