2.460986226797103882e-01 1.557164937257766724e-01 1.828998327255249023e-01
7.216988205909729004e-01 -8.710067719221115112e-02 -2.122577726840972900e-01
-5.889697074890136719e-01 -1.190128847956657410e-01 -1.038610488176345825e-01
7.465779781341552734e-01 7.919710129499435425e-02 -1.673530787229537964e-01
4.778502285480499268e-01 1.260655075311660767e-01 -2.004536241292953491e-01
6.520387530326843262e-01 1.217575967311859131e-01 7.354691624641418457e-02
-9.135049581527709961e-02 1.604321599006652832e-01 -1.980876028537750244e-01
6.442215442657470703e-01 8.268596976995468140e-02 -2.309198230504989624e-01
-3.827234804630279541e-01 1.654989719390869141e-01 1.150658875703811646e-01
-1.440953761339187622e-01 -1.707241833209991455e-01 1.177121400833129883e-01
-6.515421271324157715e-01 1.356832832098007202e-01 -6.803464144468307495e-02
4.208270907402038574e-01 1.186546534299850464e-01 2.531766295433044434e-01
-7.254273295402526855e-01 -9.351489692926406860e-02 -7.024556398391723633e-02
-2.853114902973175049e-01 -1.496300399303436279e-01 1.920873373746871948e-01
-1.345359534025192261e-01 -9.010505676269531250e-02 -3.424144387245178223e-01
-1.201585680246353149e-01 -1.279179602861404419e-01 3.027420043945312500e-01
9.306624531745910645e-01 2.749262936413288116e-02 5.639114230871200562e-02
3.035400807857513428e-01 -1.572157740592956543e-01 -1.757404953241348267e-01
8.044350743293762207e-01 4.914756491780281067e-02 1.890301704406738281e-01
-2.863211333751678467e-01 -1.292934864759445190e-01 -2.327056676149368286e-01
-6.598532795906066895e-01 1.281753480434417725e-01 -1.067343950271606445e-01
-5.800670385360717773e-01 -9.236615896224975586e-02 -2.073455601930618286e-01
5.067363753914833069e-02 1.819853782653808594e-01 4.714007955044507980e-03
1.266014873981475830e-01 -4.694823548197746277e-02 4.168592989444732666e-01
4.282542467117309570e-01 -1.632442176342010498e-01 1.192643567919731140e-01
-2.880193889141082764e-01 -1.397671252489089966e-01 -1.977162957191467285e-01
-2.098124325275421143e-01 1.796675175428390503e-01 -4.401977732777595520e-02
6.062491536140441895e-01 -9.801581501960754395e-02 2.665044069290161133e-01
1.330325007438659668e-01 -1.781346201896667480e-01 -6.929616630077362061e-02
-4.688856601715087891e-01 1.006714254617691040e-01 -2.820107340812683105e-01
6.814643144607543945e-01 -2.526472508907318115e-02 3.046270310878753662e-01
-5.635035037994384766e-01 7.387175410985946655e-02 -2.866899073123931885e-01
6.568732261657714844e-01 2.234158478677272797e-02 3.068304955959320068e-01
-3.095644712448120117e-01 1.560211479663848877e-01 -1.815889179706573486e-01
7.774013280868530273e-01 2.732836641371250153e-02 -2.318971604108810425e-01
2.588325142860412598e-01 -1.709617972373962402e-01 1.370502561330795288e-01
6.288610100746154785e-01 -1.478903293609619141e-01 -6.429735571146011353e-03
3.207054138183593750e-01 -9.744911640882492065e-02 -3.259285986423492432e-01
-8.244901299476623535e-01 4.562199115753173828e-02 1.947949826717376709e-01
-1.011376231908798218e-01 8.910334855318069458e-02 -3.598317205905914307e-01
5.640558600425720215e-01 1.012320071458816528e-01 -2.308792322874069214e-01
5.246445536613464355e-01 -1.339188069105148315e-01 2.130719572305679321e-01
6.225512549281120300e-02 -1.786430776119232178e-01 9.421867877244949341e-02
8.554312586784362793e-01 5.495025962591171265e-02 1.189315915107727051e-01
3.206191658973693848e-01 -1.764332354068756104e-01 3.070313856005668640e-02
2.572231590747833252e-01 -1.766111105680465698e-01 8.410501480102539062e-02
-8.861725330352783203e-01 6.419437378644943237e-02 7.098954916000366211e-02
-4.439339041709899902e-01 -1.274826973676681519e-01 2.105963826179504395e-01
6.159940958023071289e-01 5.144434049725532532e-02 -2.920393049716949463e-01
7.375428080558776855e-02 1.219190582633018494e-01 3.180208802223205566e-01
3.238384723663330078e-01 1.530991941690444946e-01 -1.593226790428161621e-01
-6.381502747535705566e-01 -1.167030557990074158e-01 -5.008165910840034485e-02
-9.065887331962585449e-01 -2.441054210066795349e-03 1.004185453057289124e-01
1.400089114904403687e-01 -1.389348655939102173e-01 -2.574596107006072998e-01
4.441444948315620422e-02 1.778622120618820190e-01 -8.670726418495178223e-02
-4.083169996738433838e-01 -4.900994896888732910e-02 -3.389226198196411133e-01
5.053657293319702148e-01 -1.422386467456817627e-01 -1.702232360839843750e-01
6.927188038825988770e-01 -9.852198511362075806e-02 -2.056780606508255005e-01
1.042730808258056641e-01 1.787829846143722534e-01 6.088902056217193604e-02
7.257583737373352051e-01 8.120027184486389160e-02 1.832881569862365723e-01
-3.585379421710968018e-01 -1.554946899414062500e-01 1.107296422123908997e-01
1.508701965212821960e-02 -1.563543230295181274e-01 2.286600768566131592e-01
8.868495225906372070e-01 -8.132188767194747925e-02 5.991195887327194214e-02
6.650937795639038086e-01 -1.066009551286697388e-01 -2.023115605115890503e-01
-8.716167807579040527e-01 7.688062638044357300e-02 3.865765780210494995e-02
3.540501296520233154e-01 -1.138350665569305420e-01 3.141175210475921631e-01
6.691639423370361328e-01 -1.092178151011466980e-01 2.099271118640899658e-01
-4.219169020652770996e-01 -1.490867733955383301e-01 -6.850060075521469116e-02
7.309743165969848633e-01 -4.670043289661407471e-02 2.707037329673767090e-01
-3.845176100730895996e-01 1.113782823085784912e-01 -2.866610288619995117e-01
6.739031076431274414e-01 -1.364010870456695557e-01 8.892644196748733521e-02
3.787027299404144287e-01 -9.417542070150375366e-02 3.416613340377807617e-01
-5.558729171752929688e-04 1.119706034660339355e-01 3.415010273456573486e-01
2.217947989702224731e-01 1.678224354982376099e-01 -1.132747009396553040e-01
4.803911447525024414e-01 -1.117627024650573730e-01 -2.664725184440612793e-01
-7.361540794372558594e-01 5.935004353523254395e-02 2.464058697223663330e-01
4.886734485626220703e-01 1.486810892820358276e-01 -5.902851372957229614e-02
-6.617241501808166504e-01 1.127418652176856995e-01 -1.658723950386047363e-01
-4.318683966994285583e-02 -7.748793810606002808e-02 -3.665806949138641357e-01
1.213552951812744141e-01 -1.273178011178970337e-01 3.140739202499389648e-01
-1.048516631126403809e-01 1.795811355113983154e-01 8.764477074146270752e-02
-4.695947766304016113e-01 6.524169351905584335e-03 3.763574957847595215e-01
3.218893110752105713e-01 7.477454841136932373e-02 3.608827292919158936e-01
8.138172030448913574e-01 -1.100761741399765015e-01 2.751170657575130463e-02
-1.325398981571197510e-01 1.470797061920166016e-01 -2.430073916912078857e-01
3.443792760372161865e-01 -6.731188297271728516e-02 -3.592438995838165283e-01
1.373077780008316040e-01 -1.494937241077423096e-01 -2.253186851739883423e-01
1.231160908937454224e-01 1.437780857086181641e-01 -2.468374371528625488e-01
7.814397215843200684e-01 -9.181787073612213135e-02 1.728323698043823242e-01
-2.566302716732025146e-01 1.189076974987983704e-01 -2.977682054042816162e-01
1.977279782295227051e-01 -5.971609428524971008e-02 -3.822552859783172607e-01
2.810833230614662170e-02 1.754789203405380249e-01 -1.114441826939582825e-01
-1.331081539392471313e-01 7.715490180999040604e-03 4.282761216163635254e-01
4.804366081953048706e-02 -8.868340402841567993e-02 -3.558894395828247070e-01
-2.850611209869384766e-01 -4.868210107088088989e-02 3.943801522254943848e-01
7.795964926481246948e-02 2.997318841516971588e-02 -4.072040319442749023e-01
-5.987933278083801270e-01 -1.263403147459030151e-01 -2.443726733326911926e-02
4.727480411529541016e-01 -5.747763440012931824e-02 3.595114052295684814e-01
6.274303197860717773e-01 1.156424209475517273e-01 1.441849023103713989e-01
-5.084430575370788574e-01 1.572840958833694458e-01 -6.279357522726058960e-02
-3.589472472667694092e-01 9.606923907995223999e-03 -3.750024139881134033e-01
3.242042064666748047e-01 1.678027063608169556e-01 1.155433617532253265e-02
-7.301199436187744141e-02 -1.063736230134963989e-01 3.512105345726013184e-01
-1.324940025806427002e-01 -8.217862248420715332e-02 3.813624978065490723e-01
-1.647095084190368652e-01 1.672738492488861084e-01 -1.596930921077728271e-01
-4.243028163909912109e-02 1.207570657134056091e-01 3.251523077487945557e-01
2.028848826885223389e-01 2.260761521756649017e-02 -4.024664759635925293e-01
-2.753764092922210693e-01 -1.548594385385513306e-01 -1.345079541206359863e-01
-9.957106783986091614e-03 -6.912411004304885864e-02 -3.771855831146240234e-01
-9.068236947059631348e-01 2.525737509131431580e-02 -7.273256033658981323e-02
-6.521914601325988770e-01 1.236033514142036438e-01 1.582467257976531982e-01
6.624010205268859863e-01 1.228881254792213440e-01 -2.637860178947448730e-02
1.618386507034301758e-01 3.392159566283226013e-02 4.173263907432556152e-01
-3.791711032390594482e-01 -1.461847722530364990e-01 1.617939919233322144e-01
4.191552102565765381e-01 1.248718649148941040e-01 2.359060347080230713e-01
3.879165351390838623e-01 -1.217088773846626282e-01 2.905963063240051270e-01
1.242516934871673584e-01 1.569870859384536743e-01 -1.997132748365402222e-01
2.090961188077926636e-01 1.749924719333648682e-01 -3.547871485352516174e-02
7.183790206909179688e-02 1.761973947286605835e-01 -9.671607613563537598e-02
6.777132749557495117e-01 -1.327780634164810181e-01 -9.245210140943527222e-02
5.958032011985778809e-01 1.233063340187072754e-01 1.354641318321228027e-01
-4.226798415184020996e-01 -1.001896634697914124e-01 -2.610688805580139160e-01
-1.133070439100265503e-01 1.808427274227142334e-01 -5.932304263114929199e-02
3.358385562896728516e-01 -1.737466454505920410e-01 -4.863555356860160828e-02
1.591769307851791382e-01 9.652943164110183716e-02 -3.443115651607513428e-01
-1.363166570663452148e-01 -1.510929614305496216e-01 -1.974289864301681519e-01
6.537127494812011719e-01 1.248834729194641113e-01 -1.621839962899684906e-02
-5.032247304916381836e-01 -1.295134276151657104e-01 1.637579202651977539e-01
4.337216317653656006e-01 -1.110178083181381226e-01 3.012099564075469971e-01
4.166053831577301025e-01 9.327574819326400757e-02 -3.024984300136566162e-01
-6.683972477912902832e-02 1.776472628116607666e-01 1.092500239610671997e-01
7.730333209037780762e-01 -1.121549159288406372e-01 -9.286265820264816284e-02
-6.509931087493896484e-01 2.171167917549610138e-02 -2.837309539318084717e-01
3.613901436328887939e-01 1.631136536598205566e-01 -5.038673430681228638e-02
3.410870432853698730e-01 -1.129842549562454224e-01 -2.959403991699218750e-01
3.618038296699523926e-01 9.228385239839553833e-02 -3.181088864803314209e-01
-6.375168263912200928e-02 -1.377517580986022949e-01 2.835805714130401611e-01
6.307080984115600586e-01 1.173121035099029541e-01 -1.297497898340225220e-01
1.497704982757568359e-01 -1.727042496204376221e-01 -1.156614720821380615e-01
3.983426988124847412e-01 1.487129554152488708e-02 3.905764818191528320e-01
9.547146558761596680e-01 -2.527830004692077637e-02 5.607751384377479553e-02
4.002881944179534912e-01 1.333189606666564941e-01 -2.102816700935363770e-01
-6.138535737991333008e-01 -1.237256973981857300e-01 5.951195955276489258e-02
-9.094902276992797852e-01 -1.905766874551773071e-02 5.060162395238876343e-02
-3.456545770168304443e-01 -1.395942121744155884e-01 -1.755317598581314087e-01
2.092595249414443970e-01 5.536184087395668030e-02 3.983165323734283447e-01
-2.091163992881774902e-01 -7.544261217117309570e-02 -3.518905341625213623e-01
2.907757163047790527e-01 -1.318701952695846558e-01 -2.619991600513458252e-01
4.450664222240447998e-01 -1.683640480041503906e-01 -6.002029404044151306e-03
-7.714349031448364258e-01 8.348241448402404785e-02 -1.541585326194763184e-01
3.420339226722717285e-01 -1.708917915821075439e-01 -7.849598675966262817e-02
3.192913234233856201e-01 9.683199971914291382e-02 -3.200013935565948486e-01
3.242402970790863037e-01 1.678446829319000244e-01 8.205631747841835022e-04
5.957729816436767578e-01 -6.117879226803779602e-02 3.189189434051513672e-01
-3.137388527393341064e-01 -1.164469718933105469e-01 2.921186089515686035e-01
-4.013373330235481262e-02 -1.120138987898826599e-01 3.433842062950134277e-01
8.109082579612731934e-01 -2.923485636711120605e-02 -2.221570611000061035e-01
-6.984858214855194092e-02 1.270715594291687012e-01 3.114734292030334473e-01
4.823786318302154541e-01 -1.638775318861007690e-01 -3.779930993914604187e-02
1.780330538749694824e-01 1.071414202451705933e-01 3.360333442687988281e-01
8.128408789634704590e-01 -9.628432989120483398e-02 -1.125455275177955627e-01
-3.236553668975830078e-01 -1.636242121458053589e-01 1.632388122379779816e-02
-4.155240654945373535e-01 -3.450422734022140503e-02 -3.482923805713653564e-01
-3.262271732091903687e-02 1.805598139762878418e-01 -6.682279706001281738e-02
-6.809284090995788574e-01 9.850755333900451660e-02 -1.901191025972366333e-01
1.699378043413162231e-01 1.624421179294586182e-01 -1.650158613920211792e-01
-2.949261963367462158e-01 -5.130496993660926819e-02 -3.621823489665985107e-01
5.306248739361763000e-02 -1.791556626558303833e-01 -5.564858764410018921e-02
-1.767048537731170654e-01 -1.520580947399139404e-01 2.168966680765151978e-01
-8.727889508008956909e-04 -1.808464378118515015e-01 -6.830310449004173279e-04
-3.620864450931549072e-01 6.541500240564346313e-02 -3.514718711376190186e-01
-1.572208702564239502e-01 -4.022592678666114807e-02 4.156786799430847168e-01
-5.248781442642211914e-01 4.025168716907501221e-02 3.522792458534240723e-01
-7.209179401397705078e-01 -2.071140706539154053e-02 2.699506282806396484e-01
1.363128870725631714e-01 -1.817385554313659668e-01 2.435734122991561890e-02
-2.066995203495025635e-01 -1.541383564472198486e-01 -1.656101495027542114e-01
-9.031164646148681641e-02 -1.393352746963500977e-01 2.761892378330230713e-01
-4.171946644783020020e-01 1.348786801099777222e-01 -2.225472033023834229e-01
-4.387356042861938477e-01 -1.512660831212997437e-01 3.807230293750762939e-02
6.720131263136863708e-03 1.265639066696166992e-01 3.116967678070068359e-01
-1.493559330701828003e-01 -2.906615100800991058e-02 4.216233193874359131e-01
-9.375379979610443115e-02 -9.305299073457717896e-02 3.703666925430297852e-01
6.299905180931091309e-01 1.273840069770812988e-01 -5.461531877517700195e-02
6.477476358413696289e-01 -1.292993426322937012e-01 1.573282927274703979e-01
1.799110323190689087e-03 2.324399352073669434e-02 -4.099105298519134521e-01
6.333075165748596191e-01 1.091368198394775391e-01 1.669950336217880249e-01
8.648338317871093750e-01 6.779044866561889648e-02 -1.235132291913032532e-02
-5.249228477478027344e-01 -1.083750054240226746e-01 -1.948107928037643433e-01
2.519046962261199951e-01 2.009405568242073059e-02 4.135018587112426758e-01
8.487833738327026367e-01 2.644648775458335876e-02 -1.776224523782730103e-01
-2.193961590528488159e-01 -5.414623767137527466e-02 3.997273147106170654e-01
-2.567713856697082520e-01 -1.677535325288772583e-01 -3.286278992891311646e-02
2.578498795628547668e-03 -1.659364700317382812e-01 1.842289268970489502e-01
4.903487265110015869e-01 1.506139039993286133e-01 8.428744040429592133e-03
-6.649880409240722656e-01 -3.297477588057518005e-02 -2.575240433216094971e-01
3.635833561420440674e-01 1.643897891044616699e-01 1.056099496781826019e-02
-1.720293909311294556e-01 -1.740610748529434204e-01 4.929111897945404053e-02
-5.203846096992492676e-01 1.428643167018890381e-01 -1.478410661220550537e-01
5.090875625610351562e-01 -1.594446748495101929e-01 8.517407625913619995e-02
7.352877408266067505e-03 -1.772700548171997070e-01 1.026377156376838684e-01
-4.853278398513793945e-01 1.438075006008148193e-01 1.826506853103637695e-01
1.431106775999069214e-01 9.203727543354034424e-02 3.645353317260742188e-01
-2.138699442148208618e-01 -1.715459376573562622e-01 4.969573765993118286e-02
-2.866704761981964111e-02 -3.407567739486694336e-02 -4.024694561958312988e-01
-1.785852462053298950e-01 1.388380397111177444e-02 4.241485297679901123e-01
6.990646719932556152e-01 -9.201621264219284058e-02 2.310705929994583130e-01
-8.861975669860839844e-01 2.736793272197246552e-02 -1.068992093205451965e-01
6.378855109214782715e-01 1.255276650190353394e-01 6.195264682173728943e-02
6.129038333892822266e-01 7.289597392082214355e-02 2.708942890167236328e-01
1.052871346473693848e-01 -1.709123700857162476e-01 -1.296924650669097900e-01
4.676382541656494141e-01 8.707085996866226196e-02 3.051493763923645020e-01
-2.846237719058990479e-01 -1.558568179607391357e-01 1.589694321155548096e-01
-1.938060671091079712e-01 1.808278709650039673e-01 4.105056822299957275e-02
-1.201250851154327393e-01 1.438102722167968750e-01 2.669193744659423828e-01
3.786790370941162109e-02 -1.259847879409790039e-01 3.181154131889343262e-01
-4.471263587474822998e-01 1.657007485628128052e-01 -3.370205312967300415e-02
-3.269951641559600830e-01 1.698329448699951172e-01 -9.561406821012496948e-02
-8.591666817665100098e-02 -1.819894649088382721e-02 -4.059099555015563965e-01
-3.532713949680328369e-01 -9.116175025701522827e-02 -2.997601032257080078e-01
8.169932663440704346e-02 1.523133814334869385e-01 2.328746616840362549e-01
1.653769612312316895e-02 6.827184557914733887e-02 4.003839790821075439e-01
7.998755574226379395e-02 1.798969209194183350e-01 -4.704913869500160217e-02
1.254793256521224976e-01 -3.010172396898269653e-03 4.292275905609130859e-01
5.361654162406921387e-01 9.266337752342224121e-02 2.687042653560638428e-01
4.475320130586624146e-02 -1.712471842765808105e-01 -1.256363242864608765e-01
-3.872649669647216797e-01 -1.188955754041671753e-01 -2.284026741981506348e-01
7.194740325212478638e-02 -1.355766803026199341e-01 2.954702973365783691e-01
-3.903725147247314453e-01 6.782329082489013672e-02 -3.433868288993835449e-01
1.462356895208358765e-01 1.478445827960968018e-01 2.391783893108367920e-01
-2.867982089519500732e-01 8.475165814161300659e-02 3.654170632362365723e-01
-1.502736657857894897e-01 -1.727052778005599976e-01 -5.936598777770996094e-02
-8.565086722373962402e-01 -5.526058748364448547e-02 2.901253104209899902e-02
-2.255636602640151978e-01 -6.437205523252487183e-02 -3.617220520973205566e-01
-5.662037730216979980e-01 1.025765985250473022e-01 2.658440768718719482e-01
-3.333545029163360596e-01 -6.291851401329040527e-02 3.731764256954193115e-01
-6.392017006874084473e-01 2.759763412177562714e-02 3.167847990989685059e-01
2.924309968948364258e-01 1.042705103754997253e-01 3.217030167579650879e-01
2.734032571315765381e-01 -1.597932726144790649e-01 1.967999339103698730e-01
-6.819664239883422852e-01 -8.400419354438781738e-02 1.961991935968399048e-01
3.666608333587646484e-01 1.186575219035148621e-01 -2.644971907138824463e-01
-5.389502048492431641e-01 -1.041204035282135010e-01 -1.993953883647918701e-01
-6.709943413734436035e-01 -7.214958779513835907e-03 3.028492629528045654e-01
-3.126328885555267334e-01 -1.319761872291564941e-01 2.500528693199157715e-01
-1.617529839277267456e-01 -1.127267256379127502e-01 3.303608298301696777e-01
9.512580931186676025e-02 -1.641257107257843018e-01 1.968632936477661133e-01
-5.007072687149047852e-01 -1.367633491754531860e-01 -8.417095243930816650e-02
-3.120583295822143555e-01 1.755557954311370850e-01 -3.653513267636299133e-02
-3.239551186561584473e-01 9.241758286952972412e-02 -3.296924531459808350e-01
4.665136039257049561e-01 -1.527462750673294067e-01 -1.406664550304412842e-01
-2.674899101257324219e-01 1.773797273635864258e-01 -4.496956244111061096e-02
4.651166498661041260e-01 9.694740921258926392e-02 2.877631485462188721e-01
-1.379673779010772705e-01 -1.607911735773086548e-01 -1.533069163560867310e-01
-6.067332029342651367e-01 -9.614352136850357056e-02 2.169210016727447510e-01
-7.675476670265197754e-01 9.400565177202224731e-02 -1.308472901582717896e-01
-7.751622200012207031e-01 2.350735478103160858e-02 -2.144810408353805542e-01
5.640760436654090881e-02 -9.529403597116470337e-02 -3.467485606670379639e-01
8.783923983573913574e-01 -8.874410390853881836e-02 6.837806198745965958e-03
6.231391429901123047e-01 1.109314337372779846e-01 -1.647282093763351440e-01
-4.815508797764778137e-02 1.623670309782028198e-01 2.018619626760482788e-01
5.026390776038169861e-02 -1.522791981697082520e-01 2.452095299959182739e-01
1.369140744209289551e-01 -4.066207259893417358e-02 -3.986948132514953613e-01
-2.928177118301391602e-01 -1.529537588357925415e-01 1.717437654733657837e-01
1.362277865409851074e-01 -1.101909428834915161e-01 -3.216675519943237305e-01
8.743414878845214844e-01 -8.892764151096343994e-02 4.051822796463966370e-02
3.752468526363372803e-01 -1.336096525192260742e-01 2.645035088062286377e-01
8.428970575332641602e-01 6.604851037263870239e-02 9.784207493066787720e-02
-7.984214425086975098e-01 1.062466502189636230e-01 1.357992272824048996e-02
8.617152571678161621e-01 6.692300736904144287e-02 4.626350849866867065e-02
7.208565473556518555e-01 1.032366827130317688e-01 1.007532775402069092e-01
7.479879260063171387e-02 1.795390397310256958e-01 -5.586857348680496216e-02
7.149516344070434570e-01 1.060975715517997742e-01 -8.899908512830734253e-02
-6.807295083999633789e-01 1.319732069969177246e-01 7.342703640460968018e-02
6.973537802696228027e-01 4.496303945779800415e-02 -2.612114548683166504e-01
-1.152223646640777588e-01 -1.678023189306259155e-01 1.512885838747024536e-01
3.644025921821594238e-01 1.415806710720062256e-01 1.997890472412109375e-01
-3.823213875293731689e-01 -1.472088098526000977e-01 -1.175853759050369263e-01
2.729932665824890137e-01 1.129256561398506165e-01 3.086391389369964600e-01
1.579537987709045410e-01 -1.581563055515289307e-01 -1.920427978038787842e-01
-6.447023749351501465e-01 1.343056410551071167e-01 -8.772303164005279541e-02
7.249369025230407715e-01 1.043496280908584595e-01 -8.439136296510696411e-02
-3.243826329708099365e-01 6.828523427248001099e-02 -3.561846315860748291e-01
9.042374789714813232e-02 1.452649235725402832e-01 -2.459539175033569336e-01
-4.550034105777740479e-01 -1.393655538558959961e-01 -1.106132715940475464e-01
2.531161904335021973e-01 6.804329901933670044e-02 -3.683859705924987793e-01
5.089085549116134644e-03 -5.966419726610183716e-02 4.107135236263275146e-01
-1.919934451580047607e-01 1.714008152484893799e-01 1.435333937406539917e-01
-1.606782376766204834e-01 1.771785169839859009e-01 1.042867973446846008e-01
-3.761208653450012207e-01 -1.501872539520263672e-01 -1.024828776717185974e-01
-5.343620777130126953e-01 -1.009175553917884827e-01 -2.106974422931671143e-01
4.352166950702667236e-01 -1.693320721387863159e-01 8.989314548671245575e-03
-1.231100559234619141e-01 8.779259771108627319e-02 -3.601669669151306152e-01
9.460742473602294922e-01 -3.221722692251205444e-02 -6.623515486717224121e-02
-4.339844882488250732e-01 -1.506656706333160400e-01 -3.039265424013137817e-02
2.436728589236736298e-02 1.560809910297393799e-01 2.244863957166671753e-01
6.845986247062683105e-01 -1.391274183988571167e-01 1.225490309298038483e-02
2.462566643953323364e-01 -6.283392664045095444e-03 -4.015372097492218018e-01
-8.968009948730468750e-01 -3.006441704928874969e-02 -1.376794651150703430e-02
-9.278483390808105469e-01 6.831853650510311127e-03 3.297221660614013672e-02
-2.457030266523361206e-01 -1.140136793255805969e-01 3.135534226894378662e-01
-4.863390326499938965e-01 2.309538982808589935e-02 -3.429817557334899902e-01
1.958648711442947388e-01 -1.549059450626373291e-01 2.292992472648620605e-01
-3.712505400180816650e-01 1.515495926141738892e-01 1.974965631961822510e-01
3.166676163673400879e-01 1.409550905227661133e-01 2.203567326068878174e-01
4.837018847465515137e-01 1.508336961269378662e-01 -3.162663057446479797e-02
3.405404388904571533e-01 -1.258875727653503418e-01 2.915002405643463135e-01
-1.912432909011840820e-01 9.656199254095554352e-03 4.236048758029937744e-01
3.188047111034393311e-01 -1.678607314825057983e-01 1.395710706710815430e-01
4.181567579507827759e-03 -1.541985720396041870e-01 -2.059399783611297607e-01
2.764501869678497314e-01 -3.292218968272209167e-02 4.098226428031921387e-01
-1.507586613297462463e-02 1.072169393301010132e-01 3.501712977886199951e-01
4.888516068458557129e-01 -1.637049019336700439e-01 5.285480245947837830e-02
1.173272728919982910e-01 -1.687478274106979370e-01 -1.426034122705459595e-01
-3.776064813137054443e-01 -1.217297911643981934e-01 2.583764195442199707e-01
3.486917912960052490e-01 -1.664813160896301270e-01 1.372733712196350098e-01
7.787165045738220215e-01 -5.021078139543533325e-02 2.401039153337478638e-01
5.612190067768096924e-02 -1.610544770956039429e-01 2.108058631420135498e-01
4.606753587722778320e-01 -1.157338321208953857e-01 2.842002809047698975e-01
1.403016746044158936e-01 -1.310501396656036377e-01 -2.779247462749481201e-01
6.268476843833923340e-01 -1.377338767051696777e-01 -1.142788305878639221e-01
3.029159009456634521e-01 1.627573519945144653e-01 1.142138615250587463e-01
1.750941202044487000e-02 -1.764882206916809082e-01 -8.096159249544143677e-02
-4.460054934024810791e-01 -3.233177959918975830e-02 -3.415949046611785889e-01
1.547401398420333862e-01 1.906280289404094219e-03 -4.091363549232482910e-01
6.098973155021667480e-01 1.148405075073242188e-01 -1.595729589462280273e-01
2.922823131084442139e-01 1.703460961580276489e-01 1.171296462416648865e-03
7.943194508552551270e-01 -1.149889528751373291e-01 -2.173848450183868408e-02
7.875657081604003906e-02 -4.537130892276763916e-02 4.196825325489044189e-01
-5.658219456672668457e-01 -9.434890002012252808e-02 -2.104661911725997925e-01
-5.434758663177490234e-01 9.681248664855957031e-02 -2.624756097793579102e-01
8.320997953414916992e-01 -1.044683679938316345e-01 -1.722866669297218323e-02
2.289836257696151733e-01 -5.956503376364707947e-02 -3.799034059047698975e-01
-3.874334990978240967e-01 -4.751841723918914795e-02 3.753120005130767822e-01
-8.973112106323242188e-01 3.935200348496437073e-02 -7.814933359622955322e-02
3.739082217216491699e-01 1.557354629039764404e-01 1.195097565650939941e-01
-2.529255449771881104e-01 4.731625691056251526e-02 -3.822387456893920898e-01
-7.757426500320434570e-01 -7.189019024372100830e-02 -9.987391531467437744e-02
-7.317425608634948730e-01 9.048716723918914795e-02 1.983854174613952637e-01
7.693406343460083008e-01 2.455552481114864349e-02 -2.392886579036712646e-01
-4.427045285701751709e-01 1.516010761260986328e-01 1.683097928762435913e-01
1.932886689901351929e-01 1.762232482433319092e-01 3.077746927738189697e-02
7.046462893486022949e-01 6.864105165004730225e-02 2.275793403387069702e-01
-6.620185971260070801e-01 -1.141471490263938904e-01 5.683325231075286865e-02
-1.882932335138320923e-01 1.623867899179458618e-01 1.933183819055557251e-01
5.739499926567077637e-01 9.202985092997550964e-03 -3.340191245079040527e-01
2.591394484043121338e-01 -1.732570976018905640e-01 -9.125897288322448730e-02
-7.027101516723632812e-02 -1.606695055961608887e-01 -1.690925061702728271e-01
2.056963145732879639e-01 -1.688631623983383179e-01 -1.343861222267150879e-01
6.772057712078094482e-02 -1.248944923281669617e-01 3.206281960010528564e-01
-6.520039439201354980e-01 -1.134655624628067017e-01 9.155505895614624023e-02
8.556124567985534668e-02 1.737797856330871582e-01 -1.141822040081024170e-01
5.066158771514892578e-01 -9.671224653720855713e-02 3.054019510746002197e-01
-1.661178618669509888e-01 1.719273477792739868e-01 -1.322364658117294312e-01
1.766663044691085815e-02 -1.706698238849639893e-01 -1.268943697214126587e-01
6.534038186073303223e-01 -4.938238998875021935e-04 -3.072007298469543457e-01
-5.649755001068115234e-01 1.527337729930877686e-01 -2.599001303315162659e-02
-4.208113625645637512e-02 -1.037042960524559021e-01 -3.297479152679443359e-01
7.735750675201416016e-01 9.613894671201705933e-02 -4.416897520422935486e-02
1.439446359872817993e-01 7.106606848537921906e-03 4.272830784320831299e-01
-2.930824756622314453e-01 1.774028092622756958e-01 -1.210616901516914368e-02
2.135943919420242310e-01 -1.325971335172653198e-01 2.950141727924346924e-01
-3.664096891880035400e-01 1.436567157506942749e-01 -2.113021016120910645e-01
-5.674836039543151855e-01 -1.058957055211067200e-01 2.130802869796752930e-01
-3.461199700832366943e-01 1.705888211727142334e-01 9.208159148693084717e-02
2.147147059440612793e-01 1.742313951253890991e-01 -4.524394497275352478e-02
6.548711061477661133e-01 1.158833038061857224e-02 3.130903542041778564e-01
-4.198915660381317139e-01 1.668207496404647827e-01 7.167217880487442017e-02
5.289067625999450684e-01 1.063082143664360046e-01 -2.349766343832015991e-01
8.254276216030120850e-02 -1.805996447801589966e-01 6.634843349456787109e-02
-6.330021619796752930e-01 -1.210272833704948425e-01 5.880451295524835587e-03
6.300098896026611328e-01 5.025045946240425110e-03 -3.153740763664245605e-01
-2.618037164211273193e-01 -1.096891760826110840e-01 -2.874208390712738037e-01
9.308057427406311035e-01 -5.797667801380157471e-02 -3.808108717203140259e-02
-1.269089579582214355e-01 1.826216578483581543e-01 2.630541846156120300e-02
3.725998997688293457e-01 6.152525544166564941e-02 3.652192950248718262e-01
-9.855587780475616455e-02 1.588515490293502808e-01 2.161147147417068481e-01
-6.739041209220886230e-01 8.462154865264892578e-02 -2.212879955768585205e-01
3.429236114025115967e-01 -1.722027063369750977e-01 8.995217084884643555e-02
8.619785308837890625e-02 -8.144354820251464844e-02 -3.650563061237335205e-01
4.379566907882690430e-01 1.474850922822952271e-01 1.287484765052795410e-01
-2.827699184417724609e-01 1.579120457172393799e-01 1.956695020198822021e-01
-4.176877737045288086e-01 2.466600947082042694e-02 -3.605542778968811035e-01
-5.453916192054748535e-01 -1.284088641405105591e-01 -9.370259940624237061e-02
-3.575095534324645996e-01 -7.717940211296081543e-02 3.513584136962890625e-01
5.669996142387390137e-02 -1.798456311225891113e-01 7.716635614633560181e-02
7.975019216537475586e-01 -1.047138869762420654e-01 -9.664066880941390991e-02
1.893142759799957275e-01 -1.160775348544120789e-01 -3.079568743705749512e-01
-2.326890230178833008e-01 -1.495729535818099976e-01 -1.775941550731658936e-01
-7.813804745674133301e-01 -3.564144298434257507e-02 2.139852643013000488e-01
7.292234897613525391e-02 1.812210828065872192e-01 -1.608210057020187378e-02
4.595287442207336426e-01 -1.660907417535781860e-01 -3.467426821589469910e-02
-5.499665737152099609e-01 -5.987025052309036255e-02 3.138814270496368408e-01
-6.651301980018615723e-01 1.253226846456527710e-01 1.388538330793380737e-01
-2.714049518108367920e-01 1.771596223115921021e-01 5.925306305289268494e-02
-8.075653910636901855e-01 -5.571652576327323914e-02 -1.115385442972183228e-01
-8.297079801559448242e-01 -3.107796050608158112e-02 -1.389666199684143066e-01
-8.204624056816101074e-02 -1.205009520053863525e-01 3.236344456672668457e-01
7.311720252037048340e-01 7.177338749170303345e-02 -1.983533799648284912e-01
7.133443951606750488e-01 -1.118529215455055237e-01 -1.551661938428878784e-01
-2.686094045639038086e-01 1.976070739328861237e-02 -3.897675871849060059e-01
1.119905710220336914e-01 4.246585071086883545e-02 4.163357913494110107e-01
9.033733010292053223e-01 5.030841752886772156e-02 -3.598636016249656677e-03
-9.411548078060150146e-02 -1.230190396308898926e-01 3.170375227928161621e-01
1.371950209140777588e-01 -1.809184849262237549e-01 -2.587004005908966064e-02
2.279939949512481689e-01 1.671027988195419312e-01 1.221428215503692627e-01
7.758141160011291504e-01 3.748506680130958557e-02 -2.228164970874786377e-01
5.982582569122314453e-01 1.200261563062667847e-01 -1.464447528123855591e-01
1.505831480026245117e-01 1.784686744213104248e-01 2.318616583943367004e-02
-4.297196865081787109e-01 6.859751790761947632e-02 -3.333874046802520752e-01
1.123493015766143799e-01 -1.580703556537628174e-01 -1.942067295312881470e-01
-6.361774802207946777e-01 -1.158370152115821838e-01 -6.178247928619384766e-02
5.324769616127014160e-01 3.592405468225479126e-02 3.446419537067413330e-01
4.444300755858421326e-02 -1.015263050794601440e-01 -3.370536565780639648e-01
-3.689255714416503906e-01 3.545040637254714966e-02 -3.681029379367828369e-01
2.211468815803527832e-01 -7.405628263950347900e-02 -3.670570552349090576e-01
-6.514675021171569824e-01 9.263747185468673706e-02 2.449173033237457275e-01
-3.804773092269897461e-01 1.694423705339431763e-01 -6.225308030843734741e-02
8.159524202346801758e-02 8.916273713111877441e-02 -3.600777685642242432e-01
-4.289547204971313477e-01 -1.357702421955764294e-03 -3.584540784358978271e-01
-5.874740481376647949e-01 8.776835352182388306e-02 -2.589648365974426270e-01
2.867447733879089355e-01 1.369007527828216553e-01 2.434569299221038818e-01
-6.102710366249084473e-01 9.989447146654129028e-02 2.514813542366027832e-01
9.395211338996887207e-01 -1.846147514879703522e-02 -9.124828875064849854e-02
-1.200743615627288818e-01 -1.151317283511161804e-01 -3.009580075740814209e-01
3.582444190979003906e-01 -1.304404288530349731e-01 2.767721116542816162e-01
8.893656730651855469e-01 5.714417621493339539e-02 -1.054301485419273376e-02
6.605995297431945801e-01 -1.292285025119781494e-01 1.470678150653839111e-01
5.109341740608215332e-01 -1.092259809374809265e-01 -2.623379528522491455e-01
-5.105273127555847168e-01 1.112336888909339905e-01 2.696002125740051270e-01
-6.646247506141662598e-01 2.116607502102851868e-02 3.073997795581817627e-01
-3.356588780879974365e-01 1.131630316376686096e-01 3.131641149520874023e-01
-3.857264518737792969e-01 -1.018076762557029724e-01 3.034323751926422119e-01
3.558515608310699463e-01 1.559281945228576660e-01 -1.256969273090362549e-01
-5.202686190605163574e-01 1.162923648953437805e-01 -2.329402565956115723e-01
8.303306698799133301e-01 -7.513412833213806152e-02 -1.540402472019195557e-01
-2.672281563282012939e-01 -1.392626464366912842e-01 -2.064711451530456543e-01
-2.927309274673461914e-02 7.701982557773590088e-02 3.919501900672912598e-01
4.753143191337585449e-01 -1.475230604410171509e-01 -1.615732163190841675e-01
9.315668940544128418e-01 -3.920599445700645447e-02 9.648120403289794922e-02
7.199535965919494629e-01 3.114532679319381714e-02 -2.624865472316741943e-01
9.241956472396850586e-01 3.756580129265785217e-02 -1.592945866286754608e-02
2.442721873521804810e-01 -1.054676994681358337e-01 3.459191620349884033e-01
-2.104670256376266479e-01 -1.660576015710830688e-01 -9.092272818088531494e-02
-5.893738865852355957e-01 1.072576791048049927e-01 2.456197887659072876e-01
-3.695186376571655273e-01 -7.313177734613418579e-02 -3.225254714488983154e-01
-1.161454319953918457e-01 1.139141097664833069e-01 -3.218697607517242432e-01
-5.964293479919433594e-01 1.455295532941818237e-01 -6.270468980073928833e-02
-4.730838164687156677e-02 9.814910590648651123e-02 3.647856116294860840e-01
2.212856560945510864e-01 -6.538943946361541748e-02 -3.755349814891815186e-01
7.698615193367004395e-01 9.251222759485244751e-02 8.694943785667419434e-02
-1.532807946205139160e-01 1.805078983306884766e-01 -5.484088510274887085e-02
-1.073785871267318726e-01 1.070818230509757996e-01 -3.339840769767761230e-01
-4.685480594635009766e-01 -5.718723312020301819e-02 3.450669050216674805e-01
-1.482191979885101318e-01 -4.476746916770935059e-02 4.138007760047912598e-01
4.967719018459320068e-01 6.156434491276741028e-02 -3.233667910099029541e-01
5.544617176055908203e-01 -1.379107981920242310e-01 -1.630769968032836914e-01
4.794103205204010010e-01 -1.332652866840362549e-01 -2.123494893312454224e-01
7.026776671409606934e-02 3.352366015315055847e-02 4.233096241950988770e-01
5.834893584251403809e-01 -1.500295698642730713e-01 9.152198582887649536e-02
4.929760396480560303e-01 1.417969167232513428e-01 -1.167732775211334229e-01
6.625906825065612793e-01 9.279339015483856201e-02 -1.951915919780731201e-01
-6.195421218872070312e-01 -1.123945936560630798e-01 1.446494758129119873e-01
-2.615727484226226807e-01 1.790515035390853882e-01 1.296959258615970612e-02
6.085780262947082520e-01 -1.441147923469543457e-01 1.111336499452590942e-01
3.948052525520324707e-01 1.538434624671936035e-01 -1.134358718991279602e-01
-1.189706176519393921e-01 -1.497716903686523438e-01 2.380217313766479492e-01
1.145336031913757324e-01 1.788239181041717529e-01 5.354439467191696167e-02
-7.984693646430969238e-01 -4.938381910324096680e-02 -1.383835971355438232e-01
-4.497255980968475342e-01 -1.494607627391815186e-01 5.243745446205139160e-02
-5.712816119194030762e-01 -7.146602869033813477e-02 2.886612415313720703e-01
-1.971374303102493286e-01 1.257715970277786255e-01 3.072736859321594238e-01
5.193905830383300781e-01 -1.597473472356796265e-01 6.772095710039138794e-02
-2.413440197706222534e-01 1.766697317361831665e-01 8.427469432353973389e-02
-7.194015979766845703e-01 -4.963712766766548157e-02 2.405449599027633667e-01
-2.420877963304519653e-01 -1.682375371456146240e-01 7.804876565933227539e-02
2.854449450969696045e-01 2.034645155072212219e-02 -3.941532373428344727e-01
6.959657073020935059e-01 8.715270459651947021e-02 -1.867092400789260864e-01
4.863638877868652344e-01 1.499469131231307983e-01 4.669971391558647156e-02
-8.374065160751342773e-01 6.619673222303390503e-02 -1.217507123947143555e-01
1.781271398067474365e-01 -1.718410104513168335e-01 -1.188374757766723633e-01
8.332645297050476074e-01 -4.493173956871032715e-02 2.054799944162368774e-01
-1.646516472101211548e-01 1.651387289166450500e-02 -4.026629328727722168e-01
-5.234060883522033691e-01 6.200200691819190979e-02 3.372794985771179199e-01
4.899522364139556885e-01 7.256545871496200562e-02 -3.121549487113952637e-01
-8.985781073570251465e-01 4.456365853548049927e-02 9.946736693382263184e-02
-5.125199556350708008e-01 -1.942155323922634125e-02 3.589994013309478760e-01
-6.347808241844177246e-01 1.250744014978408813e-01 -1.434432268142700195e-01
5.262823104858398438e-01 1.336722224950790405e-01 1.410015821456909180e-01
-4.034182429313659668e-01 -1.189550384879112244e-01 -2.218945771455764771e-01
5.466696619987487793e-01 1.426991075277328491e-01 2.223482728004455566e-02
6.918058395385742188e-01 -6.140140816569328308e-02 -2.649216353893280029e-01
4.132891893386840820e-01 -1.328951567411422729e-01 -2.339659929275512695e-01
-6.520083546638488770e-01 7.223803550004959106e-02 -2.504076659679412842e-01
5.524494051933288574e-01 7.253175973892211914e-02 2.977283000946044922e-01
8.489887714385986328e-01 6.164336949586868286e-02 1.056305170059204102e-01
6.796255111694335938e-01 6.874355673789978027e-02 2.427972853183746338e-01
4.970551133155822754e-01 1.404276937246322632e-01 1.257243603467941284e-01
5.274137258529663086e-01 1.304069161415100098e-01 1.569330394268035889e-01
-3.268364965915679932e-01 -8.775990456342697144e-02 -3.120823502540588379e-01
-5.933074355125427246e-01 -4.404567182064056396e-03 -3.060622513294219971e-01
-3.462781608104705811e-01 1.785852946341037750e-02 -3.769357204437255859e-01
-7.808464765548706055e-02 -1.765003949403762817e-01 8.415866643190383911e-02
-4.861642122268676758e-01 1.620711088180541992e-01 4.641577601432800293e-02
-6.379760503768920898e-01 1.188662424683570862e-01 1.865673810243606567e-01
9.260636568069458008e-02 5.129043012857437134e-02 4.116385281085968018e-01
1.242580860853195190e-01 -1.410561352968215942e-01 2.795510292053222656e-01
2.348127961158752441e-01 1.265231668949127197e-01 -2.765785753726959229e-01
3.610994517803192139e-01 1.226122006773948669e-01 2.630098164081573486e-01
-3.622555136680603027e-01 -1.581716984510421753e-01 -3.820667788386344910e-02
2.906951010227203369e-01 1.235178187489509583e-01 -2.723380327224731445e-01
-2.622776329517364502e-01 1.939423009753227234e-02 4.142577946186065674e-01
-3.362413942813873291e-01 -1.590285599231719971e-01 9.682860225439071655e-02
-7.413723468780517578e-01 -9.597384184598922729e-02 1.156977936625480652e-02
-4.097339510917663574e-02 -1.376263499259948730e-01 2.859368622303009033e-01
-3.582877516746520996e-01 3.790673613548278809e-02 -3.692744970321655273e-01
6.386666893959045410e-01 3.911298140883445740e-02 3.021556735038757324e-01
-4.728231728076934814e-01 -1.224033012986183167e-01 -1.776856482028961182e-01
4.065434634685516357e-01 -1.500413715839385986e-01 2.012238502502441406e-01
-3.873651921749114990e-01 -1.494372934103012085e-01 -9.894624352455139160e-02
-4.133659005165100098e-01 1.615774780511856079e-01 1.259893774986267090e-01
-3.829864561557769775e-01 1.540366262197494507e-01 -1.656396836042404175e-01
6.133063435554504395e-01 4.858291149139404297e-02 3.036862611770629883e-01
-7.487785816192626953e-01 9.236765652894973755e-02 1.799715310335159302e-01
5.810908675193786621e-01 1.354272365570068359e-01 -5.875472724437713623e-02
-4.308462142944335938e-01 -3.960054367780685425e-02 -3.406695425510406494e-01
-6.244543194770812988e-01 1.343624740839004517e-01 -1.095404624938964844e-01
-2.179352343082427979e-01 -1.590436100959777832e-01 -1.359769701957702637e-01
-6.583365797996520996e-01 1.113762632012367249e-01 1.962977647781372070e-01
9.774456918239593506e-02 -1.455257385969161987e-01 -2.390394359827041626e-01
9.529507160186767578e-02 -1.787418574094772339e-01 9.409534931182861328e-02
3.250294625759124756e-01 -4.345403239130973816e-02 3.982494473457336426e-01
6.698349714279174805e-01 -1.416501104831695557e-01 1.258495450019836426e-02
-6.064364314079284668e-01 1.574442349374294281e-02 -3.032110333442687988e-01
-5.091150403022766113e-01 1.511123031377792358e-01 1.309216469526290894e-01
-7.687996029853820801e-01 5.268504470586776733e-02 2.320103198289871216e-01
6.749125719070434570e-01 1.201675385236740112e-01 3.373273462057113647e-02
-2.439519613981246948e-01 -1.551017761230468750e-01 1.815351098775863647e-01
3.083599209785461426e-01 5.056402087211608887e-02 -3.754778206348419189e-01
-1.811471730470657349e-01 -1.339836418628692627e-01 -2.453611493110656738e-01
-4.788858890533447266e-01 -3.391099348664283752e-02 3.613928556442260742e-01
-5.581123828887939453e-01 -1.343960762023925781e-01 3.711575642228126526e-02
2.847213149070739746e-01 -1.755542457103729248e-01 -5.673410743474960327e-02
-4.048334062099456787e-01 1.491927308961749077e-03 -3.646539151668548584e-01
-2.009923458099365234e-01 -1.540240347385406494e-01 2.016079127788543701e-01
-4.717238247394561768e-01 1.619024425745010376e-01 7.330115884542465210e-02
-8.244062066078186035e-01 9.758958965539932251e-02 1.883099973201751709e-02
-3.369750678539276123e-01 -1.549982279539108276e-01 1.327613890171051025e-01
-7.957682013511657715e-01 -5.924331024289131165e-02 1.534710377454757690e-01
-8.599945902824401855e-02 -1.035988330841064453e-01 3.548680841922760010e-01
5.563265085220336914e-01 -1.276549994945526123e-01 2.184064388275146484e-01
1.745757460594177246e-01 -1.401219815015792847e-01 2.790505290031433105e-01
-4.174154996871948242e-01 6.004435196518898010e-02 -3.435803949832916260e-01
3.599367737770080566e-01 -1.738892197608947754e-01 -2.000496350228786469e-02
5.011319518089294434e-01 -1.474452763795852661e-01 -1.494766473770141602e-01
2.968505322933197021e-01 7.228475064039230347e-02 -3.574448823928833008e-01
-3.342251181602478027e-01 -1.524583697319030762e-01 -1.164659857749938965e-01
3.867172002792358398e-01 7.608679682016372681e-02 3.448608517646789551e-01
-5.014908313751220703e-01 -6.104999408125877380e-02 3.301996290683746338e-01
9.504437446594238281e-01 1.365992240607738495e-02 -2.534060925245285034e-02
-5.240740776062011719e-01 -1.399041861295700073e-01 1.231163367629051208e-02
8.165345191955566406e-01 3.897077590227127075e-02 -1.901870667934417725e-01
3.233561813831329346e-01 5.943617969751358032e-02 -3.657880723476409912e-01
5.123565196990966797e-01 -1.325140148401260376e-01 -2.021982669830322266e-01
3.418892025947570801e-01 9.343414753675460815e-02 3.298133909702301025e-01
4.954374730587005615e-01 1.162945479154586792e-02 -3.562371134757995605e-01
-4.960345029830932617e-01 -1.372270584106445312e-01 1.231595948338508606e-01
-3.351203203201293945e-01 1.305721420794725418e-02 -3.794842362403869629e-01
4.020506739616394043e-01 5.869449302554130554e-02 -3.509964048862457275e-01
-1.280792802572250366e-01 -3.334330767393112183e-02 -3.966898918151855469e-01
8.123105168342590332e-01 -7.426334172487258911e-02 1.843974590301513672e-01
-4.955238103866577148e-01 1.227149292826652527e-01 -2.272239029407501221e-01
-4.337227642536163330e-01 -1.512508392333984375e-01 5.665379390120506287e-02
-6.935141980648040771e-02 -1.689585596323013306e-01 -1.229909807443618774e-01
4.313957095146179199e-01 -8.144310861825942993e-02 -3.278416693210601807e-01
4.737371802330017090e-01 -1.557085216045379639e-01 -1.200471669435501099e-01
-1.068232357501983643e-01 9.740323573350906372e-02 -3.485958874225616455e-01
7.898368835449218750e-01 9.287726879119873047e-02 2.370929531753063202e-02
3.574014902114868164e-01 8.452127128839492798e-02 3.401129245758056641e-01
-2.180874347686767578e-01 1.671579331159591675e-01 -1.508612483739852905e-01
8.463997840881347656e-01 -7.791505008935928345e-02 -1.304643452167510986e-01
8.167464733123779297e-01 -8.763095736503601074e-02 1.497186869382858276e-01
-9.040995836257934570e-01 5.327190831303596497e-02 -2.688061445951461792e-02
9.068000316619873047e-01 -5.728429928421974182e-02 -9.813544899225234985e-02
-3.372794091701507568e-01 1.748213768005371094e-01 -1.615186221897602081e-02
7.833511829376220703e-01 -1.772128045558929443e-02 2.523600757122039795e-01
-3.883449137210845947e-01 1.590107977390289307e-01 -1.385264992713928223e-01
7.176375389099121094e-01 -1.478706579655408859e-02 -2.791490554809570312e-01
-2.560716271400451660e-01 1.764745712280273438e-01 -6.598207354545593262e-02
8.634092211723327637e-01 5.803013965487480164e-02 -9.166030585765838623e-02
3.907479345798492432e-01 -1.380283534526824951e-01 -2.248030453920364380e-01
-7.270153164863586426e-01 1.971497258637100458e-04 -2.436223328113555908e-01
3.997477889060974121e-01 1.256658136844635010e-01 -2.349570989608764648e-01
-2.761131525039672852e-01 1.777610033750534058e-01 4.189212992787361145e-02
7.088105380535125732e-02 -1.560140699148178101e-01 -2.023409157991409302e-01
-6.469671726226806641e-01 1.353234648704528809e-01 -7.757847011089324951e-02
-4.711078405380249023e-01 -8.953916281461715698e-02 -2.646176815032958984e-01
-5.161705017089843750e-01 1.344511806964874268e-01 -1.833361536264419556e-01
5.824920535087585449e-01 1.186410412192344666e-01 1.685040444135665894e-01
3.299052715301513672e-01 1.628062427043914795e-01 9.383638948202133179e-02
-6.132903695106506348e-01 -1.031606569886207581e-01 -1.528445035219192505e-01
1.963520348072052002e-01 3.622479736804962158e-02 -3.977678120136260986e-01
-3.173016607761383057e-01 -1.563702970743179321e-01 -1.006801277399063110e-01
2.483562529087066650e-01 8.194385468959808350e-02 3.648292124271392822e-01
2.585758268833160400e-01 -1.652930378913879395e-01 1.726293712854385376e-01
3.092483282089233398e-01 1.606021523475646973e-01 -1.214094460010528564e-01
-1.132693886756896973e-01 -1.769117861986160278e-01 -1.631226949393749237e-02
-8.816869258880615234e-01 -3.538319468498229980e-02 8.068824559450149536e-02
2.372708767652511597e-01 1.683290302753448486e-01 -1.011519059538841248e-01
-3.494863510131835938e-01 -1.215860322117805481e-01 -2.345542758703231812e-01
-6.489278674125671387e-01 -8.641247451305389404e-02 -1.782971769571304321e-01
6.999844312667846680e-01 9.439203888177871704e-02 1.644606441259384155e-01
-5.935386419296264648e-01 -6.557190418243408203e-02 -2.532574534416198730e-01
4.425355792045593262e-02 -1.816385090351104736e-01 7.352667860686779022e-03
8.851355910301208496e-01 1.487347483634948730e-02 1.581213623285293579e-01
5.677470564842224121e-01 -1.132543161511421204e-01 -2.329036742448806763e-01
6.185632944107055664e-01 8.725601434707641602e-02 2.402537912130355835e-01
3.378331959247589111e-01 1.136585101485252380e-01 2.917032241821289062e-01
-8.857235312461853027e-02 -1.768808513879776001e-01 7.223662734031677246e-02
5.532371997833251953e-01 -1.356822550296783447e-01 1.928300559520721436e-01
-3.256327807903289795e-01 -1.198105365037918091e-01 -2.470934689044952393e-01
3.608744442462921143e-01 1.386484503746032715e-01 -2.067320793867111206e-01
1.081712543964385986e-01 -1.690322011709213257e-01 1.707500815391540527e-01
-4.979358911514282227e-01 -8.653545379638671875e-02 -2.596990466117858887e-01
2.131433933973312378e-01 -1.789792031049728394e-01 -4.009920731186866760e-02
-3.118229806423187256e-01 -1.229548603296279907e-01 -2.429594397544860840e-01
-5.542132258415222168e-01 1.493069082498550415e-01 -8.341050893068313599e-02
-1.620721071958541870e-01 -1.583330631256103516e-01 -1.590740978717803955e-01
-8.401402831077575684e-01 -5.717125535011291504e-02 8.585609495639801025e-02
