3.488704562187194824e-01 8.911720663309097290e-02 2.992505431175231934e-01
-2.084556818008422852e-01 1.486488878726959229e-01 -5.552862882614135742e-01
2.828977704048156738e-01 2.060931921005249023e-01 1.350954771041870117e-01
4.553454518318176270e-01 -4.889689385890960693e-02 -3.139210045337677002e-01
-6.278230547904968262e-01 2.258562296628952026e-01 1.638441532850265503e-02
5.792735144495964050e-02 -3.961161971092224121e-01 2.416792511940002441e-01
3.751639127731323242e-01 -1.550945937633514404e-01 -4.564176201820373535e-01
4.269239306449890137e-01 -4.563713371753692627e-01 2.378545701503753662e-01
-5.674535036087036133e-01 8.337344229221343994e-02 -2.185554802417755127e-02
3.141099214553833008e-01 -3.768267035484313965e-01 -3.623972535133361816e-01
-5.560436248779296875e-01 2.570509612560272217e-01 -3.046962022781372070e-01
-4.395227506756782532e-02 3.988756537437438965e-01 1.583876013755798340e-01
-5.534255504608154297e-01 8.859853446483612061e-02 -1.584872603416442871e-01
-1.080246716737747192e-01 1.839801818132400513e-01 5.242969989776611328e-01
1.259988248348236084e-01 -3.685060888528823853e-02 -5.667486786842346191e-01
5.970466136932373047e-01 -2.755860686302185059e-01 1.934973895549774170e-01
9.903457015752792358e-02 -3.310408815741539001e-02 5.693661570549011230e-01
5.302881002426147461e-01 -4.040510356426239014e-01 2.398954331874847412e-01
8.497922681272029877e-04 5.851827189326286316e-02 5.660105943679809570e-01
2.257352173328399658e-01 -2.872744947671890259e-02 5.256451964378356934e-01
2.295616120100021362e-01 -4.636175632476806641e-01 1.913441717624664307e-01
5.408865213394165039e-01 -1.392129063606262207e-01 -2.332867681980133057e-01
3.225665688514709473e-01 -4.691031575202941895e-01 -1.772998571395874023e-01
-3.387317955493927002e-01 3.489556312561035156e-01 -4.314106702804565430e-01
-3.297530710697174072e-01 4.087601304054260254e-01 -3.613694012165069580e-01
1.017612665891647339e-01 -3.325986266136169434e-01 4.122467339038848877e-01
1.168284490704536438e-01 1.919819563627243042e-01 4.271054267883300781e-01
1.075084134936332703e-01 1.098701581358909607e-01 5.106642842292785645e-01
-6.160300970077514648e-01 3.880876302719116211e-01 -8.915628492832183838e-02
-4.262544512748718262e-01 5.002473592758178711e-01 -2.226929739117622375e-02
-3.759974837303161621e-01 4.852707684040069580e-01 -1.777480393648147583e-01
-2.956174612045288086e-01 -1.830362677574157715e-01 -2.155253589153289795e-01
5.979513525962829590e-01 -3.919017612934112549e-01 -7.309767603874206543e-02
3.405942916870117188e-01 -4.547459483146667480e-01 2.621277868747711182e-01
-3.028888106346130371e-01 -1.783220022916793823e-01 2.200773507356643677e-01
3.119632303714752197e-01 -3.211387097835540771e-01 4.499129354953765869e-01
-1.297150552272796631e-01 -2.674293518066406250e-01 -3.042009770870208740e-01
5.695211887359619141e-01 -1.090266257524490356e-01 -6.244562193751335144e-02
-4.364139735698699951e-01 -5.075155198574066162e-02 -2.090604603290557861e-01
-4.722197949886322021e-01 1.650476753711700439e-01 3.687750101089477539e-01
2.046450674533843994e-01 -4.709900319576263428e-01 1.172014325857162476e-01
-2.528667449951171875e-01 -8.713963441550731659e-03 4.962315261363983154e-01
-1.131296828389167786e-01 1.967905759811401367e-01 5.171286463737487793e-01
-1.123802065849304199e-01 4.455162882804870605e-01 -7.088906317949295044e-02
-5.882983207702636719e-01 1.818124204874038696e-01 1.643089801073074341e-01
3.329004049301147461e-01 -2.817753255367279053e-01 4.690497517585754395e-01
4.751183092594146729e-01 -6.951942294836044312e-02 3.035691976547241211e-01
4.025761187076568604e-01 -1.296618282794952393e-01 -4.296223521232604980e-01
-2.476280033588409424e-01 -1.333954334259033203e-01 3.975429832935333252e-01
1.585060805082321167e-01 9.589378535747528076e-02 -5.085447430610656738e-01
1.159213334321975708e-01 -3.732627034187316895e-01 3.529449701309204102e-01
1.194692626595497131e-01 -3.971659243106842041e-01 3.042868375778198242e-01
-4.759220778942108154e-01 -4.107384011149406433e-04 2.059093266725540161e-01
1.158350184559822083e-01 -5.542783997952938080e-03 5.609113574028015137e-01
-1.244638860225677490e-01 -2.991772890090942383e-01 -2.289933413267135620e-01
-5.345080494880676270e-01 1.028348058462142944e-01 -2.445542216300964355e-01
-5.045598745346069336e-01 5.655032396316528320e-02 -2.495915889739990234e-01
-4.835691452026367188e-01 1.491227000951766968e-01 3.493259251117706299e-01
2.762033641338348389e-01 2.221256792545318604e-01 6.603452563285827637e-02
-1.180771589279174805e-01 -3.396652638912200928e-01 2.338317036628723145e-02
-3.776453733444213867e-01 -1.350442767143249512e-01 1.243199408054351807e-01
1.414802223443984985e-01 -4.064601659774780273e-01 2.989720702171325684e-01
-4.359190762042999268e-01 9.293351322412490845e-03 -3.218381702899932861e-01
3.626452088356018066e-01 -6.831226497888565063e-02 -4.452476203441619873e-01
2.477944493293762207e-01 2.482172399759292603e-01 -1.345556974411010742e-02
-6.137947440147399902e-01 4.004315137863159180e-01 -4.903409630060195923e-02
-4.962715208530426025e-01 2.490075975656509399e-01 -3.832821249961853027e-01
-3.815548419952392578e-01 2.500029206275939941e-01 -4.722038507461547852e-01
-2.831348776817321777e-01 -2.030919194221496582e-01 -1.813263446092605591e-01
3.055479526519775391e-01 1.007398292422294617e-01 3.489930927753448486e-01
-1.181323900818824768e-01 -8.837373554706573486e-02 -5.306096076965332031e-01
-3.486495465040206909e-02 2.834102511405944824e-01 4.112111926078796387e-01
-3.142127692699432373e-01 -1.483259201049804688e-01 -2.665742635726928711e-01
9.876498579978942871e-02 3.460775911808013916e-01 1.461679488420486450e-02
-2.740632891654968262e-01 -2.292621582746505737e-01 9.300843626260757446e-02
-3.540385663509368896e-01 4.265424907207489014e-01 -3.305487334728240967e-01
-2.845713123679161072e-02 -2.955925464630126953e-01 3.818301856517791748e-01
-2.026178985834121704e-01 2.692606151103973389e-01 4.711576998233795166e-01
3.568456768989562988e-01 1.003416702151298523e-01 -2.761210501194000244e-01
5.287798643112182617e-01 -1.727600842714309692e-01 -2.831647992134094238e-01
3.708590269088745117e-01 8.609645068645477295e-02 2.621404230594635010e-01
4.864970743656158447e-01 -1.210212986916303635e-02 1.784314513206481934e-01
9.733659029006958008e-02 -1.709026545286178589e-01 -5.377131700515747070e-01
-5.699855685234069824e-01 3.664110898971557617e-01 1.976536959409713745e-01
-1.712437719106674194e-01 1.157711222767829895e-01 -5.664504170417785645e-01
-7.881638407707214355e-02 3.066406846046447754e-01 4.022829234600067139e-01
1.204378530383110046e-01 3.256302177906036377e-01 9.721858799457550049e-02
-2.507389783859252930e-01 4.866994321346282959e-01 -4.591606184840202332e-02
6.101720929145812988e-01 -3.356620967388153076e-01 -1.087735667824745178e-01
1.564798057079315186e-01 -3.747559785842895508e-01 -3.404995799064636230e-01
1.971120387315750122e-01 1.606820225715637207e-01 -4.165600836277008057e-01
2.399453073740005493e-01 9.239450097084045410e-02 4.343558549880981445e-01
-5.219814181327819824e-01 1.577093899250030518e-01 -3.230822980403900146e-01
1.535081118345260620e-01 -2.717053294181823730e-01 -4.721604287624359131e-01
-3.816390037536621094e-02 -1.192035898566246033e-01 5.463592410087585449e-01
2.546503022313117981e-02 3.739617466926574707e-01 1.218536347150802612e-01
8.764839917421340942e-02 -3.266178369522094727e-01 -3.872892558574676514e-01
3.452030122280120850e-01 -4.319624006748199463e-01 -2.716017961502075195e-01
-4.874042272567749023e-01 -2.886751294136047363e-02 3.083996288478374481e-02
1.839303076267242432e-01 -2.283079922199249268e-01 -5.061662793159484863e-01
1.267729252576828003e-01 1.856127828359603882e-01 -4.518155455589294434e-01
3.009363412857055664e-01 -3.378300666809082031e-01 4.379379749298095703e-01
-2.180697172880172729e-01 1.072435602545738220e-01 5.356325507164001465e-01
-5.795470476150512695e-01 1.536474078893661499e-01 -1.858938932418823242e-01
-5.020588636398315430e-01 1.037088930606842041e-01 2.928310930728912354e-01
-2.010430246591567993e-01 -9.779565781354904175e-02 4.765752255916595459e-01
5.779649615287780762e-01 -4.065937101840972900e-01 -1.081445887684822083e-01
-5.431261658668518066e-01 1.818900704383850098e-01 2.717489600181579590e-01
5.125782489776611328e-01 -3.084007501602172852e-01 -3.077215850353240967e-01
-1.683496832847595215e-01 3.641686737537384033e-01 -4.000368118286132812e-01
-1.549292504787445068e-01 -2.506167590618133545e-01 3.233896493911743164e-01
1.420290917158126831e-01 -4.156803488731384277e-01 -2.395744919776916504e-01
2.702305316925048828e-01 -2.698362469673156738e-01 -4.698629379272460938e-01
-6.186869144439697266e-01 2.190208584070205688e-01 8.216012269258499146e-02
2.885919436812400818e-02 3.151686191558837891e-01 3.068410456180572510e-01
3.068226277828216553e-01 -3.010912835597991943e-01 -4.398264586925506592e-01
-3.719778358936309814e-02 2.716768383979797363e-01 -4.624372422695159912e-01
-3.097185790538787842e-01 -1.806953251361846924e-01 1.928962618112564087e-01
-1.502097249031066895e-01 -1.513578295707702637e-01 -4.608428180217742920e-01
3.966187834739685059e-01 7.789546251296997070e-02 -2.317035347223281860e-01
1.983171254396438599e-01 -4.481294751167297363e-01 2.234936505556106567e-01
4.746435880661010742e-01 -4.634535014629364014e-01 -1.415270566940307617e-01
-4.742010235786437988e-01 -3.386893868446350098e-02 1.106869652867317200e-01
2.864107787609100342e-01 -3.576448857784271240e-01 -3.886577188968658447e-01
8.599622547626495361e-02 -2.647821307182312012e-01 -4.644224047660827637e-01
-4.214904010295867920e-01 2.656840980052947998e-01 4.071890711784362793e-01
4.686336815357208252e-01 -3.458998203277587891e-01 -3.267423510551452637e-01
-1.285985261201858521e-01 -3.058079183101654053e-01 -1.979580521583557129e-01
6.767746806144714355e-02 1.513840109109878540e-01 4.984574615955352783e-01
-3.029212057590484619e-01 9.413373470306396484e-02 4.970026910305023193e-01
5.265938043594360352e-01 -4.555790126323699951e-01 1.340976953506469727e-01
1.606700122356414795e-01 -4.623705744743347168e-01 8.072194457054138184e-02
5.306993797421455383e-02 -4.251725375652313232e-01 4.946646466851234436e-02
5.945269465446472168e-01 -3.499338924884796143e-01 1.786242276430130005e-01
5.598651766777038574e-01 -4.067344665527343750e-01 1.881866455078125000e-01
3.742241859436035156e-01 -2.200780063867568970e-01 4.693081080913543701e-01
-1.841684728860855103e-01 -1.876335889101028442e-01 3.954400420188903809e-01
-4.613365530967712402e-01 -2.952993661165237427e-02 1.806579530239105225e-01
-6.101859211921691895e-01 3.518315553665161133e-01 1.221731752157211304e-01
4.876270890235900879e-01 -5.329432338476181030e-02 -2.545675039291381836e-01
4.621691107749938965e-01 -4.883719086647033691e-01 8.604209125041961670e-02
4.425258636474609375e-01 -8.091986179351806641e-02 3.662473559379577637e-01
3.084906563162803650e-02 -3.100020885467529297e-01 4.046320617198944092e-01
-6.010096892714500427e-02 -2.413215041160583496e-01 4.355539381504058838e-01
5.738180279731750488e-01 -3.523386120796203613e-01 -1.910511404275894165e-01
4.234551489353179932e-01 -3.662247210741043091e-02 3.529106378555297852e-01
-1.484230011701583862e-01 4.577408134937286377e-01 -7.646846771240234375e-02
-1.611456722021102905e-01 1.386206448078155518e-01 -5.648278594017028809e-01
-4.886036515235900879e-01 4.779253304004669189e-01 -1.403133869171142578e-01
-2.589288949966430664e-01 4.767735004425048828e-01 -1.618605554103851318e-01
-6.087864637374877930e-01 3.736518323421478271e-01 -1.496073454618453979e-01
5.283738970756530762e-01 -3.396527171134948730e-01 -2.710287570953369141e-01
-4.941082596778869629e-01 4.876255393028259277e-01 -1.007285807281732559e-02
-3.479437828063964844e-01 -1.732107102870941162e-01 -5.271712318062782288e-03
4.498506784439086914e-01 -1.699035465717315674e-01 -3.913719654083251953e-01
-2.697717845439910889e-01 -2.368307262659072876e-01 -2.395409345626831055e-02
-1.213191598653793335e-01 3.989883363246917725e-01 2.560020685195922852e-01
-5.607837438583374023e-01 9.707215428352355957e-02 1.265184134244918823e-01
-4.308550059795379639e-01 4.937960505485534668e-01 -1.163750067353248596e-01
5.905175581574440002e-02 3.441717028617858887e-01 1.796943545341491699e-01
5.786926746368408203e-01 -1.487514227628707886e-01 1.366698443889617920e-01
5.449497699737548828e-01 -1.608172804117202759e-01 2.562127113342285156e-01
2.234135866165161133e-01 -1.692017763853073120e-01 -5.270635485649108887e-01
-3.363035619258880615e-01 4.258337020874023438e-01 2.805367410182952881e-01
1.325997710227966309e-01 -1.490329056978225708e-01 -5.475302934646606445e-01
5.830581188201904297e-01 -1.287838816642761230e-01 4.613268654793500900e-03
-3.906382024288177490e-01 2.035257071256637573e-01 -4.740121066570281982e-01
-5.257924199104309082e-01 4.553834497928619385e-01 1.104842871427536011e-01
5.615115761756896973e-01 -3.714932799339294434e-01 2.301291525363922119e-01
7.527612149715423584e-02 -4.280828833580017090e-01 1.232434958219528198e-01
2.962682843208312988e-01 -4.344346933066844940e-03 4.667718708515167236e-01
4.420237243175506592e-01 -2.662840187549591064e-01 4.144956767559051514e-01
-5.468904376029968262e-01 8.748698979616165161e-02 -1.814688295125961304e-01
3.193929418921470642e-02 -3.942759335041046143e-01 -1.745574176311492920e-01
-5.696527287364006042e-02 -2.856695055961608887e-01 3.723861575126647949e-01
-4.015166759490966797e-01 4.994601905345916748e-01 -8.486908674240112305e-02
-1.771073043346405029e-01 7.178854942321777344e-02 -5.649831295013427734e-01
9.951641410589218140e-02 2.401029616594314575e-01 -4.050066769123077393e-01
-2.801881134510040283e-01 -1.528895348310470581e-01 3.243444859981536865e-01
2.509297430515289307e-01 -4.523119330406188965e-01 2.461631447076797485e-01
4.327386319637298584e-01 -1.000237911939620972e-01 3.924387097358703613e-01
-4.949070513248443604e-01 1.212730035185813904e-01 3.182503581047058105e-01
-8.672590553760528564e-02 1.532888710498809814e-01 5.387374758720397949e-01
-2.927998900413513184e-01 -2.896932139992713928e-02 4.532790780067443848e-01
-4.548289254307746887e-02 -3.461777567863464355e-01 -2.183198928833007812e-01
3.690289556980133057e-01 -1.461580116301774979e-02 4.031903743743896484e-01
2.760183066129684448e-03 -3.077657222747802734e-01 -3.637258410453796387e-01
-1.381184607744216919e-01 -6.684908270835876465e-02 -5.343736410140991211e-01
-3.723520934581756592e-01 4.979582428932189941e-01 -1.024991273880004883e-01
2.609376013278961182e-01 -5.599203705787658691e-02 -5.157872438430786133e-01
1.797536164522171021e-01 -4.389975070953369141e-01 -1.998003423213958740e-01
-2.347829937934875488e-01 2.131502628326416016e-01 5.035799741744995117e-01
5.891045928001403809e-01 -1.779875308275222778e-01 1.437620222568511963e-01
6.258746385574340820e-01 -3.274241685867309570e-01 5.460415408015251160e-02
4.161913692951202393e-01 -1.604230254888534546e-01 4.353197216987609863e-01
-1.463220119476318359e-01 3.972235321998596191e-01 -3.277619481086730957e-01
3.424766063690185547e-01 -4.992533624172210693e-01 1.070731133222579956e-02
-2.180273979902267456e-01 4.319042265415191650e-01 -2.909559309482574463e-01
-3.118224442005157471e-01 -1.858852803707122803e-01 1.657138317823410034e-01
5.862450227141380310e-02 -1.400675922632217407e-01 -5.498424172401428223e-01
1.146796941757202148e-01 -3.830274641513824463e-01 3.325099647045135498e-01
-1.348457634449005127e-01 -3.295485377311706543e-01 2.802900038659572601e-02
-1.980588883161544800e-01 -2.808169424533843994e-01 -1.046550348401069641e-01
4.602582156658172607e-01 5.025400966405868530e-02 -4.917205870151519775e-02
-1.357295960187911987e-01 -1.936386674642562866e-01 -4.228258430957794189e-01
-8.451745659112930298e-02 3.017124235630035400e-01 -4.497306942939758301e-01
6.213933229446411133e-01 -2.493424117565155029e-01 -4.586957395076751709e-02
-2.890985459089279175e-02 -2.208314090967178345e-01 -4.631730914115905762e-01
7.215158641338348389e-02 -3.706049025058746338e-01 -2.949285507202148438e-01
-1.831609904766082764e-01 -2.446807622909545898e-01 2.931070923805236816e-01
2.248209565877914429e-01 -3.354225456714630127e-01 -4.142954945564270020e-01
2.067576348781585693e-02 7.120366394519805908e-02 -5.732738971710205078e-01
3.738786578178405762e-01 1.387276351451873779e-01 -7.660336047410964966e-02
-2.476412504911422729e-01 -2.400308847427368164e-01 -1.384828388690948486e-01
-2.573391795158386230e-01 -2.243353873491287231e-01 -1.764598041772842407e-01
5.155097842216491699e-01 -2.014230191707611084e-01 -3.156225681304931641e-01
-1.492903083562850952e-01 -1.253299862146377563e-01 4.909271299839019775e-01
9.804579429328441620e-03 -4.052220284938812256e-01 -3.426341339945793152e-02
1.339887231588363647e-01 -2.985304594039916992e-01 4.653723537921905518e-01
5.837890505790710449e-01 -1.449854820966720581e-01 9.909304976463317871e-02
5.004845857620239258e-01 -3.646988272666931152e-01 -2.821283340454101562e-01
-3.498625755310058594e-01 1.569080948829650879e-01 4.730447232723236084e-01
-2.834205031394958496e-01 -2.250890880823135376e-01 -4.542548209428787231e-02
4.332921206951141357e-01 -4.313052818179130554e-02 -3.443562686443328857e-01
4.433644711971282959e-01 -3.863273561000823975e-01 -3.053018450736999512e-01
1.495652496814727783e-01 -4.520361125469207764e-01 1.409808546304702759e-01
-2.388157695531845093e-01 -2.144982516765594482e-01 2.656587660312652588e-01
-2.757131457328796387e-01 2.073416858911514282e-01 -5.264156460762023926e-01
-1.091393977403640747e-01 3.834639191627502441e-01 -3.305666148662567139e-01
5.737424269318580627e-02 3.630416989326477051e-01 -1.283795535564422607e-01
2.590456008911132812e-01 -2.014290839433670044e-01 5.222645401954650879e-01
4.560679197311401367e-01 -3.814167678356170654e-01 -3.025037646293640137e-01
-6.197243332862854004e-01 1.953298598527908325e-01 -4.677855875343084335e-03
-3.165531456470489502e-01 -1.114932745695114136e-01 3.367947638034820557e-01
5.579752326011657715e-01 -1.334734559059143066e-01 1.894173026084899902e-01
6.244639754295349121e-01 -3.253926932811737061e-01 7.165287435054779053e-02
-4.272877871990203857e-01 -9.462154656648635864e-02 -5.943221971392631531e-02
5.870758295059204102e-01 -1.485019773244857788e-01 8.689482510089874268e-02
2.597245573997497559e-01 -1.548515558242797852e-01 -5.192273259162902832e-01
6.973633170127868652e-02 -3.762492537498474121e-02 5.737178325653076172e-01
4.825656861066818237e-02 3.612873852252960205e-01 -1.704270243644714355e-01
-2.687120735645294189e-01 4.187254011631011963e-01 2.881041467189788818e-01
-1.330828517675399780e-01 -1.941326260566711426e-01 4.358795881271362305e-01
-6.326400041580200195e-01 2.614714205265045166e-01 -7.941601425409317017e-02
4.750460982322692871e-01 -1.725591421127319336e-01 -3.630164265632629395e-01
-2.167959511280059814e-02 -2.511568963527679443e-01 4.495489299297332764e-01
-4.726952910423278809e-01 4.589907526969909668e-01 -2.192591875791549683e-01
-4.713514745235443115e-01 3.545093536376953125e-02 2.773427069187164307e-01
2.712910473346710205e-01 2.013645172119140625e-01 -2.170202136039733887e-01
-9.090673923492431641e-02 -8.481468260288238525e-02 5.443104505538940430e-01
-5.339155793190002441e-01 5.617776140570640564e-02 1.390761584043502808e-01
-4.270622730255126953e-01 -7.699044048786163330e-02 1.566152870655059814e-01
-2.556579709053039551e-01 -1.342620849609375000e-01 3.870045244693756104e-01
2.048208266496658325e-01 -6.804271042346954346e-02 5.453619360923767090e-01
-6.087134480476379395e-01 2.684363722801208496e-01 -1.936947554349899292e-01
-1.928918249905109406e-02 -7.429143041372299194e-02 -5.666375160217285156e-01
-1.588527113199234009e-01 -2.962694764137268066e-01 1.822121590375900269e-01
-5.109135434031486511e-02 -1.504738777875900269e-01 5.243986248970031738e-01
-4.789575040340423584e-01 4.741193056106567383e-01 -1.677760332822799683e-01
-5.635126233100891113e-01 4.540513157844543457e-01 6.224145647138357162e-03
1.005584225058555603e-01 -2.760828137397766113e-01 4.783795475959777832e-01
-1.768781393766403198e-01 -6.609944999217987061e-02 -5.153043270111083984e-01
-9.571937471628189087e-02 1.981590688228607178e-01 -5.419161319732666016e-01
-6.287973523139953613e-01 2.331302911043167114e-01 2.748474478721618652e-02
-3.394980728626251221e-01 -1.624836474657058716e-01 -1.552330106496810913e-01
-3.763265907764434814e-02 -3.828857839107513428e-01 -2.421248145401477814e-02
6.063510179519653320e-01 -3.159691989421844482e-01 -1.337949931621551514e-01
2.399619370698928833e-01 -3.588937222957611084e-01 4.174361526966094971e-01
1.213959529995918274e-01 2.254307121038436890e-01 -4.053559005260467529e-01
4.842366576194763184e-01 -4.609917700290679932e-01 1.817391067743301392e-01
2.197649776935577393e-01 4.289427027106285095e-02 4.921124577522277832e-01
-9.765349328517913818e-02 2.749505452811717987e-02 5.670869946479797363e-01
6.094352602958679199e-01 -2.538633644580841064e-01 1.436715275049209595e-01
2.758467793464660645e-01 9.053421020507812500e-02 3.999015092849731445e-01
1.628766059875488281e-01 -4.651938080787658691e-01 3.363759070634841919e-02
-1.835512369871139526e-01 2.233035266399383545e-01 5.033686757087707520e-01
-3.600760698318481445e-01 -5.442405864596366882e-02 -3.563174009323120117e-01
-4.606740176677703857e-02 -3.716935515403747559e-01 -9.876937419176101685e-02
-4.405504465103149414e-01 -8.340006321668624878e-02 4.228823352605104446e-03
5.570737272500991821e-02 3.249821960926055908e-01 -2.880665361881256104e-01
2.632070481777191162e-01 1.147765219211578369e-01 3.837338089942932129e-01
3.159952759742736816e-01 -9.382443875074386597e-02 -4.900134205818176270e-01
-3.843564987182617188e-01 3.224204480648040771e-01 -4.377324879169464111e-01
-2.827337384223937988e-01 -2.268941104412078857e-01 3.547834232449531555e-02
-2.881416976451873779e-01 5.946270190179347992e-03 4.783208370208740234e-01
-6.884229928255081177e-02 -1.090651676058769226e-01 -5.376894474029541016e-01
-2.185076624155044556e-01 2.873595058917999268e-01 -4.939544796943664551e-01
1.338233053684234619e-01 2.303557842969894409e-01 3.554445803165435791e-01
1.236552223563194275e-01 -9.984440356492996216e-02 -5.622555613517761230e-01
-1.405158340930938721e-01 4.434156119823455811e-01 -1.720296442508697510e-01
2.231321111321449280e-02 -2.219982743263244629e-01 5.004643797874450684e-01
-6.077239513397216797e-01 1.730670481920242310e-01 5.616545304656028748e-02
-4.074637219309806824e-02 4.178348183631896973e-01 -2.998580969870090485e-02
-4.110447466373443604e-01 -5.859089642763137817e-02 2.524726092815399170e-01
3.284798264503479004e-01 1.798799186944961548e-01 -8.010581135749816895e-02
-3.251461386680603027e-01 -1.416551768779754639e-01 2.643122971057891846e-01
2.063522189855575562e-01 2.460307627916336060e-01 2.053850591182708740e-01
5.528995990753173828e-01 -1.010707244277000427e-01 1.453940570354461670e-01
-2.359313219785690308e-01 3.888252973556518555e-01 3.352472484111785889e-01
3.932072818279266357e-01 -4.230549558997154236e-02 3.982628285884857178e-01
-1.977998465299606323e-01 2.862482964992523193e-01 4.565626382827758789e-01
5.108861923217773438e-01 -4.770058989524841309e-01 1.339840143918991089e-02
-2.233170419931411743e-01 4.791877567768096924e-01 -7.691144198179244995e-02
9.459753520786762238e-03 1.125352308154106140e-01 5.438835620880126953e-01
-9.716294705867767334e-02 -2.198338359594345093e-01 4.340586364269256592e-01
-4.220308363437652588e-01 -3.910761326551437378e-02 2.649622857570648193e-01
4.953936338424682617e-01 9.071262553334236145e-03 8.625602349638938904e-03
-4.083764553070068359e-01 -4.502445459365844727e-02 -2.888197004795074463e-01
2.294116169214248657e-01 -4.756562113761901855e-01 -8.370379358530044556e-02
-5.325687527656555176e-01 3.202078491449356079e-02 4.313634335994720459e-02
-5.388072729110717773e-01 1.061739176511764526e-01 2.163930982351303101e-01
-3.555044829845428467e-01 3.241298496723175049e-01 4.047926962375640869e-01
3.637289702892303467e-01 1.892867125570774078e-02 3.762852847576141357e-01
5.501076579093933105e-01 -2.523885667324066162e-01 2.905683219432830811e-01
-4.205784797668457031e-01 -5.763007700443267822e-02 2.312326282262802124e-01
-2.645471096038818359e-01 -4.111783578991889954e-02 -4.737843275070190430e-01
-5.115240812301635742e-01 1.210795436054468155e-02 -1.128367632627487183e-01
-5.646870136260986328e-01 8.471205085515975952e-02 5.910982191562652588e-02
-1.226766929030418396e-01 -3.302265405654907227e-01 -9.252692759037017822e-02
-1.204341948032379150e-01 9.338488429784774780e-02 5.581495165824890137e-01
2.705953717231750488e-01 -3.986486494541168213e-01 -3.307868838310241699e-01
2.883546650409698486e-01 -4.453707635402679443e-01 2.785809636116027832e-01
-2.487379908561706543e-01 4.828180074691772461e-01 -1.036605015397071838e-01
-5.839850902557373047e-01 2.322026342153549194e-01 2.097362130880355835e-01
4.050466716289520264e-01 -4.896156489849090576e-01 -8.893452584743499756e-02
2.680972218513488770e-03 3.977247774600982666e-01 -3.714697808027267456e-02
3.525836765766143799e-01 1.369739919900894165e-01 -1.910666525363922119e-01
-8.872273564338684082e-02 2.466922253370285034e-01 4.744375646114349365e-01
-2.382973432540893555e-01 2.673068083822727203e-02 -5.300977230072021484e-01
-5.799208283424377441e-01 2.576013505458831787e-01 2.240800410509109497e-01
-8.794596046209335327e-02 -3.962672129273414612e-02 -5.643180012702941895e-01
-1.143779382109642029e-01 -3.404695987701416016e-01 -3.540242090821266174e-02
-6.763801723718643188e-02 -2.889397442340850830e-01 3.555126786231994629e-01
6.384146399796009064e-03 -3.372365236282348633e-01 -3.092229366302490234e-01
5.515539646148681641e-01 -3.621735572814941406e-01 -2.210804522037506104e-01
5.715767145156860352e-01 -1.216253340244293213e-01 1.051767915487289429e-01
-2.376490980386734009e-01 -2.266250848770141602e-01 2.341949343681335449e-01
5.951555445790290833e-02 -4.227945804595947266e-01 1.145106628537178040e-01
2.895927727222442627e-01 1.793921142816543579e-01 -2.375012934207916260e-01
3.242060244083404541e-01 -3.878086060285568237e-02 4.649307429790496826e-01
-3.136321604251861572e-01 4.635515809059143066e-01 1.889450550079345703e-01
-9.748752415180206299e-02 -3.217460215091705322e-01 -2.060108184814453125e-01
6.184244751930236816e-01 -2.970641553401947021e-01 1.188530847430229187e-01
-3.801077604293823242e-01 4.967525601387023926e-01 5.363344773650169373e-02
1.271030008792877197e-01 -1.981217414140701294e-02 5.611014366149902344e-01
5.900565385818481445e-01 -4.199891984462738037e-01 1.681089401245117188e-02
5.716212987899780273e-01 -1.782125532627105713e-01 -1.902566552162170410e-01
3.256164491176605225e-01 1.851372718811035156e-01 -3.968482092022895813e-02
2.007842063903808594e-01 -4.369553029537200928e-01 2.611263096332550049e-01
-2.095739841461181641e-01 -6.508379429578781128e-02 4.938391745090484619e-01
-4.283050298690795898e-01 -8.446728438138961792e-02 1.196637675166130066e-01
3.097697794437408447e-01 9.141377359628677368e-02 -3.707135915756225586e-01
4.903017878532409668e-01 -4.977564886212348938e-02 2.446490824222564697e-01
2.157621458172798157e-02 -4.108273088932037354e-01 -2.954973466694355011e-02
-4.428378045558929443e-01 1.672763377428054810e-01 4.008379578590393066e-01
-4.103885889053344727e-01 4.906587302684783936e-01 8.671768754720687866e-02
-3.533762097358703613e-01 3.381425887346267700e-02 -4.508979022502899170e-01
-5.200051069259643555e-01 4.692882001399993896e-01 6.735107302665710449e-02
3.604752123355865479e-01 -4.809035360813140869e-01 -1.379130631685256958e-01
-5.960726365447044373e-02 1.157815605401992798e-01 5.528728961944580078e-01
4.273214936256408691e-01 -1.192072629928588867e-01 -4.011888504028320312e-01
4.469004645943641663e-02 3.653943836688995361e-01 -1.580394208431243896e-01
3.424089252948760986e-01 -4.776473045349121094e-01 1.933100223541259766e-01
-4.176086485385894775e-01 3.578605353832244873e-01 3.498238921165466309e-01
3.110203444957733154e-01 1.973714679479598999e-01 -4.461085051298141479e-02
-4.253156781196594238e-01 4.260517060756683350e-01 2.590788006782531738e-01
4.441046416759490967e-01 -1.045382022857666016e-01 -3.744262456893920898e-01
-2.842656672000885010e-01 -2.168102711439132690e-01 1.245652884244918823e-01
-7.825170457363128662e-02 4.139803946018218994e-01 1.537913531064987183e-01
-1.874496638774871826e-01 1.239874809980392456e-01 -5.625984072685241699e-01
-5.022003501653671265e-02 -2.609234154224395752e-01 -3.981707394123077393e-01
2.876496613025665283e-01 2.164939939975738525e-01 2.073277719318866730e-02
4.267234504222869873e-01 8.809749037027359009e-02 3.038601391017436981e-02
3.733023405075073242e-01 7.266062893904745579e-04 3.833387196063995361e-01
5.260945297777652740e-03 -1.613477021455764771e-01 -5.279675126075744629e-01
-5.874611139297485352e-01 1.447084993124008179e-01 1.110081002116203308e-01
-2.150039747357368469e-02 2.384241521358489990e-01 -4.898506700992584229e-01
1.804299801588058472e-01 -1.519882678985595703e-01 -5.410699248313903809e-01
4.515684843063354492e-01 -3.535948395729064941e-01 -3.331982493400573730e-01
-5.578079819679260254e-01 4.211964905261993408e-01 -1.949905604124069214e-01
5.275982618331909180e-01 -6.947647035121917725e-02 -1.682940125465393066e-01
-2.089420706033706665e-01 -1.547114998102188110e-01 -4.059203565120697021e-01
7.379268109798431396e-02 1.013177931308746338e-01 -5.473363399505615234e-01
-2.792626321315765381e-01 1.354597359895706177e-01 5.106763839721679688e-01
3.057519793510437012e-01 2.024773955345153809e-01 -8.765039965510368347e-03
9.704039990901947021e-02 -2.094759643077850342e-01 -5.141737461090087891e-01
-3.758911415934562683e-02 4.022338986396789551e-01 1.289208680391311646e-01
-3.607822954654693604e-01 2.030800580978393555e-01 -4.920061528682708740e-01
3.945617675781250000e-01 -4.970588386058807373e-01 8.511985093355178833e-02
2.441711723804473877e-01 -3.939625918865203857e-01 -3.348599970340728760e-01
-3.660590648651123047e-01 4.178020656108856201e-01 -3.432388901710510254e-01
-1.017549410462379456e-01 4.373203217983245850e-01 -1.205461174249649048e-01
-5.621272325515747070e-01 2.667035460472106934e-01 2.571465969085693359e-01
-4.327216744422912598e-01 8.279973268508911133e-02 -3.992214202880859375e-01
-4.964116811752319336e-01 -6.640540435910224915e-03 1.072789058089256287e-01
6.196141242980957031e-01 -2.722681462764739990e-01 -8.052261918783187866e-02
-6.041290760040283203e-01 1.587555259466171265e-01 -6.143361702561378479e-02
5.935868620872497559e-01 -1.515100151300430298e-01 4.652661737054586411e-03
2.306146770715713501e-01 -2.039710879325866699e-01 -5.130394101142883301e-01
6.982661038637161255e-02 1.919029355049133301e-01 -4.856426715850830078e-01
2.669830992817878723e-02 3.451690673828125000e-01 2.336014509201049805e-01
1.867622584104537964e-01 -4.002324044704437256e-01 3.398003876209259033e-01
-1.135087981820106506e-01 3.670350015163421631e-01 3.221061229705810547e-01
-1.405859887599945068e-01 9.516104310750961304e-02 -5.729355216026306152e-01
-2.174991369247436523e-01 -2.757013142108917236e-01 1.802441105246543884e-02
-2.502794936299324036e-02 -1.339796781539916992e-01 -5.368539690971374512e-01
-3.503851890563964844e-01 3.052536547183990479e-01 4.209666550159454346e-01
-5.224588513374328613e-01 4.585028588771820068e-01 -1.630141884088516235e-01
4.721918702125549316e-01 -1.292793154716491699e-01 -3.500858247280120850e-01
5.277926325798034668e-01 -3.036775290966033936e-01 -2.911911010742187500e-01
-1.611787229776382446e-01 9.888874739408493042e-02 -5.693445205688476562e-01
-5.656287074089050293e-01 1.660427302122116089e-01 2.133596390485763550e-01
-4.254805445671081543e-01 2.883258163928985596e-01 3.947269022464752197e-01
3.600054681301116943e-01 -4.972122311592102051e-01 -4.049705713987350464e-02
6.165795922279357910e-01 -2.158910185098648071e-01 1.939480938017368317e-02
-5.571243762969970703e-01 2.528511881828308105e-01 2.657474577426910400e-01
-8.021217584609985352e-02 4.303298294544219971e-01 5.656028166413307190e-02
-1.784993857145309448e-01 -2.924291789531707764e-01 1.348675340414047241e-01
1.512868255376815796e-01 2.222764939069747925e-01 3.496956527233123779e-01
1.182811856269836426e-01 1.755867302417755127e-01 -4.691054224967956543e-01
3.243853449821472168e-01 -7.838893681764602661e-02 4.837275743484497070e-01
3.699685037136077881e-01 1.386036872863769531e-01 -1.072931364178657532e-01
2.089400887489318848e-01 2.509721219539642334e-01 1.814040988683700562e-01
-5.019121170043945312e-01 -8.194248192012310028e-03 -6.710833311080932617e-02
4.232428073883056641e-01 -1.810719445347785950e-02 -3.346198797225952148e-01
1.212743446230888367e-01 -2.669821679592132568e-01 -4.711727201938629150e-01
-3.898779451847076416e-01 -6.215983256697654724e-02 -2.943579256534576416e-01
-6.836847215890884399e-02 2.421943247318267822e-01 -5.046616792678833008e-01
-4.639269709587097168e-01 3.960287272930145264e-01 2.813183665275573730e-01
-2.641228735446929932e-01 4.855725467205047607e-01 4.895038902759552002e-02
-1.007846295833587646e-01 1.939526647329330444e-01 5.175577998161315918e-01
7.185600697994232178e-02 3.617753088474273682e-01 1.449207775294780731e-04
-5.383779406547546387e-01 3.795321881771087646e-01 2.304412275552749634e-01
3.939249217510223389e-01 -3.804000318050384521e-01 3.717716336250305176e-01
3.170950710773468018e-01 1.886154711246490479e-01 -9.082924574613571167e-02
8.447431027889251709e-02 1.528962850570678711e-01 -5.105617046356201172e-01
-4.831831157207489014e-01 4.041452705860137939e-01 2.565448880195617676e-01
2.190068513154983521e-01 -3.214100897312164307e-01 4.564338624477386475e-01
2.630009949207305908e-01 2.272645384073257446e-01 1.046748086810112000e-01
-2.126497477293014526e-01 -7.817664742469787598e-02 -4.836165010929107666e-01
-1.672325432300567627e-01 3.084748089313507080e-01 4.301313459873199463e-01
1.276553422212600708e-01 3.216404616832733154e-01 -1.331080645322799683e-01
5.660364627838134766e-01 -4.256616234779357910e-01 -9.361805021762847900e-02
6.214022040367126465e-01 -3.575949370861053467e-01 3.087803535163402557e-02
-1.408187597990036011e-01 4.496945440769195557e-01 7.992321252822875977e-02
4.252124726772308350e-01 -1.926043182611465454e-01 -4.173381924629211426e-01
1.486140396445989609e-02 3.601498305797576904e-01 2.042168527841567993e-01
-1.332266926765441895e-01 -3.240121901035308838e-01 -9.181297570466995239e-02
-3.473525643348693848e-01 -1.058986261487007141e-01 -2.928193509578704834e-01
-4.729844629764556885e-01 8.278904855251312256e-02 -3.433365821838378906e-01
-1.891602277755737305e-01 -2.942252159118652344e-01 4.819473251700401306e-02
-1.557307392358779907e-01 -2.745183408260345459e-01 -2.452335208654403687e-01
6.014428138732910156e-01 -2.638500928878784180e-01 1.773748546838760376e-01
-4.292903542518615723e-01 -3.593687713146209717e-02 2.545587122440338135e-01
5.025253631174564362e-03 -1.726951450109481812e-01 5.303746461868286133e-01
3.636189699172973633e-01 -4.450646638870239258e-01 -2.420764714479446411e-01
-4.424358010292053223e-01 3.027450144290924072e-01 -4.168612658977508545e-01
3.201775550842285156e-01 1.697459965944290161e-01 1.586073935031890869e-01
2.806811332702636719e-01 -4.879409372806549072e-01 -6.081010401248931885e-02
-5.519461631774902344e-01 6.362070143222808838e-02 -7.685867697000503540e-02
4.929360747337341309e-01 -4.680846631526947021e-01 -1.032316684722900391e-01
4.365314245223999023e-01 -3.700707852840423584e-01 3.608962893486022949e-01
4.407460689544677734e-01 -4.773097336292266846e-01 -1.238363981246948242e-01
4.526921361684799194e-02 1.531749218702316284e-01 -5.291746258735656738e-01
4.279201924800872803e-01 2.913235453888773918e-03 -3.001954555511474609e-01
-1.425937712192535400e-01 -3.201644420623779297e-01 1.002789437770843506e-01
7.426113635301589966e-02 9.868677705526351929e-03 5.668774247169494629e-01
6.166214942932128906e-01 -3.346238136291503906e-01 1.133576482534408569e-01
3.509313464164733887e-01 1.200732737779617310e-01 2.284942865371704102e-01
2.229512482881546021e-01 -3.468265831470489502e-01 -4.003758430480957031e-01
2.842074334621429443e-01 -3.649709522724151611e-01 -3.798252046108245850e-01
3.833819031715393066e-01 1.269757002592086792e-01 8.081036806106567383e-02
-3.109027165919542313e-03 3.980870544910430908e-01 4.133535549044609070e-02
-1.599568426609039307e-01 -3.513011336326599121e-02 -5.411536097526550293e-01
2.842061221599578857e-01 9.056466072797775269e-02 -4.043570756912231445e-01
-3.465673699975013733e-02 -1.665279567241668701e-01 5.203751921653747559e-01
6.841515749692916870e-02 3.094685375690460205e-01 2.716566622257232666e-01
1.158750206232070923e-01 -7.570290565490722656e-02 5.685682296752929688e-01
3.811197280883789062e-01 -3.542203903198242188e-01 -3.708460628986358643e-01
5.511534214019775391e-01 -2.337220311164855957e-01 2.849883139133453369e-01
6.349805742502212524e-02 -4.297581315040588379e-01 -3.936029504984617233e-03
4.671119749546051025e-01 7.532041519880294800e-03 -1.970534324645996094e-01
-5.227432772517204285e-02 -3.525322079658508301e-01 -1.821835190057754517e-01
-6.077999249100685120e-02 4.260635375976562500e-01 1.348305959254503250e-04
3.006026148796081543e-01 -3.483794033527374268e-01 4.280407428741455078e-01
4.246429502964019775e-01 9.117366373538970947e-02 -2.345976606011390686e-02
-2.691660821437835693e-01 2.656929790973663330e-01 4.684400260448455811e-01
5.818697810173034668e-01 -2.754969000816345215e-01 2.315367162227630615e-01
4.676827788352966309e-02 3.750328421592712402e-01 8.204417303204536438e-03
-1.264585647732019424e-02 -1.178881004452705383e-01 5.537975430488586426e-01
-7.294975221157073975e-02 4.238007664680480957e-01 8.732607960700988770e-02
3.723343908786773682e-01 -4.395113289356231689e-01 2.923046648502349854e-01
3.180885910987854004e-01 -4.430366307497024536e-02 4.729582071304321289e-01
2.146272212266921997e-01 2.422275841236114502e-01 -2.281655073165893555e-01
2.915977239608764648e-01 -4.723373353481292725e-01 1.983483284711837769e-01
4.292608797550201416e-01 3.456560894846916199e-02 -2.438837736845016479e-01
-3.594142794609069824e-01 4.001176059246063232e-01 3.200836777687072754e-01
-5.611115694046020508e-01 4.085658490657806396e-01 1.586043536663055420e-01
2.256227284669876099e-01 -3.779556155204772949e-01 -3.572761118412017822e-01
-5.788656473159790039e-01 1.787328869104385376e-01 -2.191303819417953491e-01
2.748632729053497314e-01 1.489037275314331055e-01 3.141866028308868408e-01
4.133089184761047363e-01 -3.615459501743316650e-01 -3.490320742130279541e-01
-2.445601522922515869e-01 -2.406527660787105560e-02 -5.005624890327453613e-01
2.769755423069000244e-01 2.216654568910598755e-01 -9.194312989711761475e-02
-1.879762560129165649e-01 -2.902875244617462158e-01 -8.412317931652069092e-02
-4.789075255393981934e-02 -4.098624736070632935e-02 -5.724384188652038574e-01
4.633610546588897705e-01 -2.986070215702056885e-01 3.873652815818786621e-01
-2.516432702541351318e-01 -7.640725374221801758e-02 -4.541689157485961914e-01
-5.337700843811035156e-01 8.904927968978881836e-02 2.057480514049530029e-01
-2.017322778701782227e-01 -2.428472787141799927e-01 -2.483558952808380127e-01
1.439016014337539673e-01 -1.418709903955459595e-01 -5.491094589233398438e-01
-2.165865600109100342e-01 4.072906672954559326e-01 2.952207922935485840e-01
-3.412463963031768799e-01 1.931131035089492798e-01 4.741324484348297119e-01
-6.041626930236816406e-01 3.140600025653839111e-01 -2.060548812150955200e-01
1.295398082584142685e-02 -4.068607091903686523e-01 6.488594412803649902e-02
3.782389760017395020e-01 -4.475868940353393555e-01 2.745806276798248291e-01
-5.182055830955505371e-01 4.498789310455322266e-01 1.376563459634780884e-01
-3.853371739387512207e-01 7.499841600656509399e-02 4.282353818416595459e-01
-2.781920135021209717e-01 -2.275937944650650024e-01 -6.450923532247543335e-02
2.194089442491531372e-01 2.299822419881820679e-01 -2.549132406711578369e-01
4.878028929233551025e-01 -4.198462143540382385e-02 -2.369219958782196045e-01
4.620030894875526428e-02 3.744766414165496826e-01 -7.069347798824310303e-02
-2.648787498474121094e-01 -1.404835581779479980e-01 -3.616141378879547119e-01
3.091738224029541016e-01 8.047933131456375122e-02 -3.853839337825775146e-01
2.230079919099807739e-01 1.720246523618698120e-01 3.475850820541381836e-01
2.485150694847106934e-01 1.548520326614379883e-01 3.423680067062377930e-01
-1.186493262648582458e-01 1.558270901441574097e-01 -5.625553727149963379e-01
-3.668000400066375732e-01 4.764007925987243652e-01 1.538422405719757080e-01
2.920634150505065918e-01 -2.152894586324691772e-01 5.084189176559448242e-01
3.917168676853179932e-01 -1.184161603450775146e-01 4.444409906864166260e-01
3.851258754730224609e-01 1.283253282308578491e-01 -7.182128727436065674e-02
2.133884876966476440e-01 -4.561973512172698975e-01 2.069368958473205566e-01
2.789328396320343018e-01 -2.579577267169952393e-01 4.963580369949340820e-01
-1.134844422340393066e-01 4.388711452484130859e-01 -1.421062201261520386e-01
1.188974734395742416e-02 2.923177778720855713e-01 3.661892712116241455e-01
2.785447239875793457e-01 1.955449581146240234e-02 4.646784961223602295e-01
1.527503430843353271e-01 -4.583182036876678467e-01 9.916785359382629395e-02
4.658515453338623047e-01 4.178041964769363403e-02 6.047604233026504517e-02
-2.064864337444305420e-01 -1.937315165996551514e-01 3.597196340560913086e-01
2.951323390007019043e-01 -4.662280082702636719e-01 -1.795981079339981079e-01
-3.718091249465942383e-01 1.237166598439216614e-01 -4.776207506656646729e-01
6.167456507682800293e-01 -3.159283995628356934e-01 -9.410862624645233154e-02
-3.576888516545295715e-02 2.167409509420394897e-01 4.853805303573608398e-01
4.012911617755889893e-01 -3.823060393333435059e-01 -3.322277963161468506e-01
-2.598007917404174805e-01 -1.696242988109588623e-01 -3.180478215217590332e-01
6.403745710849761963e-02 3.659849166870117188e-01 -4.610101506114006042e-02
-1.298882812261581421e-01 -2.477502524852752686e-01 3.610736131668090820e-01
-6.534569710493087769e-02 -3.333669900894165039e-01 -2.264011353254318237e-01
7.013886421918869019e-02 -4.046880900859832764e-01 -1.949768215417861938e-01
-3.717820644378662109e-01 -5.615250393748283386e-02 -3.359511494636535645e-01
1.163305807858705521e-02 3.257121741771697998e-01 -3.420921564102172852e-01
-4.781433045864105225e-01 -3.484122455120086670e-02 7.940113544464111328e-02
-4.300208985805511475e-01 3.957698345184326172e-01 3.016096353530883789e-01
-4.630078077316284180e-01 -5.634997040033340454e-02 -5.384963005781173706e-02
-3.110684454441070557e-01 -5.220650136470794678e-02 -4.203748703002929688e-01
-5.489635467529296875e-01 4.215681552886962891e-01 -2.093438953161239624e-01
1.009355485439300537e-01 3.239280283451080322e-01 -2.058518230915069580e-01
-5.729750394821166992e-01 1.178416311740875244e-01 -1.434445381164550781e-01
-6.585355848073959351e-02 -2.121395617723464966e-01 4.652686715126037598e-01
-5.704991221427917480e-01 2.934791445732116699e-01 2.388648688793182373e-01
3.814240396022796631e-01 -1.457496285438537598e-01 4.612512588500976562e-01
4.074074327945709229e-01 7.088625431060791016e-02 2.082789838314056396e-01
-5.109776556491851807e-02 1.306937932968139648e-01 -5.664352774620056152e-01
1.361958086490631104e-01 -3.606749176979064941e-01 3.861717283725738525e-01
6.053349375724792480e-01 -3.931427896022796631e-01 -2.504573762416839600e-02
-5.291555523872375488e-01 2.695016264915466309e-01 -3.435179889202117920e-01
-4.201039671897888184e-01 4.646254479885101318e-01 -2.359320819377899170e-01
5.067452788352966309e-01 -1.490771770477294922e-01 -3.083389699459075928e-01
1.194508280605077744e-02 3.495475649833679199e-01 2.420795559883117676e-01
1.183869689702987671e-01 -1.999105066061019897e-01 5.366058349609375000e-01
1.459250450134277344e-01 -4.562596082687377930e-01 -5.815753340721130371e-02
-2.629965841770172119e-01 -1.205091457813978195e-02 4.875394105911254883e-01
2.305068522691726685e-01 2.516435682773590088e-01 -1.351072341203689575e-01
5.720737576484680176e-01 -3.776778876781463623e-01 2.039559185504913330e-01
-2.863942682743072510e-01 -2.222078889608383179e-01 6.593225896358489990e-02
-1.768265068531036377e-01 -1.945976167917251587e-01 -3.822547495365142822e-01
-4.058744013309478760e-02 3.112024664878845215e-01 -4.123167991638183594e-01
-1.144792698323726654e-02 -3.464069068431854248e-01 -2.672671079635620117e-01
2.831013202667236328e-01 -3.507007062435150146e-01 4.273270070552825928e-01
2.320775240659713745e-01 -8.825137466192245483e-02 -5.342770218849182129e-01
-1.531238257884979248e-01 4.358507394790649414e-01 -2.241965234279632568e-01
3.238657861948013306e-02 -7.756111025810241699e-02 -5.709711909294128418e-01
-9.585061669349670410e-02 -3.519428968429565430e-01 4.621085897088050842e-02
-1.460803151130676270e-01 3.252840340137481689e-01 4.041773378849029541e-01
-1.708701252937316895e-01 3.949672877788543701e-01 -3.475824594497680664e-01
-3.854521811008453369e-01 1.452730596065521240e-01 4.479493796825408936e-01
-4.931806027889251709e-01 4.108220934867858887e-01 2.388226985931396484e-01
-5.905484557151794434e-01 3.665984570980072021e-01 -2.062565237283706665e-01
-4.505884945392608643e-01 -3.362910822033882141e-02 2.041807174682617188e-01
-9.621515125036239624e-02 4.205015003681182861e-01 1.553547531366348267e-01
-5.027108788490295410e-01 2.678111754357814789e-02 -1.968061625957489014e-01
-1.756942570209503174e-01 4.386617541313171387e-01 -2.388198971748352051e-01
1.812554299831390381e-01 -1.043122336268424988e-01 5.554692745208740234e-01
-4.095751047134399414e-01 -7.702527195215225220e-02 2.143619805574417114e-01
1.787319928407669067e-01 -3.398601114749908447e-01 -4.017853438854217529e-01
-8.319397270679473877e-02 2.248348742723464966e-01 -5.224620103836059570e-01
5.255467891693115234e-01 -4.411099851131439209e-01 -1.378740966320037842e-01
3.696226775646209717e-01 1.175722405314445496e-01 1.840050220489501953e-01
2.611081302165985107e-01 -3.421556651592254639e-01 -4.076088070869445801e-01
4.508583247661590576e-02 -4.220004975795745850e-01 -8.068257942795753479e-03
2.796823680400848389e-01 1.164588257670402527e-01 -3.775741457939147949e-01
4.276712834835052490e-01 -4.125001430511474609e-01 -2.794151008129119873e-01
-4.156961143016815186e-01 6.957745063118636608e-04 -3.442659676074981689e-01
-2.091169059276580811e-01 3.272162079811096191e-01 4.158279001712799072e-01
-1.515723019838333130e-01 -2.929273545742034912e-01 2.146871089935302734e-01
-4.773505926132202148e-01 2.221968919038772583e-01 3.696633279323577881e-01
-3.267395198345184326e-01 -1.345009505748748779e-01 -2.728538513183593750e-01
-6.014344692230224609e-01 2.248529940843582153e-01 1.592923998832702637e-01
-1.367848664522171021e-01 -2.713520228862762451e-01 3.041978180408477783e-01
-4.328372478485107422e-01 -8.819552510976791382e-02 6.413298100233078003e-02
5.300272703170776367e-01 -1.484747529029846191e-01 2.771714031696319580e-01
1.749102920293807983e-01 2.616250514984130859e-01 2.246680557727813721e-01
-3.942888975143432617e-01 -8.712150901556015015e-02 -2.316783070564270020e-01
3.218503296375274658e-01 1.025465726852416992e-01 3.216368257999420166e-01
-2.973462641239166260e-01 3.818076550960540771e-01 -4.001401960849761963e-01
8.245899528264999390e-02 -9.781816601753234863e-02 -5.659462809562683105e-01
3.844829499721527100e-01 -3.977667689323425293e-01 -3.189651072025299072e-01
1.274610161781311035e-01 2.496266961097717285e-01 -3.588156700134277344e-01
-3.097875714302062988e-01 -1.669525802135467529e-01 -2.282331436872482300e-01
-8.620762825012207031e-02 -3.047835826873779297e-01 -2.756251990795135498e-01
3.121513128280639648e-01 1.455141603946685791e-01 -2.728847265243530273e-01
1.786339432001113892e-01 -4.687647819519042969e-01 6.356212496757507324e-02
-2.072424590587615967e-01 -9.124098718166351318e-02 -4.765118360519409180e-01
8.353852666914463043e-03 2.003217637538909912e-01 -5.103245377540588379e-01
-2.259739041328430176e-01 -2.295041829347610474e-01 2.517040669918060303e-01
-3.859980776906013489e-02 4.019578099250793457e-01 -1.805179119110107422e-01
-6.054003238677978516e-01 4.018296897411346436e-01 -1.064003184437751770e-01
