1.170507222414016724e-01 1.811075508594512939e-01 6.348906159400939941e-01
6.798903644084930420e-02 -3.707112073898315430e-01 -6.692503690719604492e-01
1.151638627052307129e-01 -2.620663940906524658e-01 5.423177480697631836e-01
-1.016771942377090454e-01 -5.039620995521545410e-01 4.223003983497619629e-02
1.104324311017990112e-01 -4.094333201646804810e-02 -6.887351274490356445e-01
-7.455800659954547882e-04 2.144918292760848999e-01 -9.659616351127624512e-01
1.256776750087738037e-01 -3.360964357852935791e-01 2.547945976257324219e-01
-6.250512599945068359e-02 -3.515510559082031250e-01 7.300655841827392578e-01
1.434540003538131714e-01 -2.401639074087142944e-01 -1.730781979858875275e-03
1.239015161991119385e-01 3.658973872661590576e-01 3.038570284843444824e-01
-1.154951304197311401e-01 -4.249851405620574951e-02 6.740975379943847656e-01
7.224333286285400391e-02 -5.464006066322326660e-01 1.754864305257797241e-01
-4.135654866695404053e-02 2.377277910709381104e-01 8.891094326972961426e-01
9.026439487934112549e-02 -4.841223359107971191e-01 2.674780786037445068e-01
1.141950301826000214e-02 1.160018071532249451e-01 -9.980392456054687500e-01
-1.375601142644882202e-01 -1.851147711277008057e-01 -5.013105869293212891e-01
1.059137582778930664e-01 6.678284704685211182e-02 7.519218921661376953e-01
7.542993128299713135e-02 -9.648276120424270630e-02 -8.539106845855712891e-01
1.321264356374740601e-01 1.083101853728294373e-01 -4.988023936748504639e-01
1.312546283006668091e-01 -2.088847905397415161e-01 4.423825144767761230e-01
1.052351593971252441e-01 1.495755016803741455e-01 7.297884821891784668e-01
-8.980152010917663574e-02 4.348112642765045166e-01 4.726673364639282227e-01
9.667520225048065186e-02 -4.850667715072631836e-01 1.228489056229591370e-01
3.019791468977928162e-02 -4.563865065574645996e-01 -6.665758490562438965e-01
-4.769323021173477173e-02 1.728506386280059814e-01 -9.531033635139465332e-01
-1.579655110836029053e-01 3.422775864601135254e-02 1.793117821216583252e-01
1.327507048845291138e-01 3.176372647285461426e-01 -2.331965714693069458e-01
8.815470337867736816e-02 -3.009325861930847168e-01 -6.544458866119384766e-01
-5.442189052700996399e-02 -5.969350337982177734e-01 1.495468318462371826e-01
-5.153110623359680176e-02 -2.073134928941726685e-01 8.811048269271850586e-01
8.511430025100708008e-02 -5.156515240669250488e-01 -1.397015750408172607e-01
-1.047306954860687256e-01 -4.455777406692504883e-01 3.086394071578979492e-01
-1.565785855054855347e-01 1.670459955930709839e-01 -7.229221612215042114e-02
-1.231010407209396362e-01 -4.088196754455566406e-01 1.449318081140518188e-01
2.449041418731212616e-02 -5.573825836181640625e-01 -4.519830048084259033e-01
1.247584074735641479e-01 2.385079413652420044e-01 5.202757120132446289e-01
3.472276777029037476e-02 -5.421580672264099121e-01 -4.638946354389190674e-01
-1.161530017852783203e-01 1.649807691574096680e-01 -6.989307403564453125e-01
-1.248810440301895142e-01 -2.329464815557003021e-02 -6.886189579963684082e-01
-7.218691706657409668e-02 5.563969612121582031e-01 2.443192452192306519e-01
3.400972113013267517e-02 4.382703602313995361e-01 -7.206978797912597656e-01
-1.559925377368927002e-01 9.778234362602233887e-02 1.851621568202972412e-01
-1.160592436790466309e-01 2.723324298858642578e-01 -6.057996749877929688e-01
8.264774084091186523e-02 5.151057243347167969e-01 -3.264029026031494141e-01
-1.453291773796081543e-01 -2.356600761413574219e-01 2.271032929420471191e-01
-4.810081422328948975e-02 5.021397471427917480e-01 -5.958494544029235840e-01
1.409281343221664429e-01 5.168664082884788513e-02 -4.124491214752197266e-01
6.938515603542327881e-02 5.764045119285583496e-01 -1.784278899431228638e-01
-1.051730215549468994e-01 3.300742805004119873e-01 -6.118294596672058105e-01
5.445880070328712463e-02 -2.756363153457641602e-01 -8.235827088356018066e-01
5.670590326189994812e-03 -4.336295649409294128e-02 9.970313310623168945e-01
-1.265822649002075195e-01 -3.405832648277282715e-01 -3.926337659358978271e-01
-1.779389008879661560e-02 6.330724954605102539e-01 -2.349102795124053955e-01
1.287462711334228516e-01 -3.446364402770996094e-01 -6.011238694190979004e-02
-1.376978904008865356e-01 3.146430850028991699e-01 -2.527859508991241455e-01
1.347977221012115479e-01 1.300290673971176147e-01 5.053850412368774414e-01
-3.212374448776245117e-02 -6.139111518859863281e-01 1.980281323194503784e-01
-1.022306680679321289e-01 -4.018790125846862793e-01 4.438001513481140137e-01
-1.327735036611557007e-01 -3.698603510856628418e-01 6.894290447235107422e-02
8.894735574722290039e-02 -3.772971928119659424e-01 -5.410431623458862305e-01
3.994646668434143066e-02 -5.551837086677551270e-01 -4.008813798427581787e-01
-1.446516811847686768e-01 -2.925317361950874329e-02 4.157089591026306152e-01
1.519834809005260468e-02 -6.321714520454406738e-01 5.794186145067214966e-04
-1.578665673732757568e-01 -1.562201231718063354e-01 -4.896053671836853027e-02
7.464881241321563721e-02 -4.937436878681182861e-01 3.972112834453582764e-01
-1.151782423257827759e-01 -6.762602925300598145e-02 -7.460427284240722656e-01
2.784309536218643188e-02 5.058519840240478516e-01 6.124945282936096191e-01
1.484342515468597412e-01 4.285172373056411743e-02 3.497970402240753174e-01
2.738341502845287323e-02 -5.877401828765869141e-01 3.280863761901855469e-01
-1.459414213895797729e-01 1.358380317687988281e-01 3.437896966934204102e-01
1.262515187263488770e-01 3.965814709663391113e-01 -2.460261993110179901e-02
3.032162413001060486e-02 6.280065327882766724e-02 9.821630120277404785e-01
1.338622421026229858e-01 -2.717251777648925781e-01 -2.364112585783004761e-01
-5.760288238525390625e-02 3.023800849914550781e-01 8.004303574562072754e-01
-4.244456067681312561e-02 -7.958979159593582153e-02 9.493167400360107422e-01
-7.208360731601715088e-02 1.197553649544715881e-01 8.632577657699584961e-01
1.418121755123138428e-01 -1.098452582955360413e-01 -3.532724082469940186e-01
1.217302232980728149e-01 3.543720841407775879e-01 3.680315613746643066e-01
1.205824613571166992e-01 4.267281293869018555e-01 3.231630846858024597e-02
-1.398788578808307648e-02 3.682597875595092773e-01 8.195347189903259277e-01
-8.394962549209594727e-02 4.818988740444183350e-01 4.048377871513366699e-01
9.545560181140899658e-02 3.659688532352447510e-01 5.896933078765869141e-01
-1.001188457012176514e-01 -4.433425962924957275e-01 3.649627268314361572e-01
1.015692949295043945e-01 2.511353790760040283e-01 6.845887899398803711e-01
-1.607812345027923584e-01 6.548894941806793213e-02 4.071328043937683105e-02
7.943663001060485840e-02 4.676908254623413086e-01 5.040332674980163574e-01
1.323685050010681152e-01 -3.094263076782226562e-01 1.887896806001663208e-01
8.000437915325164795e-02 -4.557603895664215088e-01 4.645596742630004883e-01
-1.244095861911773682e-01 1.324327886104583740e-01 5.787516832351684570e-01
-1.322339326143264771e-01 3.373383581638336182e-01 -2.986240088939666748e-01
-1.153302639722824097e-01 -9.472133219242095947e-02 -7.375146150588989258e-01
-5.385949835181236267e-02 2.026921212673187256e-01 -9.268938899040222168e-01
-1.286235749721527100e-01 3.813818693161010742e-01 -1.999435424804687500e-01
-7.195569574832916260e-02 -5.722017288208007812e-01 1.136367246508598328e-01
5.356290936470031738e-02 2.383182048797607422e-01 8.790089488029479980e-01
1.008466929197311401e-01 5.062573552131652832e-01 -7.981423288583755493e-03
-1.269509047269821167e-01 -5.764734372496604919e-02 -6.680231690406799316e-01
1.436122804880142212e-01 -5.471042171120643616e-02 -3.610993027687072754e-01
7.521411776542663574e-02 4.549921154975891113e-01 -5.386301279067993164e-01
1.238021813333034515e-02 8.956430107355117798e-02 -1.003331780433654785e+00
1.447117030620574951e-01 2.661757469177246094e-01 4.193492233753204346e-02
-1.536834239959716797e-01 -1.803636848926544189e-01 -2.240165472030639648e-01
-1.596084386110305786e-01 1.036125272512435913e-01 3.012429922819137573e-02
6.320662796497344971e-02 -5.740532279014587402e-01 6.012545526027679443e-02
-6.150793284177780151e-02 -5.921897292137145996e-01 9.254970401525497437e-02
4.519544169306755066e-02 3.932620286941528320e-01 7.558759450912475586e-01
-2.545438148081302643e-02 2.146902680397033691e-01 -9.600753784179687500e-01
-1.107005327939987183e-01 2.616762220859527588e-01 -6.566280722618103027e-01
-7.142724096775054932e-02 -4.648212492465972900e-01 -5.698330402374267578e-01
2.681371569633483887e-02 -4.770478606224060059e-01 6.337750554084777832e-01
8.057850599288940430e-02 4.677234292030334473e-01 -4.777948558330535889e-01
1.337264329195022583e-01 -3.167913258075714111e-01 3.778503276407718658e-03
-1.299069076776504517e-01 2.922689318656921387e-01 3.582626879215240479e-01
6.305374205112457275e-02 1.791772097349166870e-01 8.878780603408813477e-01
-4.372707754373550415e-02 -5.371829271316528320e-01 4.645092189311981201e-01
-7.837444543838500977e-02 4.972669184207916260e-01 -4.641298949718475342e-01
1.258492171764373779e-01 -3.481238484382629395e-01 1.987768113613128662e-01
1.128916293382644653e-01 1.907629817724227905e-01 6.584203243255615234e-01
-1.131263524293899536e-01 -4.084791243076324463e-01 -3.893893361091613770e-01
-1.281166523694992065e-01 -1.060770004987716675e-01 5.627492666244506836e-01
-4.572689160704612732e-02 8.787289261817932129e-02 -9.838543534278869629e-01
6.658506393432617188e-02 3.167430460453033447e-01 7.815282940864562988e-01
-6.527557969093322754e-02 5.871835350990295410e-01 1.358097195625305176e-01
7.031427323818206787e-02 -3.178098499774932861e-01 -7.247026562690734863e-01
-2.850146032869815826e-02 4.902758002281188965e-01 6.287086606025695801e-01
4.358601570129394531e-02 6.178743839263916016e-01 -1.784022003412246704e-01
-1.294320970773696899e-01 3.882395625114440918e-01 2.039647102355957031e-02
-4.147048667073249817e-02 -5.708904862403869629e-01 3.667148351669311523e-01
6.861902773380279541e-02 4.820922613143920898e-01 5.326732993125915527e-01
1.566934734582901001e-01 5.152608454227447510e-02 5.382034182548522949e-02
-1.490294933319091797e-01 -2.461260706186294556e-01 9.290939569473266602e-02
-1.568525731563568115e-01 3.306370601058006287e-02 -3.037963807582855225e-01
1.107045114040374756e-01 1.591633558273315430e-01 6.917543411254882812e-01
-7.902362942695617676e-02 4.507693946361541748e-01 5.113220810890197754e-01
-1.056422106921672821e-02 1.516945660114288330e-01 9.703024625778198242e-01
1.441084295511245728e-01 1.261375099420547485e-01 3.847692012786865234e-01
-3.947764635086059570e-02 4.276564717292785645e-01 7.062067389488220215e-01
-2.646711096167564392e-02 5.461105108261108398e-01 -5.473982095718383789e-01
-1.435828804969787598e-01 -2.108469754457473755e-01 -3.903212547302246094e-01
1.283754706382751465e-01 1.608624756336212158e-01 -5.089836716651916504e-01
-1.479191184043884277e-01 -2.685658037662506104e-01 1.855310425162315369e-02
-1.232546120882034302e-01 3.860791325569152832e-01 -3.045846819877624512e-01
8.204475045204162598e-02 3.470679521560668945e-01 -6.683180928230285645e-01
1.366534382104873657e-01 1.246896944940090179e-02 -4.682400822639465332e-01
-1.057759821414947510e-01 1.125990301370620728e-01 -7.856736779212951660e-01
-6.524372100830078125e-02 5.875009894371032715e-01 -1.862652301788330078e-01
2.079674974083900452e-02 4.782547950744628906e-01 6.720337271690368652e-01
8.785901963710784912e-02 4.536578357219696045e-01 -4.564717113971710205e-01
-5.751552525907754898e-04 -1.425616741180419922e-01 -9.906894564628601074e-01
3.821728006005287170e-02 -2.422379404306411743e-01 8.924288153648376465e-01
2.318286709487438202e-02 3.505073487758636475e-01 -8.454385995864868164e-01
-6.934542953968048096e-02 -5.827930569648742676e-01 2.931557968258857727e-02
-1.738257240504026413e-03 6.506093740463256836e-01 -9.330857545137405396e-02
-1.479963660240173340e-01 2.538060843944549561e-01 -1.594554334878921509e-01
-1.540534198284149170e-01 1.051694005727767944e-01 2.249931097030639648e-01
1.473723649978637695e-01 2.152181863784790039e-01 -1.292006671428680420e-01
4.458282142877578735e-02 -4.600540399551391602e-01 -6.187126636505126953e-01
1.379623562097549438e-01 -2.850521206855773926e-01 7.557107508182525635e-02
-1.371057629585266113e-01 -1.458647660911083221e-02 5.017948746681213379e-01
7.831393182277679443e-02 5.025045275688171387e-01 -4.054545462131500244e-01
-4.778559505939483643e-02 -4.265534505248069763e-02 -9.864348173141479492e-01
1.322914361953735352e-01 -2.958848476409912109e-01 -1.984940767288208008e-01
9.436540305614471436e-02 7.513449341058731079e-02 -7.821919322013854980e-01
-1.609075218439102173e-01 -7.867855578660964966e-02 -1.186839789152145386e-01
1.335430145263671875e-01 -3.177790939807891846e-01 5.249327421188354492e-02
-1.213808804750442505e-01 3.193359375000000000e-01 4.119935035705566406e-01
-5.585866421461105347e-02 2.732342481613159180e-01 8.297101259231567383e-01
9.480327367782592773e-02 4.899929165840148926e-01 -2.811092734336853027e-01
-5.026872828602790833e-02 1.848977357149124146e-01 -9.429562091827392578e-01
-8.550533652305603027e-02 2.341009974479675293e-01 7.517680525779724121e-01
-1.230318397283554077e-01 2.533166408538818359e-01 4.902815222740173340e-01
-1.372988522052764893e-01 -2.866832315921783447e-01 2.698585391044616699e-01
1.489382088184356689e-01 1.803768128156661987e-01 -1.626831889152526855e-01
-1.030891090631484985e-01 2.441304028034210205e-01 -7.205306291580200195e-01
1.487774103879928589e-01 2.207449227571487427e-01 7.091494649648666382e-02
1.200764775276184082e-01 -3.744871020317077637e-01 2.237112820148468018e-01
1.120754480361938477e-01 -1.818676143884658813e-01 6.478123068809509277e-01
-1.189251840114593506e-01 2.987334132194519043e-01 4.695760011672973633e-01
1.229834854602813721e-01 -3.692651987075805664e-01 -1.261378824710845947e-01
-1.536774933338165283e-01 -1.139315888285636902e-01 2.330437600612640381e-01
4.734761640429496765e-02 -2.939558625221252441e-01 -8.281055688858032227e-01
1.390725523233413696e-01 2.154930084943771362e-01 -3.223602473735809326e-01
1.141835302114486694e-01 4.277918338775634766e-01 2.596182525157928467e-01
4.852047190070152283e-02 1.105503961443901062e-01 -9.410247206687927246e-01
8.459824323654174805e-02 -3.812761604785919189e-01 -5.634174346923828125e-01
1.072969883680343628e-01 -3.036047518253326416e-01 5.515750646591186523e-01
-1.491546034812927246e-01 2.137152478098869324e-02 -4.457319378852844238e-01
-1.589549034833908081e-01 -3.279763087630271912e-02 -2.504092454910278320e-01
-1.620336920022964478e-01 -4.008842632174491882e-02 -8.069231361150741577e-02
-1.072065532207489014e-01 -1.169828847050666809e-01 -7.762414813041687012e-01
9.176306426525115967e-02 4.312597215175628662e-01 -4.750147163867950439e-01
2.895393408834934235e-04 3.143289983272552490e-01 8.781720995903015137e-01
-1.405880898237228394e-01 1.793011575937271118e-01 3.774332106113433838e-01
8.577781915664672852e-02 -1.478356570005416870e-01 8.129679560661315918e-01
6.812313199043273926e-02 3.533654212951660156e-01 -7.245541214942932129e-01
-1.043433696031570435e-01 -2.544822096824645996e-01 6.349059939384460449e-01
1.200918704271316528e-01 2.074575275182723999e-01 -5.523459911346435547e-01
-9.335016831755638123e-03 -5.508443713188171387e-01 -5.156897306442260742e-01
-4.977485164999961853e-02 -2.802059054374694824e-01 -8.768453598022460938e-01
-5.566487461328506470e-02 -5.522090792655944824e-01 3.666855990886688232e-01
1.413031220436096191e-01 -2.141909003257751465e-01 2.648334503173828125e-01
-1.196291595697402954e-01 -4.110425710678100586e-01 2.105732411146163940e-01
-1.231724172830581665e-01 2.031897008419036865e-02 -7.008986473083496094e-01
-1.424436122179031372e-01 2.552764415740966797e-01 -3.181367218494415283e-01
8.499358594417572021e-02 6.199630722403526306e-02 -8.287795782089233398e-01
-1.265425831079483032e-01 -7.541260868310928345e-02 -6.666293144226074219e-01
-1.596689969301223755e-01 2.486351504921913147e-02 1.302965283393859863e-01
3.044338151812553406e-02 6.177509427070617676e-01 2.633939087390899658e-01
-1.099456008523702621e-02 2.216230332851409912e-01 9.380596280097961426e-01
1.045749783515930176e-01 -1.371736377477645874e-01 7.247651815414428711e-01
-1.452867537736892700e-01 -1.890831142663955688e-01 3.046300411224365234e-01
-1.078438013792037964e-01 -9.863454848527908325e-03 -7.950683832168579102e-01
1.417737007141113281e-01 1.532234698534011841e-01 -3.490844964981079102e-01
1.246182769536972046e-01 1.416545957326889038e-01 -5.560973286628723145e-01
-1.274190694093704224e-01 3.648067712783813477e-01 -3.015051186084747314e-01
1.384328901767730713e-01 2.562997490167617798e-02 4.960728883743286133e-01
4.258748143911361694e-02 4.477020502090454102e-01 6.858460307121276855e-01
-1.374400705099105835e-01 2.038685381412506104e-01 3.911789655685424805e-01
6.960597634315490723e-02 2.442747056484222412e-01 -8.167751431465148926e-01
-8.235372602939605713e-02 4.963044524192810059e-01 -4.376507699489593506e-01
-1.337633132934570312e-01 3.504222333431243896e-01 1.229702159762382507e-01
8.715909719467163086e-02 4.294460713863372803e-01 -5.126374363899230957e-01
9.806191921234130859e-02 4.829268455505371094e-01 2.920893430709838867e-01
-1.405768245458602905e-01 -6.974972784519195557e-02 -5.415731072425842285e-01
-1.058546453714370728e-01 4.412706792354583740e-01 -3.768571615219116211e-01
-6.183072552084922791e-02 1.049553509801626205e-02 9.132180213928222656e-01
8.807106316089630127e-02 -4.379031062126159668e-01 -4.210195243358612061e-01
3.689040243625640869e-02 5.651617050170898438e-01 -4.522655010223388672e-01
1.554349362850189209e-01 3.551658987998962402e-02 -1.072261184453964233e-01
-1.064075231552124023e-01 -4.825187623500823975e-01 -1.756056249141693115e-01
-1.430732607841491699e-01 3.038616776466369629e-01 -6.653463095426559448e-02
6.307871639728546143e-02 -5.247440934181213379e-01 3.802531659603118896e-01
-1.131462901830673218e-01 7.043606787919998169e-02 6.833153963088989258e-01
-1.246177256107330322e-01 3.910553455352783203e-01 1.763444542884826660e-01
-9.067039191722869873e-02 2.958138585090637207e-01 -7.366877198219299316e-01
8.516058325767517090e-02 5.338856577873229980e-01 -2.114416658878326416e-01
8.692137897014617920e-02 1.332297176122665405e-01 8.260717988014221191e-01
-1.471685767173767090e-01 -2.450368851423263550e-01 1.597928106784820557e-01
2.603323664516210556e-03 6.408579349517822266e-01 -2.027370333671569824e-01
8.316782116889953613e-02 5.341336131095886230e-01 2.591004669666290283e-01
-5.615805462002754211e-02 3.997209668159484863e-01 -7.451187372207641602e-01
1.098964959383010864e-01 2.290097177028656006e-01 -6.161924600601196289e-01
9.081831574440002441e-02 -4.480808377265930176e-01 -3.669292628765106201e-01
-2.629065327346324921e-02 6.373752951622009277e-01 1.245379224419593811e-01
-1.503879874944686890e-01 5.927024781703948975e-02 3.244624137878417969e-01
1.217706501483917236e-01 -3.268947601318359375e-01 -3.103044629096984863e-01
5.558785423636436462e-02 -4.976559579372406006e-01 -4.918823540210723877e-01
9.456139802932739258e-02 -3.276918828487396240e-01 -5.798386931419372559e-01
-1.480313688516616821e-01 2.422262579202651978e-01 1.176484748721122742e-01
1.360695213079452515e-01 -2.811753153800964355e-01 1.966961324214935303e-01
5.743554607033729553e-02 4.342324435710906982e-01 6.658346652984619141e-01
-7.756309211254119873e-02 3.527343273162841797e-01 6.735781431198120117e-01
-6.262202560901641846e-02 3.116574287414550781e-01 7.761740684509277344e-01
9.235654957592487335e-03 -4.082494974136352539e-01 7.607511878013610840e-01
-1.395960003137588501e-01 2.478564828634262085e-01 -3.842273056507110596e-01
-3.845295682549476624e-02 6.335864067077636719e-01 -1.960053294897079468e-02
1.091423332691192627e-01 3.023459613323211670e-01 -5.472792387008666992e-01
-4.081165045499801636e-02 -1.132644899189472198e-02 -9.991452097892761230e-01
-1.228170245885848999e-01 -2.526833489537239075e-02 -7.031598091125488281e-01
1.187802106142044067e-01 -4.016056060791015625e-01 3.652966022491455078e-02
-1.306938678026199341e-01 8.512378484010696411e-02 5.463664531707763672e-01
7.391145825386047363e-02 4.873478710651397705e-01 4.918800592422485352e-01
8.617460727691650391e-02 5.386883616447448730e-01 -1.625012308359146118e-01
-8.908852934837341309e-02 4.109308421611785889e-01 -5.878533720970153809e-01
1.504833400249481201e-01 1.687490642070770264e-01 1.883647292852401733e-01
9.259265661239624023e-02 3.044681251049041748e-02 -7.961784005165100098e-01
1.435536891222000122e-01 2.013546228408813477e-01 -2.609813809394836426e-01
1.333568692207336426e-01 2.017091214656829834e-01 -4.199189245700836182e-01
-1.448732316493988037e-01 -2.789857983589172363e-01 1.137689650058746338e-01
1.176334917545318604e-01 2.912430167198181152e-01 -4.865660369396209717e-01
5.924955755472183228e-02 -5.808612704277038574e-01 7.140402495861053467e-02
1.295459121465682983e-01 1.779515594244003296e-01 5.287142395973205566e-01
7.647070288658142090e-02 -5.296137928962707520e-01 2.248624414205551147e-01
4.634185880422592163e-02 6.233679056167602539e-01 -7.408477365970611572e-02
8.834344148635864258e-02 4.328002408146858215e-02 -8.157028555870056152e-01
-5.991948302835226059e-03 6.511476635932922363e-01 -7.255426794290542603e-02
-1.105729639530181885e-01 -2.449744790792465210e-01 -6.743041872978210449e-01
-1.596601903438568115e-01 1.117478758096694946e-01 -1.599841564893722534e-02
1.462814360857009888e-01 2.380821704864501953e-01 -9.186827391386032104e-02
1.255475133657455444e-01 -3.608007729053497314e-01 1.281900852918624878e-01
-8.615517616271972656e-02 -4.806691408157348633e-01 -4.443145990371704102e-01
7.111586630344390869e-02 -3.662391006946563721e-01 6.786603331565856934e-01
-1.031463593244552612e-01 -4.556970596313476562e-01 2.944916188716888428e-01
-9.435811638832092285e-02 5.200923085212707520e-01 -1.827353686094284058e-01
-1.338423192501068115e-01 -3.669338524341583252e-01 3.817959129810333252e-02
-7.033467292785644531e-02 2.981607317924499512e-01 7.615970969200134277e-01
-7.823887467384338379e-02 -5.662841796875000000e-01 3.309215418994426727e-03
1.312486380338668823e-01 -2.914160490036010742e-01 2.831876873970031738e-01
-1.407587826251983643e-01 2.796926498413085938e-01 -2.919526398181915283e-01
-1.296518296003341675e-01 3.265674710273742676e-01 2.903294563293457031e-01
-1.474262177944183350e-01 -2.086669951677322388e-01 2.355773746967315674e-01
1.367566585540771484e-01 -1.195500642061233521e-01 4.658235013484954834e-01
1.520684659481048584e-01 -9.140351787209510803e-03 -2.154189646244049072e-01
-5.338555574417114258e-02 -7.690978050231933594e-02 9.267556667327880859e-01
-1.393588036298751831e-01 1.238565444946289062e-01 -5.263162255287170410e-01
-1.472283005714416504e-01 -1.835118234157562256e-01 -3.682924211025238037e-01
1.561292260885238647e-01 2.036146260797977448e-02 -7.253890484571456909e-02
1.533030122518539429e-01 1.206965446472167969e-01 1.720264703035354614e-01
8.240571618080139160e-02 -4.169449508190155029e-01 5.357282757759094238e-01
-8.047036826610565186e-02 5.326515436172485352e-01 -3.246107697486877441e-01
1.560178846120834351e-01 6.610115617513656616e-02 1.087834686040878296e-01
1.507454514503479004e-01 -1.024166047573089600e-01 2.308643758296966553e-01
-7.393021881580352783e-02 2.471281439065933228e-01 -8.458446860313415527e-01
1.142326891422271729e-01 9.473506361246109009e-02 -6.577333807945251465e-01
8.631013333797454834e-02 -2.876572310924530029e-01 7.044083476066589355e-01
1.256742179393768311e-01 2.105247378349304199e-01 -4.972968399524688721e-01
-4.463744163513183594e-02 2.848004102706909180e-01 -8.902775645256042480e-01
1.491438597440719604e-01 8.129579573869705200e-02 3.229533433914184570e-01
8.740256540477275848e-03 3.579230308532714844e-01 -8.532265424728393555e-01
1.527683883905410767e-01 -1.263806521892547607e-01 5.001324042677879333e-02
3.863027691841125488e-02 -2.260110378265380859e-01 -9.012894630432128906e-01
4.643870145082473755e-02 6.056770086288452148e-01 -2.389322966337203979e-01
-1.201834231615066528e-01 -4.156230688095092773e-01 1.796341985464096069e-01
-1.489408910274505615e-01 1.658597141504287720e-01 -3.520868420600891113e-01
8.834417164325714111e-02 2.205875664949417114e-01 -7.520108819007873535e-01
3.405612893402576447e-03 6.128756999969482422e-01 3.393210172653198242e-01
1.286135017871856689e-01 -3.448813855648040771e-01 1.115449294447898865e-01
-2.729751355946063995e-02 5.537531375885009766e-01 -5.263257622718811035e-01
8.778811991214752197e-02 2.773351073265075684e-01 -7.111186981201171875e-01
-2.234003879129886627e-02 -3.803640902042388916e-01 -8.127136230468750000e-01
-7.829362154006958008e-02 -5.527146458625793457e-01 1.674291789531707764e-01
1.351803243160247803e-01 -2.914538085460662842e-01 1.800817251205444336e-01
-1.002460718154907227e-01 3.149071037769317627e-01 -6.636416912078857422e-01
9.782588481903076172e-02 -4.638662636280059814e-01 2.457398027181625366e-01
-1.591081768274307251e-01 -5.373761430382728577e-02 -2.352685332298278809e-01
-5.338275805115699768e-02 -5.058797001838684082e-01 -5.510651469230651855e-01
6.971403956413269043e-02 -3.376324847340583801e-02 -8.887619376182556152e-01
-1.414818018674850464e-01 -7.946249842643737793e-02 -5.281491875648498535e-01
1.555595397949218750e-01 -2.352278865873813629e-02 -8.497615158557891846e-02
-2.144431695342063904e-02 -6.158031225204467773e-01 2.277467548847198486e-01
7.082046568393707275e-02 -5.520631074905395508e-01 1.530545502901077271e-01
-8.588810265064239502e-02 5.968922749161720276e-03 -8.918066024780273438e-01
-6.016410887241363525e-02 -5.768801569938659668e-01 2.289501577615737915e-01
-1.267177015542984009e-01 3.362305164337158203e-01 3.115260601043701172e-01
6.092773750424385071e-02 6.040799021720886230e-01 1.457147300243377686e-04
6.107440218329429626e-02 -4.716673195362091064e-01 -5.250265598297119141e-01
1.271264106035232544e-01 9.928113967180252075e-02 5.948376655578613281e-01
9.353308379650115967e-02 -3.675669431686401367e-02 -7.876586914062500000e-01
-1.961079053580760956e-02 1.021538004279136658e-01 -1.006734132766723633e+00
9.171035885810852051e-02 4.743854701519012451e-01 -3.690640926361083984e-01
1.443630009889602661e-01 2.670505046844482422e-01 8.273289352655410767e-02
5.589261651039123535e-02 1.562967002391815186e-01 9.155054688453674316e-01
1.482770591974258423e-01 4.179429262876510620e-02 -2.991313040256500244e-01
1.442625522613525391e-01 2.626354992389678955e-01 1.242911592125892639e-01
-8.619947731494903564e-02 1.681113243103027344e-01 7.891360521316528320e-01
-1.060694307088851929e-01 3.259382843971252441e-01 5.396789312362670898e-01
7.859700918197631836e-02 -5.152609944343566895e-01 2.747228443622589111e-01
-1.542049497365951538e-01 1.511462479829788208e-01 1.587642878293991089e-01
1.016542166471481323e-01 3.530921936035156250e-01 -5.369830131530761719e-01
-5.132303759455680847e-02 -6.103756427764892578e-01 1.039634179323911667e-02
1.485014408826828003e-01 -5.639616027474403381e-02 -2.743388712406158447e-01
1.304989904165267944e-01 -8.910806477069854736e-02 5.534538626670837402e-01
-6.576168537139892578e-02 3.480827808380126953e-01 -7.796910405158996582e-01
-9.192551672458648682e-02 4.791322648525238037e-01 3.420670926570892334e-01
-2.559370547533035278e-02 3.385226130485534668e-01 8.364494442939758301e-01
-1.105788648128509521e-01 4.402796626091003418e-01 -3.158807158470153809e-01
-1.425355672836303711e-01 -1.505646556615829468e-01 3.853038251399993896e-01
-3.179381042718887329e-02 6.159104108810424805e-01 2.508697211742401123e-01
-7.501614093780517578e-02 1.623261421918869019e-01 -8.922052979469299316e-01
1.427569687366485596e-01 2.671385705471038818e-01 -1.226093173027038574e-01
-1.009645164012908936e-01 -2.177285403013229370e-01 -7.524304389953613281e-01
-1.476903408765792847e-01 -2.119009643793106079e-01 -3.138121962547302246e-01
-1.610515117645263672e-01 7.568694651126861572e-02 -7.715366780757904053e-02
-7.775594480335712433e-03 3.317757546901702881e-01 8.599278330802917480e-01
-1.538045853376388550e-01 -1.024910882115364075e-01 2.405888587236404419e-01
-1.251806318759918213e-01 -3.892037570476531982e-01 1.888129860162734985e-01
5.483409762382507324e-02 -7.757847011089324951e-02 9.354004263877868652e-01
-1.827871426939964294e-02 -5.940968990325927734e-01 -3.683946728706359863e-01
1.440921723842620850e-01 -2.318421751260757446e-01 -3.382335230708122253e-02
-7.859674096107482910e-02 1.243805140256881714e-01 -8.958217501640319824e-01
9.717361629009246826e-02 4.112955331802368164e-01 -4.721085131168365479e-01
-1.481129676103591919e-01 1.888091266155242920e-01 -3.340609073638916016e-01
-4.147141799330711365e-02 -6.194627881050109863e-01 5.633554607629776001e-02
-1.552805900573730469e-01 -1.290950924158096313e-01 1.768494546413421631e-01
5.676901713013648987e-02 -3.604559600353240967e-01 -7.279886007308959961e-01
1.080371141433715820e-01 -3.150717616081237793e-01 -4.924151301383972168e-01
1.518116593360900879e-01 -1.243927180767059326e-01 -8.935926854610443115e-02
1.557430475950241089e-01 -4.813669994473457336e-02 -3.380133584141731262e-02
-3.601441904902458191e-02 -6.233788132667541504e-01 -1.061344221234321594e-01
1.519576460123062134e-01 6.605436652898788452e-02 -2.114971429109573364e-01
9.282770752906799316e-02 4.330683648586273193e-01 4.877619743347167969e-01
-1.494381278753280640e-01 -2.560754716396331787e-01 -9.273079782724380493e-02
-1.568970233201980591e-01 -1.693418920040130615e-01 -5.364828743040561676e-03
-1.540802419185638428e-01 1.748000085353851318e-01 -2.040954977273941040e-01
1.486134529113769531e-01 1.376009285449981689e-01 -2.361058890819549561e-01
-7.816351950168609619e-02 5.149230957031250000e-01 3.536366820335388184e-01
-1.479338109493255615e-01 -2.564997971057891846e-01 -1.832382231950759888e-01
1.522650420665740967e-01 1.163685917854309082e-01 -1.613282561302185059e-01
1.040455698966979980e-01 -3.105791807174682617e-01 5.669758319854736328e-01
-8.549827337265014648e-02 -3.230363428592681885e-01 6.687696576118469238e-01
-1.543034017086029053e-01 -1.205191612243652344e-01 -3.054924905300140381e-01
1.422985270619392395e-02 4.566918909549713135e-01 -7.253546714782714844e-01
-1.090087443590164185e-01 4.352077245712280273e-01 2.830552458763122559e-01
-1.621194481849670410e-01 -3.723638504743576050e-02 -6.887461245059967041e-02
-2.620677463710308075e-02 5.966722369194030762e-01 3.599963784217834473e-01
1.403000801801681519e-01 -2.474567443132400513e-01 -1.423814892768859863e-01
-1.240485906600952148e-01 1.020673140883445740e-01 -6.753250360488891602e-01
-1.543493568897247314e-01 1.861174702644348145e-01 5.804781615734100342e-02
-1.603399962186813354e-01 9.536075592041015625e-02 -1.476574130356311798e-02
-1.109241843223571777e-01 4.729202389717102051e-01 2.236641943454742432e-03
-5.133019760251045227e-02 -3.950624167919158936e-01 -7.523820996284484863e-01
7.695804536342620850e-02 -4.797137975692749023e-01 -4.010594487190246582e-01
5.720841512084007263e-02 4.323586523532867432e-01 -6.618077754974365234e-01
-9.817659854888916016e-02 5.091728568077087402e-01 1.089486628770828247e-01
1.186966001987457275e-01 -3.165108263492584229e-01 -3.767218291759490967e-01
-1.434383988380432129e-01 -2.779894471168518066e-01 -2.494757026433944702e-01
-1.142178326845169067e-01 -2.470366507768630981e-01 5.746051073074340820e-01
1.485818028450012207e-01 -1.308714151382446289e-01 2.481961399316787720e-01
9.964863955974578857e-02 -4.773276746273040771e-01 -6.034359708428382874e-02
-1.334317922592163086e-01 -7.383323460817337036e-02 -6.102787256240844727e-01
-2.910814248025417328e-02 -3.087497353553771973e-01 -8.813658952713012695e-01
-2.077973261475563049e-02 2.577921450138092041e-01 9.075879454612731934e-01
1.044564098119735718e-01 -1.147615313529968262e-01 -7.033248543739318848e-01
7.439176738262176514e-02 -3.578245341777801514e-01 -6.566065549850463867e-01
9.837429225444793701e-02 -1.389573812484741211e-01 7.581677436828613281e-01
1.384748071432113647e-01 -2.604949474334716797e-01 2.032003700733184814e-01
-1.491421461105346680e-01 1.942158043384552002e-01 -3.026661872863769531e-01
-1.396173052489757538e-02 6.309340000152587891e-01 -2.586725056171417236e-01
6.735923886299133301e-02 -4.151894152164459229e-01 -6.035655736923217773e-01
-8.491912484169006348e-02 5.450493097305297852e-01 1.264965385198593140e-01
-1.301273256540298462e-01 -2.519959211349487305e-01 4.254312217235565186e-01
-9.188698232173919678e-02 1.444325149059295654e-01 7.745229005813598633e-01
-1.076084375381469727e-01 -4.245446920394897461e-01 3.378574550151824951e-01
-1.272429078817367554e-01 2.892179787158966064e-01 -4.783408045768737793e-01
-6.158127635717391968e-02 -3.782572746276855469e-01 7.006775736808776855e-01
4.253454878926277161e-02 3.056842088699340820e-01 8.517042994499206543e-01
-1.606037765741348267e-01 4.204353317618370056e-02 8.153187483549118042e-02
-2.444863319396972656e-02 4.304234981536865234e-01 7.314499020576477051e-01
-1.376109421253204346e-01 -1.340005695819854736e-01 -5.418141484260559082e-01
1.423388272523880005e-01 2.617038488388061523e-01 2.070895880460739136e-01
-6.316763162612915039e-02 3.326298296451568604e-01 7.535537481307983398e-01
1.476954966783523560e-01 -1.385221332311630249e-01 2.589971125125885010e-01
1.526889652013778687e-01 1.019261106848716736e-01 -1.640845090150833130e-01
5.053459201008081436e-03 4.170562326908111572e-01 7.703554630279541016e-01
1.364041417837142944e-01 3.156533241271972656e-01 1.925138980150222778e-01
1.727768220007419586e-03 -6.136935353279113770e-01 2.613985538482666016e-01
1.089317202568054199e-01 2.917508482933044434e-01 5.952052474021911621e-01
1.046121120452880859e-01 3.641082346439361572e-02 7.628293037414550781e-01
6.765818595886230469e-02 -4.897633790969848633e-01 -4.416319131851196289e-01
1.012618839740753174e-01 4.224026501178741455e-01 -4.113068282604217529e-01
-1.359228193759918213e-01 2.489761412143707275e-01 3.501045107841491699e-01
-1.129415780305862427e-01 2.780408561229705811e-01 5.480074286460876465e-01
5.523221194744110107e-02 -3.783577680587768555e-01 -7.103813886642456055e-01
-1.352409571409225464e-01 3.564722537994384766e-01 -9.687880985438823700e-03
1.554234772920608521e-01 6.230119615793228149e-02 1.500674784183502197e-01
-1.579558551311492920e-01 2.390903607010841370e-02 -2.790296077728271484e-01
1.206425875425338745e-01 -3.632228970527648926e-01 2.592420578002929688e-01
1.445943415164947510e-01 2.667636275291442871e-01 -4.942470695823431015e-03
-1.607469916343688965e-01 -9.434588998556137085e-02 -2.227775752544403076e-02
-1.561211943626403809e-01 1.187970414757728577e-01 -2.500999867916107178e-01
-1.223843395709991455e-01 3.246141076087951660e-01 3.912934362888336182e-01
1.261590123176574707e-01 1.546693891286849976e-01 -5.345219373703002930e-01
-1.072301417589187622e-01 -4.334235787391662598e-01 -3.856429457664489746e-01
6.554841995239257812e-02 3.307058513164520264e-01 -7.589036822319030762e-01
-2.662002481520175934e-02 -6.269509196281433105e-01 1.129064187407493591e-01
1.166585087776184082e-01 6.977231707423925400e-03 6.893447041511535645e-01
1.542179137468338013e-01 -9.131576865911483765e-02 -3.719560056924819946e-02
1.398914307355880737e-01 2.357575148344039917e-01 3.250044286251068115e-01
1.088826656341552734e-01 -1.108083315193653107e-02 7.379776835441589355e-01
1.123334765434265137e-01 -4.307324886322021484e-01 4.248159378767013550e-02
-5.270558223128318787e-02 6.858173012733459473e-02 -9.755362868309020996e-01
1.062827557325363159e-01 -3.388079255819320679e-02 7.502313852310180664e-01
-3.800053894519805908e-02 6.078827977180480957e-01 2.611281573772430420e-01
9.386184811592102051e-02 5.183951184153556824e-02 8.152905702590942383e-01
3.325528278946876526e-02 1.977621950209140778e-02 -9.845503568649291992e-01
-1.548507213592529297e-01 -1.669669300317764282e-01 1.223695054650306702e-01
-1.605502963066101074e-01 8.996696770191192627e-02 -8.106721937656402588e-02
5.984974279999732971e-02 1.709500104188919067e-01 -8.899105787277221680e-01
1.170317828655242920e-01 2.868027985095977783e-01 -4.980849623680114746e-01
-1.439236551523208618e-01 2.833841741085052490e-01 -1.883837133646011353e-01
-7.464777212589979172e-03 -6.369845271110534668e-01 3.759225830435752869e-02
-1.599456220865249634e-01 1.204879023134708405e-02 1.244523748755455017e-01
-4.189525544643402100e-02 2.272570319473743439e-02 9.586102366447448730e-01
3.708996623754501343e-02 3.469460904598236084e-01 -8.247027397155761719e-01
-9.850387275218963623e-02 2.310409247875213623e-01 -7.560309767723083496e-01
-1.162893921136856079e-01 3.946955800056457520e-01 3.074127733707427979e-01
-5.240352451801300049e-02 5.693281292915344238e-01 -3.934970498085021973e-01
-5.050524324178695679e-02 5.435760617256164551e-01 4.405480325222015381e-01
4.326643794775009155e-02 -1.398014873266220093e-01 9.390065670013427734e-01
-1.389889866113662720e-01 1.460440903902053833e-01 -5.148262381553649902e-01
-2.265774644911289215e-02 5.730219483375549316e-01 -4.807038903236389160e-01
7.582754828035831451e-03 -5.448133349418640137e-01 5.091663599014282227e-01
1.108648926019668579e-01 -2.354499548673629761e-01 6.083821058273315430e-01
6.538905203342437744e-02 -3.624491095542907715e-01 -6.918004155158996582e-01
-5.488713458180427551e-02 6.100006103515625000e-01 -1.226733699440956116e-01
1.060587316751480103e-01 -5.758516862988471985e-02 -7.131541967391967773e-01
1.537855565547943115e-01 1.387537121772766113e-01 -4.273141548037528992e-02
9.852708876132965088e-02 1.324054002761840820e-01 -7.441630363464355469e-01
1.555536985397338867e-01 1.007491201162338257e-01 6.679020076990127563e-02
-1.124157458543777466e-01 1.205831691622734070e-01 6.713472008705139160e-01
1.534871309995651245e-01 1.259567141532897949e-01 1.536523699760437012e-01
-1.619938164949417114e-01 3.737035393714904785e-02 -3.194454312324523926e-02
-9.553988277912139893e-02 5.223580002784729004e-01 5.349434167146682739e-02
1.504590660333633423e-01 -5.027323588728904724e-02 -2.354264259338378906e-01
-1.253649443387985229e-01 1.782740801572799683e-01 -6.216707825660705566e-01
-1.288158744573593140e-01 -3.786658942699432373e-01 1.498318165540695190e-01
-1.186086684465408325e-01 -2.582213580608367920e-01 -6.036911010742187500e-01
-1.018750518560409546e-01 6.557384040206670761e-03 7.568644881248474121e-01
1.009842455387115479e-01 4.502464234828948975e-01 3.698800504207611084e-01
1.056880056858062744e-01 2.707751989364624023e-01 -6.085469722747802734e-01
1.310387998819351196e-01 -1.550753861665725708e-01 -4.572002291679382324e-01
1.304013431072235107e-01 1.022768393158912659e-01 -5.189760923385620117e-01
1.357372850179672241e-01 -2.892654836177825928e-01 -1.216078177094459534e-01
-4.202297702431678772e-02 -6.074776053428649902e-01 1.822550147771835327e-01
1.351221352815628052e-01 -5.528353527188301086e-02 -4.723997414112091064e-01
8.224022388458251953e-02 -2.819927930831909180e-01 7.296783328056335449e-01
-1.358856260776519775e-01 5.959610268473625183e-02 5.055261850357055664e-01
1.271225064992904663e-01 3.892218172550201416e-01 1.028504446148872375e-01
-6.644324958324432373e-02 3.195036351680755615e-01 -8.076725006103515625e-01
-4.971285164356231689e-02 3.035941123962402344e-01 -8.651127219200134277e-01
1.207090020179748535e-01 3.906507492065429688e-01 2.804564535617828369e-01
-4.779968038201332092e-02 -5.812732577323913574e-01 2.946216464042663574e-01
-1.280584782361984253e-01 3.420779705047607422e-01 2.764054536819458008e-01
1.181001216173171997e-01 -2.418230623006820679e-01 -5.012245774269104004e-01
1.425370126962661743e-01 -9.386081248521804810e-02 4.059267938137054443e-01
-1.507767438888549805e-01 -9.842406213283538818e-02 -3.930200934410095215e-01
1.068517416715621948e-01 2.409620434045791626e-01 6.606042981147766113e-01
-1.519398987293243408e-01 -1.078342720866203308e-01 2.734716832637786865e-01
9.833918511867523193e-02 4.503126740455627441e-01 -3.700525164604187012e-01
-8.782148361206054688e-02 -5.447556376457214355e-01 -3.897398710250854492e-02
1.550458073616027832e-01 -7.922549545764923096e-02 1.955015957355499268e-02
-3.496294468641281128e-02 1.302139908075332642e-01 9.509810805320739746e-01
1.218475550413131714e-01 3.305273056030273438e-01 4.174906313419342041e-01
6.557895243167877197e-02 -4.449053704738616943e-01 5.731348395347595215e-01
7.456000149250030518e-02 5.080819725990295410e-01 -4.178561270236968994e-01
-1.498849689960479736e-01 9.202440828084945679e-02 -4.073349833488464355e-01
8.156877756118774414e-02 -5.022649765014648438e-01 -2.756527960300445557e-01
1.209601461887359619e-01 -3.062891960144042969e-01 -3.685283064842224121e-01
1.187859624624252319e-01 4.343698024749755859e-01 6.354193389415740967e-02
7.234250009059906006e-02 5.353844165802001953e-01 3.628725409507751465e-01
-7.462701201438903809e-02 9.727005660533905029e-02 -9.164836406707763672e-01
1.154750287532806396e-01 -3.379274904727935791e-01 -3.713887333869934082e-01
-1.082082539796829224e-01 -4.232183396816253662e-01 -4.043874144554138184e-01
-1.602985560894012451e-01 -1.020670682191848755e-01 4.526982083916664124e-03
1.234712898731231689e-01 -3.528151214122772217e-01 -1.958384960889816284e-01
-1.157152652740478516e-01 3.745585381984710693e-01 3.653855323791503906e-01
-8.078221976757049561e-02 5.449102520942687988e-01 -2.593369483947753906e-01
1.231004148721694946e-01 -1.587184816598892212e-01 5.782933235168457031e-01
-1.373093128204345703e-01 2.772559225559234619e-01 2.771287262439727783e-01
-8.090810477733612061e-02 3.835650980472564697e-01 -6.757340431213378906e-01
-1.175610572099685669e-01 4.131027758121490479e-01 -3.058339059352874756e-01
1.109902709722518921e-01 3.082308769226074219e-01 -5.244153738021850586e-01
1.099260151386260986e-01 3.745991289615631104e-01 -4.272315204143524170e-01
-9.902004897594451904e-02 5.129417181015014648e-01 3.226362541317939758e-02
1.085806190967559814e-01 -9.648027271032333374e-02 7.194489836692810059e-01
2.984693646430969238e-02 -5.183519124984741211e-01 5.404904484748840332e-01
1.497792601585388184e-01 1.959422528743743896e-01 -8.635364472866058350e-02
-1.206930130720138550e-01 -1.226182878017425537e-01 6.145948767662048340e-01
6.802533566951751709e-02 -1.092836335301399231e-01 -8.769292235374450684e-01
1.334841102361679077e-01 -2.991612553596496582e-01 2.006263881921768188e-01
-3.312343731522560120e-02 -3.179568648338317871e-01 -8.689335584640502930e-01
1.525686532258987427e-01 7.754315435886383057e-02 2.439851313829421997e-01
-1.505071222782135010e-01 1.666432917118072510e-01 -3.193830847740173340e-01
1.432174891233444214e-01 -7.317879050970077515e-02 4.091941416263580322e-01
-1.520643979310989380e-01 1.708071082830429077e-01 1.822423040866851807e-01
-1.480578780174255371e-01 -4.121465981006622314e-02 -4.586858153343200684e-01
9.324178099632263184e-02 3.007368743419647217e-01 -6.585273146629333496e-01
7.909809052944183350e-02 3.259215652942657471e-01 -7.067607641220092773e-01
-9.581303596496582031e-02 2.710033953189849854e-01 -7.354629039764404297e-01
-1.543906033039093018e-01 -1.732192561030387878e-02 2.672455012798309326e-01
-2.812470495700836182e-02 -5.640127062797546387e-01 4.309377670288085938e-01
5.565250664949417114e-02 -3.573504984378814697e-01 7.458841204643249512e-01
2.174812927842140198e-02 -6.248112916946411133e-01 -1.043950319290161133e-01
-1.340867578983306885e-01 1.657326370477676392e-01 4.671938717365264893e-01
1.365222036838531494e-01 3.311991691589355469e-01 -4.030082002282142639e-02
-1.503707766532897949e-01 -2.237855792045593262e-01 1.239116415381431580e-01
1.373665630817413330e-01 3.275563120841979980e-01 6.920914165675640106e-03
-8.249315619468688965e-02 -4.193198680877685547e-01 -6.039279699325561523e-01
-1.557919085025787354e-01 -1.807748377323150635e-01 2.852185815572738647e-02
-9.633566439151763916e-02 6.314955651760101318e-02 -8.446080684661865234e-01
6.933078169822692871e-02 -5.294315814971923828e-01 3.105011880397796631e-01
-1.530632078647613525e-01 2.000438868999481201e-01 -1.623135507106781006e-01
5.825841426849365234e-02 3.159550726413726807e-01 -7.984569072723388672e-01
7.757747173309326172e-02 -2.082657814025878906e-01 8.105275034904479980e-01
-1.061994433403015137e-01 4.797131121158599854e-01 1.267384588718414307e-01
-1.408296674489974976e-01 1.734058111906051636e-01 -4.683295488357543945e-01
-1.177271455526351929e-01 -4.464676976203918457e-01 -1.064101904630661011e-01
-6.657141447067260742e-02 -5.097039341926574707e-01 -4.862666726112365723e-01
-3.963461890816688538e-02 -6.181554198265075684e-01 -1.387822329998016357e-01
-1.256860494613647461e-01 3.559131026268005371e-01 -3.584381341934204102e-01
8.123974502086639404e-02 1.734317094087600708e-01 -8.113150596618652344e-01
-5.198200792074203491e-02 -5.961887836456298828e-01 1.809936910867691040e-01
1.062445789575576782e-01 4.797954559326171875e-01 1.478176563978195190e-01
-1.213851571083068848e-01 2.371567636728286743e-01 -6.018850207328796387e-01
1.014832556247711182e-01 -1.370584368705749512e-01 -7.108026146888732910e-01
-1.518041640520095825e-01 -2.065317481756210327e-01 -2.181581258773803711e-01
-1.466493755578994751e-01 1.639066636562347412e-01 3.039599061012268066e-01
-1.574988216161727905e-01 -8.858780562877655029e-02 1.613917350769042969e-01
-1.553260385990142822e-01 -1.274799108505249023e-01 -2.716477513313293457e-01
-1.378574520349502563e-01 -2.275338321924209595e-01 -4.487477242946624756e-01
-7.589694857597351074e-02 1.457575261592864990e-01 8.403519988059997559e-01
8.433021605014801025e-02 4.966590702533721924e-01 3.927167952060699463e-01
-8.277992904186248779e-02 3.326704800128936768e-01 -7.330073118209838867e-01
1.517574638128280640e-01 1.783965826034545898e-01 -2.826632559299468994e-02
-8.220538496971130371e-02 5.281003117561340332e-01 2.651312947273254395e-01
-2.039311639964580536e-02 4.139621183276176453e-02 9.873919486999511719e-01
-4.912878572940826416e-02 5.375505685806274414e-01 4.633350074291229248e-01
-8.667618036270141602e-02 5.424481034278869629e-01 1.088915541768074036e-01
-1.040599048137664795e-01 -1.873451471328735352e-01 6.885918378829956055e-01
1.494109183549880981e-01 1.021648123860359192e-01 -2.503445744514465332e-01
-5.668911710381507874e-02 2.457388937473297119e-01 -8.946369290351867676e-01
5.969487875699996948e-02 -5.814969539642333984e-01 -1.657895743846893311e-03
5.042262375354766846e-02 5.475530028343200684e-01 -4.484837651252746582e-01
-8.441266417503356934e-02 -5.428120493888854980e-01 1.364970654249191284e-01
1.302156746387481689e-01 5.540936440229415894e-02 5.783713459968566895e-01
-9.472313523292541504e-02 2.499429434537887573e-01 -7.596347928047180176e-01
1.045635044574737549e-01 -3.983106911182403564e-01 3.901921808719635010e-01
8.026126027107238770e-02 5.647129416465759277e-01 -2.140980958938598633e-02
9.792384505271911621e-02 -1.093851551413536072e-01 7.738704085350036621e-01
-1.508904546499252319e-01 2.299710363149642944e-01 -1.321710944175720215e-01
6.354849040508270264e-02 -5.704607367515563965e-01 -9.837422519922256470e-02
1.564131677150726318e-01 7.188163697719573975e-02 2.947143092751502991e-02
1.209047287702560425e-01 -3.858727514743804932e-01 1.246937587857246399e-01
-1.264024823904037476e-01 -7.735839486122131348e-02 5.871963500976562500e-01
-9.327171742916107178e-02 -4.167276322841644287e-01 4.832630753517150879e-01
1.428176760673522949e-01 2.617089748382568359e-01 1.913460940122604370e-01
1.038471758365631104e-01 3.913233280181884766e-01 -4.532725214958190918e-01
-1.550655215978622437e-01 9.585129469633102417e-02 -3.051342666149139404e-01
1.014108210802078247e-01 4.572967886924743652e-01 -3.135857880115509033e-01
7.689112424850463867e-02 2.777470946311950684e-01 -7.623075246810913086e-01
-1.583016961812973022e-01 6.393337994813919067e-02 1.511341482400894165e-01
-4.719926789402961731e-02 1.428293287754058838e-01 9.237781763076782227e-01
-1.616300195455551147e-01 -2.601683139801025391e-02 4.139207676053047180e-02
1.258179843425750732e-01 -2.797918915748596191e-01 -3.552676439285278320e-01
-1.455819755792617798e-01 2.412255704402923584e-01 -2.827693521976470947e-01
9.405852854251861572e-02 1.756926476955413818e-01 -7.490845322608947754e-01
3.027531318366527557e-03 5.382043719291687012e-01 5.643177628517150879e-01
